20.204702377319336,73.76155090332031,-12.504294395446777
17.918128967285156,77.51057434082031,-13.007213592529297
18.798664093017578,77.5938949584961,-12.373257637023926
8.599828720092773,42.97394561767578,-6.7920823097229
-20.84087371826172,61.881805419921875,-10.119630813598633
-23.967222213745117,62.71473693847656,-10.405010223388672
-20.096834182739258,34.63542175292969,-6.205898284912109
-21.791898727416992,34.303836822509766,-6.29837703704834
-24.313352584838867,35.07567596435547,-6.614216327667236
-10.149152755737305,13.453365325927734,-2.611734390258789
-15.532099723815918,13.72138786315918,-3.211916923522949
46.51570129394531,-29.832904815673828,-8.564170837402344
49.13754653930664,-28.79640769958496,-8.826602935791016
9.728458404541016,-5.187889099121094,-1.7086825370788574
9.967717170715332,-4.811587333679199,-1.7153440713882446
65.24193572998047,-28.320833206176758,-11.022638320922852
13.600728034973145,-5.2652435302734375,-2.260256052017212
17.998687744140625,-5.351421356201172,-2.910092353820801
24.755565643310547,-5.241150379180908,-3.9216198921203613
83.34793090820312,16.304651260375977,-13.161966323852539
61.45867156982422,22.706819534301758,-10.154065132141113
70.68487548828125,29.393959045410156,-11.864055633544922
70.18756866455078,32.55312728881836,-11.99056339263916
69.67520141601562,35.7839241027832,-12.138998031616211
37.07918167114258,20.966819763183594,-6.601558208465576
34.16703796386719,21.17513084411621,-6.229616165161133
31.5740909576416,21.36998176574707,-5.90872049331665
29.24262809753418,21.554162979125977,-5.630032539367676
27.151424407958984,21.74884796142578,-5.391403675079346
25.215839385986328,21.918012619018555,-5.177851676940918
23.43282127380371,22.08192253112793,-4.989987850189209
21.77910614013672,22.241792678833008,-4.824352264404297
20.23558807373047,22.398653030395508,-4.67813777923584
18.786331176757812,22.55339813232422,-4.549037456512451
17.73869514465332,23.124940872192383,-4.51682710647583
16.414125442504883,23.278108596801758,-4.414284706115723
15.55636215209961,24.05879783630371,-4.440140247344971
18.562368392944336,31.406814575195312,-5.6539483070373535
10.05458927154541,18.68736457824707,-3.288729429244995
17.282804489135742,35.46659469604492,-6.114431858062744
17.295467376708984,39.4420280456543,-6.674527168273926
18.506942749023438,47.28391647338867,-7.8692946434021
17.026744842529297,49.244930267333984,-8.075212478637695
21.3209228515625,70.7481918334961,-11.451515197753906
19.69073486328125,76.31063079833984,-12.213868141174316
16.856464385986328,78.18610382080078,-12.395566940307617
-10.599043846130371,45.33781814575195,-7.215838432312012
-19.737192153930664,61.61174774169922,-10.02646541595459
-22.791759490966797,62.39957809448242,-10.295485496520996
-20.091598510742188,35.840946197509766,-6.367790222167969
-7.214944839477539,11.738642692565918,-2.135392904281616
-23.352375030517578,34.78022384643555,-6.492455959320068
-9.841361999511719,13.456013679504395,-2.5836188793182373
-15.983597755432129,13.4146146774292,-3.233919858932495
47.590232849121094,-28.84647560119629,-8.624585151672363
9.721155166625977,-5.37070894241333,-1.7212055921554565
9.740551948547363,-4.881410598754883,-1.6885284185409546
53.98975372314453,-24.394546508789062,-9.181719779968262
13.91340160369873,-4.984647750854492,-2.290480852127075
85.09777069091797,-26.681804656982422,-13.82138729095459
24.440336227416992,-5.554478645324707,-3.8843111991882324
84.13782501220703,15.166839599609375,-13.24970817565918
81.99065399169922,28.917695999145508,-13.4739408493042
70.86506652832031,28.243257522583008,-11.82266902923584
61.76835632324219,27.542377471923828,-10.48129653930664
69.86626434326172,34.5819206237793,-12.081562042236328
35.20152282714844,21.099956512451172,-6.360452175140381
32.49824905395508,21.29941749572754,-6.021867275238037
30.07607650756836,21.48725128173828,-5.728485107421875
27.88580322265625,21.665863037109375,-5.472795486450195
25.911338806152344,21.856237411499023,-5.253499507904053
24.0749454498291,22.02193260192871,-5.0565924644470215
22.37592315673828,22.183168411254883,-4.883110523223877
20.793724060058594,22.341028213500977,-4.73001766204834
19.31135368347168,22.496456146240234,-4.594838619232178
18.2451171875,23.068254470825195,-4.558127403259277
16.895557403564453,23.22159194946289,-4.450610160827637
15.610563278198242,23.37466812133789,-4.356149673461914
18.580183029174805,30.398202896118164,-5.521396160125732
10.412222862243652,18.68242073059082,-3.3146798610687256
17.278223037719727,34.1607780456543,-5.9328508377075195
17.29074478149414,37.89262008666992,-6.455033779144287
19.271385192871094,47.16330337524414,-7.895939350128174
17.21363067626953,47.492191314697266,-7.8288116455078125
21.275611877441406,66.98441314697266,-10.892196655273438
20.017005920410156,73.07630920410156,-11.742443084716797
17.939096450805664,77.6012954711914,-12.343690872192383
13.364346504211426,90.37247467041016,-14.158096313476562
18.827512741088867,77.71294403076172,-11.712577819824219
8.619241714477539,43.07094955444336,-6.434054374694824
4.383978366851807,56.849365234375,-8.351929664611816
-20.631908416748047,61.26136016845703,-9.468711853027344
-23.72023582458496,62.06838607788086,-9.732975006103516
-19.629480361938477,37.1964111328125,-6.160611152648926
-20.036895751953125,34.53213119506836,-5.848036766052246
-21.509502410888672,33.85929489135742,-5.875791072845459
-9.805719375610352,14.146240234375,-2.5212528705596924
-10.163616180419922,13.472541809082031,-2.4720098972320557
-15.533724784851074,13.722817420959473,-3.03607177734375
46.59434509277344,-29.883333206176758,-8.108147621154785
47.81220626831055,-28.019716262817383,-8.117486953735352
9.744215965270996,-5.196292400360107,-1.6175837516784668
9.939519882202148,-4.797975540161133,-1.6166776418685913
63.05405044555664,-27.371097564697266,-10.068718910217285
13.638904571533203,-5.280021667480469,-2.1422855854034424
18.04086685180664,-5.363963603973389,-2.756930351257324
24.7455997467041,-5.239041805267334,-3.705043077468872
83.46271514892578,16.327106475830078,-12.45721435546875
93.99288940429688,22.341577529907227,-14.151532173156738
93.41619873046875,26.210628509521484,-14.211867332458496
81.31964111328125,26.383533477783203,-12.522818565368652
61.55864715576172,22.743755340576172,-9.61276626586914
70.80366516113281,29.443363189697266,-11.232203483581543
70.30679321289062,32.60843276977539,-11.352179527282715
69.79501342773438,35.845462799072266,-11.492951393127441
36.52885818481445,20.655637741088867,-6.146883010864258
33.68810272216797,20.878311157226562,-5.805412292480469
31.154001235961914,21.085660934448242,-5.510348320007324
28.871686935424805,21.280746459960938,-5.253748416900635
26.82171058654785,21.484745025634766,-5.0338287353515625
24.92162322998047,21.662273406982422,-4.836764812469482
23.169208526611328,21.833515167236328,-4.663250923156738
21.54215431213379,21.999799728393555,-4.5101470947265625
20.022029876708984,22.162261962890625,-4.374897003173828
18.593477249145508,22.321876525878906,-4.255402565002441
17.564796447753906,22.898244857788086,-4.227248191833496
16.256832122802734,23.055034637451172,-4.132195472717285
15.646159172058105,24.197669982910156,-4.2208404541015625
18.30289649963379,30.967777252197266,-5.269153118133545
10.067545890808105,18.711448669433594,-3.112361431121826
17.341590881347656,35.58725357055664,-5.798740863800049
17.35970687866211,39.58848571777344,-6.331881999969482
18.33914566040039,46.855224609375,-7.37026309967041
17.240703582763672,49.86375045776367,-7.728227138519287
21.91950798034668,72.7343521118164,-11.127304077148438
20.021892547607422,77.5940170288086,-11.738131523132324
16.876102447509766,78.27719116210938,-11.729365348815918
-10.62390422821045,45.4441032409668,-6.836062908172607
-19.532716751098633,60.97349166870117,-9.378381729125977
-22.559303283691406,61.76316833496094,-9.63156509399414
-25.787609100341797,62.66712188720703,-9.926188468933105
-20.03011703491211,35.731258392333984,-6.000123977661133
-7.2030744552612305,11.719332695007324,-2.0149550437927246
-23.04054832458496,34.3158073425293,-6.054432392120361
-9.85523796081543,13.474987983703613,-2.445361614227295
-15.985276222229004,13.416025161743164,-3.0568735599517822
46.21418380737305,-30.616472244262695,-8.120140075683594
46.48158264160156,-28.174470901489258,-7.961666107177734
9.737016677856445,-5.379471778869629,-1.6294580698013306
9.756142616271973,-4.889225482940674,-1.5984739065170288
54.631935119628906,-24.684707641601562,-8.781357765197754
13.908513069152832,-4.9828972816467285,-2.1640963554382324
85.11473083496094,-26.687122344970703,-13.065942764282227
18.51795768737793,-4.99868106842041,-2.8095695972442627
24.49972915649414,-5.567976951599121,-3.6801936626434326
90.42235565185547,-16.761579513549805,-13.470566749572754
94.318359375,20.94573211669922,-14.152191162109375
93.7312240600586,24.80512046813965,-14.202239036560059
74.27031707763672,22.884368896484375,-11.383716583251953
80.98299407958984,28.56229591369629,-12.578439712524414
70.98375701904297,28.290542602539062,-11.19295597076416
61.7324104309082,27.526344299316406,-9.900674819946289
69.98584747314453,34.64110565185547,-11.438481330871582
40.67769241333008,22.211753845214844,-6.788825035095215
34.69789123535156,20.798067092895508,-5.925597190856934
32.05770492553711,21.01068115234375,-5.614434719085693
29.68796730041504,21.209978103637695,-5.344432830810547
27.541826248168945,21.39860725402832,-5.108827114105225
25.604646682739258,21.597537994384766,-4.906595230102539
23.80054473876953,21.770931243896484,-4.724785804748535
22.12953758239746,21.93890380859375,-4.564471244812012
20.571868896484375,22.1026554107666,-4.422896385192871
19.111127853393555,22.263214111328125,-4.2978034019470215
18.064624786376953,22.840063095092773,-4.265514373779297
16.732328414916992,22.99725341796875,-4.165875434875488
15.618797302246094,23.386995315551758,-4.119402885437012
18.309024810791016,29.954570770263672,-5.142409324645996
10.42575454711914,18.706687927246094,-3.136953353881836
17.33524513244629,34.27350997924805,-5.62596321105957
17.352846145629883,38.028709411621094,-6.1229119300842285
19.096078872680664,46.734275817871094,-7.39499044418335
17.05838394165039,47.06380844116211,-7.332692623138428
22.547536849975586,70.98896789550781,-10.910261154174805
20.008026123046875,73.04352569580078,-11.093437194824219
17.960044860839844,77.6919937133789,-11.680320739746094
4.301545143127441,22.734474182128906,-3.3891940116882324
13.396529197692871,90.59007263183594,-13.413804054260254
18.849533081054688,77.80387115478516,-11.04747486114502
8.645946502685547,43.204376220703125,-6.080380439758301
-27.69691276550293,94.65152740478516,-13.609565734863281
-20.427600860595703,60.654693603515625,-8.832244873046875
-23.478849411010742,61.436763763427734,-9.076250076293945
-26.741302490234375,62.34031677246094,-9.360990524291992
-19.848512649536133,37.6114387512207,-5.868747234344482
-19.97745704650879,34.429691314697266,-5.493162155151367
-21.234987258911133,33.427162170410156,-5.465006351470947
-9.780040740966797,14.109195709228516,-2.369082450866699
-10.17809009552002,13.491726875305176,-2.3322274684906006
-15.53533935546875,13.724250793457031,-2.860621452331543
46.67306900024414,-29.93383026123047,-7.651690483093262
46.62111282348633,-27.32168197631836,-7.457067012786865
9.75998592376709,-5.204703330993652,-1.5264118909835815
9.911548614501953,-4.784473896026611,-1.5188062191009521
61.01300811767578,-26.485097885131836,-9.178807258605957
13.677201271057129,-5.29484748840332,-2.0239412784576416
18.083141326904297,-5.3765339851379395,-2.6034250259399414
24.73566436767578,-5.236937999725342,-3.4891650676727295
91.02014923095703,-15.479358673095703,-12.741053581237793
98.0742416381836,-12.649630546569824,-13.646273612976074
83.58312225341797,16.350656509399414,-11.75302505493164
94.01657104492188,22.34720802307129,-13.33569049835205
91.79981994628906,25.757099151611328,-13.15750503540039
71.88850402832031,23.323671340942383,-10.42962646484375
61.752174377441406,22.81525230407715,-9.084776878356934
70.92256927490234,29.49280548095703,-10.599767684936523
70.4261245727539,32.66377258300781,-10.713181495666504
64.19318389892578,32.96845245361328,-9.958616256713867
36.999114990234375,20.92154884338379,-5.86560583114624
33.5278434753418,20.77899169921875,-5.443333625793457
30.74591827392578,20.80946922302246,-5.123366832733154
28.510900497436523,21.01481819152832,-4.887770175933838
26.500688552856445,21.227602005004883,-4.685671329498291
24.6348819732666,21.41303825378418,-4.5043487548828125
22.912090301513672,21.591217041015625,-4.3445515632629395
21.310850143432617,21.763586044311523,-4.203442096710205
19.81343650817871,21.931365966796875,-4.078703880310059
18.40500259399414,22.09560203552246,-3.9684290885925293
17.39468765258789,22.676481246948242,-3.9439709186553955
16.10289192199707,22.836729049682617,-3.856130838394165
15.87069034576416,24.54491424560547,-4.033569812774658
18.033876419067383,30.512611389160156,-4.891170024871826
10.080510139465332,18.73553466796875,-2.935969829559326
17.400636672973633,35.70840072631836,-5.481663227081299
17.42426872253418,39.73574447631836,-5.987532615661621
18.17476463317871,46.43524932861328,-6.881379127502441
17.44869041442871,50.46530532836914,-7.368694305419922
21.945510864257812,72.82069396972656,-10.495615005493164
20.073423385620117,77.7936782836914,-11.087099075317383
16.879222869873047,78.29168701171875,-11.0524263381958
-10.648810386657715,45.55061340332031,-6.4554338455200195
-19.3602294921875,60.43505859375,-8.757468223571777
-22.332088470458984,61.14112854003906,-8.982632637023926
-25.510520935058594,61.9937629699707,-9.25110149383545
-28.89638328552246,62.91352844238281,-9.553997993469238
-19.969158172607422,35.62252426147461,-5.635587692260742
-7.2126922607421875,11.734984397888184,-1.9008495807647705
-22.7376766204834,33.86471176147461,-5.628973007202148
-9.869115829467773,13.49396800994873,-2.307049036026001
-15.986959457397461,13.41742992401123,-2.880220413208008
3.649413824081421,-11.689825057983398,-1.689969778060913
46.634315490722656,-30.894811630249023,-7.719632148742676
46.73711395263672,-28.329357147216797,-7.542019844055176
9.752891540527344,-5.388242244720459,-1.5376355648040771
9.771745681762695,-4.897043228149414,-1.5083508491516113
54.75090026855469,-24.73845863342285,-8.291043281555176
65.00084686279297,-26.27913475036621,-9.675411224365234
13.903639793395996,-4.981150150299072,-2.0381076335906982
85.37850952148438,-26.76982307434082,-12.347737312316895
18.505508422851562,-4.995319843292236,-2.6451504230499268
24.55926513671875,-5.58150577545166,-3.475581645965576
90.51215362548828,-16.778226852416992,-12.703391075134277
91.89463806152344,-13.24134635925293,-12.812355041503906
94.02967834472656,20.881614685058594,-13.29213809967041
93.81132507324219,24.82630729675293,-13.391548156738281
73.72303009033203,22.715730667114258,-10.645713806152344
71.5914306640625,25.24993896484375,-10.476029396057129
71.1025390625,28.337900161743164,-10.56266975402832
61.69660186767578,27.510374069213867,-9.322134971618652
64.21891784667969,31.78662872314453,-9.88835620880127
64.15010070800781,35.02867889404297,-10.086446762084961
34.97160339355469,20.962146759033203,-5.626618385314941
31.664949417114258,20.753273010253906,-5.224627494812012
29.3106632232666,20.94041633605957,-4.971065998077393
27.23080062866211,21.15696144104004,-4.758738040924072
25.30583953857422,21.34549903869629,-4.568617343902588
23.532970428466797,21.52617645263672,-4.4012370109558105
21.889097213745117,21.700538635253906,-4.253523349761963
20.355213165283203,21.86988067626953,-4.122982025146484
18.915494918823242,22.03531265258789,-4.007565498352051
17.88810920715332,22.61688232421875,-3.979326009750366
16.57261085510254,22.777734756469727,-3.887258529663086
16.12961196899414,24.151874542236328,-4.007866382598877
18.046297073364258,29.524730682373047,-4.775205612182617
10.439278602600098,18.730958938598633,-2.959197521209717
17.39250373840332,34.38673782348633,-5.317798614501953
17.415245056152344,38.165462493896484,-5.78921365737915
18.924348831176758,46.313995361328125,-6.904258728027344
16.9062442779541,46.64409637451172,-6.846611022949219
22.6374454498291,71.27201080322266,-10.319674491882324
20.07647705078125,73.29338836669922,-10.487015724182129
17.987546920776367,77.81085968017578,-11.021014213562012
4.3065290451049805,22.76079750061035,-3.196699619293213
13.454706192016602,90.98338317871094,-12.692180633544922
18.871572494506836,77.89480590820312,-10.382343292236328
-19.467546463012695,66.5284652709961,-8.979435920715332
-20.227746963500977,60.06128692626953,-8.209687232971191
-23.24284553527832,60.81926345825195,-8.434211730957031
-26.447660446166992,61.65576171875,-8.690637588500977
-27.550033569335938,57.70928955078125,-8.283793449401855
-19.891233444213867,37.69239807128906,-5.520827770233154
-19.91850471496582,34.328094482421875,-5.141196250915527
-20.96799659729004,33.00688171386719,-5.065481185913086
-9.75455379486084,14.072426795959473,-2.2180535793304443
-10.192569732666016,13.510921478271484,-2.1923677921295166
-28.931352615356445,35.305728912353516,-5.91288948059082
-15.536953926086426,13.725676536560059,-2.685533285140991
46.75187683105469,-29.9843692779541,-7.1947407722473145
46.850608825683594,-27.456174850463867,-7.034379959106445
9.775771141052246,-5.2131195068359375,-1.4351544380187988
9.883800506591797,-4.771078586578369,-1.421706199645996
56.2078742980957,-24.399246215820312,-7.937544345855713
13.71562385559082,-5.309720516204834,-1.9052037000656128
18.125516891479492,-5.389131546020508,-2.449551820755005
24.725759506225586,-5.234842777252197,-3.2739546298980713
91.11068725585938,-15.494759559631348,-11.971875190734863
83.70887756347656,16.37525749206543,-11.049125671386719
86.72695922851562,20.614503860473633,-11.54755687713623
82.08251953125,23.030635833740234,-11.0435152053833
72.0072021484375,23.3621826171875,-9.806414604187012
61.946441650390625,22.88703727722168,-8.554673194885254
64.13582611083984,26.67057228088379,-8.997831344604492
64.16229248046875,29.758590698242188,-9.161986351013184
64.27043914794922,33.00814437866211,-9.359362602233887
37.08256149291992,20.968730926513672,-5.518442153930664
33.93051528930664,21.028545379638672,-5.171004295349121
31.146100997924805,21.080320358276367,-4.871882438659668
28.35968017578125,20.90335464477539,-4.563796520233154
26.18796730041504,20.977100372314453,-4.346518039703369
24.35529899597168,21.170019149780273,-4.180227279663086
22.66118049621582,21.354774475097656,-4.0335540771484375
21.084983825683594,21.532917022705078,-3.9039344787597656
19.60959815979004,21.70574188232422,-3.7892746925354004
18.22072410583496,21.87437629699707,-3.687852382659912
17.22822380065918,22.45946502685547,-3.6667604446411133
15.952192306518555,22.623001098632812,-3.5858566761016846
16.101211547851562,24.90143585205078,-3.8412930965423584
17.773244857788086,30.07163429260254,-4.52496862411499
10.093466758728027,18.759628295898438,-2.7595269680023193
16.627960205078125,34.12278747558594,-4.9171271324157715
16.440771102905273,37.49289321899414,-5.303230285644531
18.013683319091797,46.0236701965332,-6.402270793914795
17.528884887695312,50.697242736816406,-6.948756217956543
21.971534729003906,72.90703582763672,-9.863876342773438
20.096965789794922,77.88492584228516,-10.419623374938965
16.89883041381836,78.3826675415039,-10.38692855834961
-10.673770904541016,45.65738296508789,-6.07389497756958
-21.85221290588379,79.00806427001953,-10.618892669677734
-19.764572143554688,61.697242736816406,-8.392290115356445
-22.109926223754883,60.532875061035156,-8.348082542419434
-25.239944458007812,61.336219787597656,-8.591867446899414
-27.370445251464844,59.591217041015625,-8.494707107543945
-19.4499454498291,38.21928787231445,-5.555124282836914
-19.908708572387695,35.51469421386719,-5.274092197418213
-7.222318172454834,11.750641822814941,-1.7867004871368408
-22.443323135375977,33.42632293701172,-5.2154951095581055
-9.883007049560547,13.512959480285645,-2.168665885925293
-27.803848266601562,34.97559356689453,-5.787875652313232
3.644897937774658,-11.675362586975098,-1.5844056606292725
46.71375274658203,-30.94743537902832,-7.25873327255249
21.168376922607422,-12.831055641174316,-3.2065536975860596
47.83413314819336,-26.42723274230957,-7.07918119430542
9.787362098693848,-4.904870510101318,-1.4181464910507202
54.588565826416016,-24.665115356445312,-7.759695529937744
62.860816955566406,-25.41394805908203,-8.783252716064453
13.898780822753906,-4.979409694671631,-1.9124959707260132
85.74820709228516,-26.885744094848633,-11.640963554382324
18.493104934692383,-4.99197244644165,-2.4813287258148193
24.61895179748535,-5.595073699951172,-3.27044415473938
90.60192108154297,-16.794864654541016,-11.93645191192627
92.55494689941406,-13.336494445800781,-12.113330841064453
94.28523254394531,16.996036529541016,-12.41050910949707
88.6142578125,19.67898178100586,-11.758676528930664
83.72346496582031,22.156652450561523,-11.218832015991211
74.17646026611328,22.85544204711914,-10.05455207824707
71.71016693115234,25.29180908203125,-9.850116729736328
64.16472625732422,25.57284164428711,-8.947674751281738
61.660980224609375,27.494504928588867,-8.745600700378418
64.03958129882812,31.6978702545166,-9.256244659423828
64.21917724609375,35.066410064697266,-9.478312492370605
35.04725646972656,21.007490158081055,-5.293111801147461
32.136070251464844,21.06203842163086,-4.977304458618164
29.547338485717773,21.109516143798828,-4.704001426696777
26.904510498046875,20.903451919555664,-4.413484573364258
25.014589309692383,21.099830627441406,-4.2391862869262695
23.271942138671875,21.28740692138672,-4.085597991943359
21.65436363220215,21.467824935913086,-3.9499471187591553
20.1435546875,21.642473220825195,-3.829983949661255
18.72425651550293,21.81253433227539,-3.723853588104248
17.715408325195312,22.398517608642578,-3.6993157863616943
16.416271209716797,22.562856674194336,-3.6145317554473877
16.172780990600586,24.216516494750977,-3.7722384929656982
17.791582107543945,29.108003616333008,-4.419200897216797
10.452811241149902,18.755237579345703,-2.7813880443573
16.695907592773438,33.00947570800781,-4.791867256164551
16.510515213012695,36.18275833129883,-5.151998519897461
16.31939697265625,39.9388313293457,-5.588885307312012
17.51358985900879,48.31977081298828,-6.657773494720459
22.749940872192383,71.6261978149414,-9.73517894744873
20.191152572631836,73.71202087402344,-9.900349617004395
18.008501052856445,77.90158081054688,-10.357443809509277
4.311506271362305,22.787118911743164,-3.004199266433716
18.893592834472656,77.98575592041016,-9.71709156036377
-23.259611129760742,93.23184967041016,-11.636213302612305
-19.626907348632812,67.07305145263672,-8.462987899780273
-20.032184600830078,59.480621337890625,-7.600496292114258
-22.020797729492188,57.62152099609375,-7.470024108886719
-26.167512893676758,61.00270462036133,-8.038244247436523
-27.882007598876953,58.40467834472656,-7.837282657623291
-19.828535079956055,37.57359313964844,-5.144787788391113
-19.860027313232422,34.227317810058594,-4.792052745819092
-20.708194732666016,32.597900390625,-4.6767048835754395
-9.729254722595215,14.035931587219238,-2.0681324005126953
-10.207061767578125,13.530130386352539,-2.0524120330810547
-28.513771057128906,34.796146392822266,-5.447784900665283
-15.538566589355469,13.727100372314453,-2.5107874870300293
-21.397602081298828,13.50041675567627,-3.0638375282287598
18.38919448852539,-12.864956855773926,-2.7177441120147705
19.658775329589844,-12.60818099975586,-2.8281781673431396
21.250450134277344,-12.453545570373535,-2.982722282409668
9.791572570800781,-5.221548557281494,-1.3437985181808472
9.856264114379883,-4.757786273956299,-1.3253554105758667
56.755577087402344,-24.637004852294922,-7.4925856590271
13.754181861877441,-5.324649333953857,-1.7860547304153442
18.167999267578125,-5.401761531829834,-2.2952890396118164
92.27324676513672,-23.444969177246094,-11.529118537902832
24.71588897705078,-5.2327494621276855,-3.059380531311035
91.76473999023438,-15.605984687805176,-11.272045135498047
98.95392608642578,7.200321674346924,-12.01476764678955
92.08045196533203,10.43264389038086,-11.222064971923828
77.2904281616211,11.918600082397461,-9.470319747924805
82.49775695800781,16.138349533081055,-10.17966079711914
78.10112762451172,18.564207077026367,-9.721384048461914
74.24089050292969,20.830434799194336,-9.337575912475586
64.1019287109375,20.797378540039062,-8.160928726196289
62.141544342041016,22.959117889404297,-8.022381782531738
64.42221069335938,26.789663314819336,-8.449029922485352
62.505882263183594,28.99034881591797,-8.343817710876465
60.22364807128906,30.929779052734375,-8.198537826538086
37.166194915771484,21.016023635864258,-5.170456886291504
34.0022087097168,21.072982788085938,-4.844240188598633
31.208101272583008,21.122282028198242,-4.563464164733887
28.715089797973633,21.16532325744629,-4.319857120513916
26.470245361328125,21.203208923339844,-4.107067108154297
24.08257484436035,20.932958602905273,-3.8640568256378174
22.416231155395508,21.123947143554688,-3.7299418449401855
20.864320755004883,21.30756378173828,-3.611334800720215
19.41033363342285,21.48518943786621,-3.5063467025756836
18.040485382080078,21.657997131347656,-3.413424253463745
17.06525993347168,22.247020721435547,-3.3953869342803955
15.804590225219727,22.41368865966797,-3.3211629390716553
16.22421646118164,25.09168243408203,-3.618403911590576
17.52057456970215,29.64411735534668,-4.169954299926758
10.106438636779785,18.783733367919922,-2.583012104034424
15.775994300842285,32.37443923950195,-4.361173152923584
15.535889625549316,35.42931365966797,-4.684773921966553
15.277878761291504,39.033912658691406,-5.076086044311523
17.640369415283203,51.01966857910156,-6.537243366241455
21.997570037841797,72.993408203125,-9.232003211975098
20.12050437927246,77.97618865966797,-9.75202465057373
9.358796119689941,43.4093132019043,-5.377547740936279
-10.6987886428833,45.76441192626953,-5.691390514373779
-21.6477108001709,78.2686996459961,-9.833999633789062
-19.670209884643555,61.40270233154297,-7.807938098907471
-21.89259910583496,59.9378776550293,-7.727358818054199
-24.975601196289062,60.693851470947266,-7.947850227355957
-26.57168197631836,57.85215377807617,-7.70938777923584
-19.67028045654297,38.6522331237793,-5.251941204071045
-19.848756790161133,35.40773391723633,-4.915546894073486
-7.231947422027588,11.766307830810547,-1.6724941730499268
-22.157114028930664,33.000038146972656,-4.81343936920166
-9.896904945373535,13.531962394714355,-2.0301926136016846
-27.410903930664062,34.48128890991211,-5.334228515625
-30.306964874267578,35.129302978515625,-5.618433952331543
-21.261568069458008,13.859771728515625,-3.0734634399414062
3.6404078006744385,-11.660965919494629,-1.4793288707733154
58.10778045654297,-45.60917282104492,-8.945427894592285
17.86366844177246,-12.896177291870117,-2.668059825897217
19.11435317993164,-12.663084030151367,-2.7765774726867676
20.641544342041016,-12.511724472045898,-2.9229893684387207
46.508392333984375,-25.694778442382812,-6.434437274932861
9.802995681762695,-4.912703990936279,-1.3278477191925049
54.42756652832031,-24.592363357543945,-7.232626438140869
60.86143112182617,-24.605623245239258,-7.949717044830322
13.893937110900879,-4.977673530578613,-1.78724205493927
18.480743408203125,-4.988636016845703,-2.3180785179138184
24.678802490234375,-5.608673095703125,-3.0647528171539307
91.2520523071289,-16.91537857055664,-11.238663673400879
92.64739990234375,-13.349815368652344,-11.33525562286377
94.47959899902344,9.287109375,-11.496397018432617
83.05656433105469,11.549073219299316,-10.154727935791016
84.28112030029297,15.192676544189453,-10.37075424194336
79.65586853027344,17.689563751220703,-9.881147384643555
75.61034393310547,20.00958251953125,-9.47143268585205
64.13359069824219,19.761009216308594,-8.12674331665039
64.04862213134766,22.58962631225586,-8.224413871765137
64.17253875732422,25.575939178466797,-8.365596771240234
61.66913986206055,27.498130798339844,-8.176758766174316
61.04308319091797,30.21468162536621,-8.248150825500488
58.881290435791016,32.15169143676758,-8.124139785766602
35.1230583190918,21.052932739257812,-4.958878993988037
32.20142364501953,21.104873657226562,-4.662412643432617
29.604127883911133,21.15008544921875,-4.405910015106201
27.27303695678711,21.189777374267578,-4.182386875152588
24.831087112426758,20.945043563842773,-3.9338622093200684
23.01718521118164,21.05436897277832,-3.77754282951355
21.42510223388672,21.240537643432617,-3.6534488201141357
19.936695098876953,21.42022132873535,-3.5436277389526367
18.537256240844727,21.594684600830078,-3.446415901184082
17.546356201171875,22.184785842895508,-3.4252448081970215
16.263179779052734,22.352445602416992,-3.347475051879883
16.216089248657227,24.281375885009766,-3.535857915878296
17.544479370117188,28.703737258911133,-4.07383918762207
10.466343879699707,18.779529571533203,-2.6035008430480957
16.134061813354492,31.898656845092773,-4.328851699829102
15.626324653625488,34.24504089355469,-4.558333396911621
15.375612258911133,37.62909698486328,-4.92252254486084
17.6215763092041,48.617671966552734,-6.262279033660889
22.863313674926758,71.98313903808594,-9.14612102508545
20.35286521911621,74.30244445800781,-9.329309463500977
18.02948760986328,77.99231719970703,-9.693764686584473
4.340113162994385,22.938329696655273,-2.8270621299743652
18.915645599365234,78.07672882080078,-9.051630020141602
18.403532028198242,91.96372985839844,-10.567264556884766
-23.047269821166992,92.38064575195312,-10.727837562561035
-19.52606964111328,66.7284164428711,-7.833763122558594
-19.84074592590332,58.912193298339844,-7.004148006439209
-21.828327178955078,57.11787414550781,-6.889586925506592
-25.893802642822266,60.364601135253906,-7.400798320770264
-27.917081832885742,58.47816848754883,-7.301222801208496
-19.766355514526367,37.45576095581055,-4.771855354309082
-19.8020076751709,34.1273078918457,-4.445643424987793
-20.455245971679688,32.19973373413086,-4.298199653625488
-9.704136848449707,13.9996919631958,-1.9192848205566406
-25.286649703979492,33.51910400390625,-4.730844974517822
-28.108877182006836,34.302040100097656,-4.996805191040039
-31.094409942626953,34.97917556762695,-5.27329158782959
-15.540175437927246,13.728521347045898,-2.3363535404205322
-21.39269256591797,13.497322082519531,-2.8500359058380127
16.580591201782227,-12.621240615844727,-2.347851037979126
17.82334327697754,-12.469088554382324,-2.4508635997772217
19.19743537902832,-12.312297821044922,-2.5696702003479004
20.725181579589844,-12.14571475982666,-2.7066195011138916
9.807394981384277,-5.229984283447266,-1.2523319721221924
9.828935623168945,-4.744594573974609,-1.2297320365905762
56.6754264831543,-24.602203369140625,-6.96148681640625
13.792879104614258,-5.339631080627441,-1.6664751768112183
18.210596084594727,-5.414427757263184,-2.1406142711639404
93.44723510742188,-23.743253707885742,-10.863524436950684
24.70604133605957,-5.230666637420654,-2.845407009124756
91.85581970214844,-15.621472358703613,-10.498268127441406
95.91305541992188,3.113912343978882,-10.812499046325684
89.31501770019531,6.4989542961120605,-10.089987754821777
82.17963409423828,9.310887336730957,-9.318659782409668
78.9149169921875,12.16911506652832,-8.996687889099121
65.79998016357422,12.871893882751465,-7.554398059844971
64.08776092529297,15.23330307006836,-7.422144889831543
63.99698257446289,17.956214904785156,-7.489185810089111
64.43291473388672,20.904756546020508,-7.632383346557617
62.20458984375,22.982404708862305,-7.471839427947998
59.799800872802734,24.86745262145996,-7.297175407409668
57.5987434387207,26.714405059814453,-7.153867244720459
55.5258903503418,28.517093658447266,-7.03312873840332
37.250038146972656,21.063434600830078,-4.8216047286987305
34.074058532714844,21.117515563964844,-4.516753673553467
31.27021598815918,21.164329528808594,-4.2544379234313965
28.769197463989258,21.205202102661133,-4.026898384094238
26.517656326293945,21.241188049316406,-3.8281850814819336
24.473804473876953,21.27302360534668,-3.653643846511841
22.36756706237793,21.07808494567871,-3.4629180431365967
20.648662567138672,21.08732032775879,-3.3253650665283203
19.215473175048828,21.26949691772461,-3.2296600341796875
17.864131927490234,21.446279525756836,-3.1449086666107178
16.90566635131836,22.038972854614258,-3.129626989364624
15.772143363952637,22.367677688598633,-3.0837693214416504
16.26871109008789,25.160490036010742,-3.3759067058563232
17.275474548339844,29.229427337646484,-3.8255767822265625
10.142251968383789,18.85028839111328,-2.411829948425293
15.56698226928711,31.94552230834961,-4.004008769989014
14.726961135864258,33.58457565307617,-4.131899356842041
14.41967487335205,36.841251373291016,-4.457643508911133
14.07772445678711,40.71575164794922,-4.854039192199707
22.023603439331055,73.07980346679688,-8.59990406036377
20.14408302307129,78.0674819946289,-9.084206581115723
9.347912788391113,43.35883331298828,-4.997616767883301
-10.723883628845215,45.871742248535156,-5.307863712310791
-21.44739532470703,77.54447937011719,-9.065187454223633
-19.576934814453125,61.111549377441406,-7.2302985191345215
-21.0592041015625,57.65619659423828,-6.916070461273193
-24.731599807739258,60.10089111328125,-7.322673320770264
-26.86048126220703,58.480926513671875,-7.251009941101074
-19.75217056274414,38.813148498535156,-4.906909465789795
-19.78927993774414,35.3016357421875,-4.559871673583984
-7.241581916809082,11.781984329223633,-1.5582129955291748
-21.878643035888672,32.5853157043457,-4.422286510467529
-9.910816192626953,13.550980567932129,-1.891608476638794
-27.0296573638916,34.0017204284668,-4.894102096557617
-30.065256118774414,34.849117279052734,-5.185866355895996
-21.115108489990234,13.764303207397461,-2.839946985244751
3.6359317302703857,-11.646634101867676,-1.3747217655181885
16.149202346801758,-12.675613403320312,-2.3131394386291504
17.349393844604492,-12.524909973144531,-2.4109768867492676
18.67378044128418,-12.371209144592285,-2.523866653442383
20.141298294067383,-12.208501815795898,-2.6537280082702637
21.782814025878906,-12.034486770629883,-2.8039941787719727
9.818647384643555,-4.920547962188721,-1.2374423742294312
54.356414794921875,-24.56021499633789,-6.72066068649292
61.05019760131836,-24.68193244934082,-7.419602394104004
13.889106750488281,-4.975943088531494,-1.6623260974884033
18.468420028686523,-4.9853129386901855,-2.15537166595459
24.738821029663086,-5.622314453125,-2.8584747314453125
91.34234619140625,-16.932117462158203,-10.467141151428223
92.73988342285156,-13.363142013549805,-10.557195663452148
98.6618423461914,1.7385203838348389,-11.118241310119629
91.61973571777344,5.301614284515381,-10.34033203125
84.10660552978516,8.267471313476562,-9.522210121154785
79.1241226196289,11.00224494934082,-9.000921249389648
65.91820526123047,11.882539749145508,-7.546901226043701
64.12190246582031,14.239852905273438,-7.400808811187744
64.03024291992188,16.94501495361328,-7.462826251983643
64.16751861572266,19.771459579467773,-7.565364360809326
63.150943756103516,22.27302360534668,-7.544990062713623
27.956375122070312,11.142004013061523,-3.3908817768096924
58.3896598815918,26.035818099975586,-7.203331470489502
56.30147171020508,27.86771011352539,-7.0782151222229
54.32636260986328,29.664512634277344,-6.974207401275635
35.19904708862305,21.098480224609375,-4.623875141143799
32.266910552978516,21.147796630859375,-4.346874237060547
29.661022186279297,21.190731048583984,-4.107269763946533
27.322790145874023,21.228429794311523,-3.8985188007354736
25.206504821777344,21.26170539855957,-3.715522527694702
23.27618408203125,21.291278839111328,-3.5542900562286377
21.201091766357422,21.01845359802246,-3.3637402057647705
19.73444366455078,21.202922821044922,-3.2636520862579346
18.35430908203125,21.38156509399414,-3.1750035285949707
17.38083267211914,21.975513458251953,-3.156888246536255
16.11322021484375,22.146331787109375,-3.085874557495117
16.25954246520996,24.34642791748047,-3.29868483543396
15.78647232055664,25.827533721923828,-3.4106152057647705
10.479897499084473,18.803831100463867,-2.4255127906799316
16.155242919921875,31.9405460357666,-4.032983779907227
14.833535194396973,32.50765609741211,-4.0260396003723145
14.536622047424316,35.5758171081543,-4.330150127410889
14.208720207214355,39.2016716003418,-4.698150157928467
22.97759246826172,72.34298706054688,-8.552373886108398
20.469970703125,74.72998046875,-8.730219841003418
18.06795310974121,78.1586685180664,-9.03861141204834
17.449975967407227,92.22639465332031,-10.575797080993652
18.937700271606445,78.1677474975586,-8.385858535766602
18.30609703063965,91.47683715820312,-9.72685432434082
14.414801597595215,90.86615753173828,-9.59253978729248
-22.780406951904297,91.31099700927734,-9.812260627746582
-19.425010681152344,66.38312530517578,-7.211612224578857
-19.65328025817871,58.355567932128906,-6.4201812744140625
-21.854862213134766,57.187294006347656,-6.383156776428223
-25.626249313354492,59.740867614746094,-6.777702331542969
-27.954702377319336,58.556941986083984,-6.765421390533447
-19.704681396484375,37.33891296386719,-4.401949882507324
-19.74443244934082,34.028099060058594,-4.101900577545166
-20.208860397338867,31.8118896484375,-3.9295122623443604
-9.679193496704102,13.963706970214844,-1.7714825868606567
-24.95181655883789,33.075260162353516,-4.3198065757751465
-27.71604347229004,33.82265853881836,-4.559269428253174
-30.66107749938965,34.491695404052734,-4.811731338500977
-15.541780471801758,13.729941368103027,-2.1622140407562256
-21.387794494628906,13.494230270385742,-2.6367290019989014
16.228309631347656,-12.353081703186035,-2.1264660358428955
17.43385887145996,-12.196605682373047,-2.2183918952941895
18.758045196533203,-12.030499458312988,-2.323467493057251
20.226150512695312,-11.853269577026367,-2.4443130493164062
9.823237419128418,-5.238432884216309,-1.1607407331466675
9.840628623962402,-4.750239849090576,-1.1393096446990967
56.50395965576172,-24.527772903442383,-6.422451496124268
13.831721305847168,-5.354667663574219,-1.5464470386505127
18.253313064575195,-5.427127838134766,-1.985504150390625
94.64482116699219,-24.04753875732422,-10.181597709655762
24.696224212646484,-5.228585720062256,-2.6320040225982666
91.9468994140625,-15.636969566345215,-9.724401473999023
98.08604431152344,-4.7027482986450195,-10.2385892868042
85.75650024414062,2.7841691970825195,-8.946024894714355
80.42626190185547,5.852168560028076,-8.407733917236328
74.43882751464844,8.43386459350586,-7.8109450340271
70.58108520507812,10.883962631225586,-7.446047306060791
59.89176940917969,11.716120719909668,-6.362918376922607
64.32356262207031,15.289350509643555,-6.893481254577637
62.36085510253906,17.497159957885742,-6.753096103668213
59.81635665893555,19.406959533691406,-6.556746959686279
57.49872970581055,21.243759155273438,-6.39113712310791
55.3282356262207,23.00798225402832,-6.247651100158691
53.48650360107422,24.80714225769043,-6.147335052490234
53.53911590576172,27.496713638305664,-6.275364875793457
37.33409881591797,21.110971450805664,-4.47183084487915
34.14609146118164,21.162155151367188,-4.188497543334961
31.332475662231445,21.206462860107422,-3.944761276245117
28.823402404785156,21.245155334472656,-3.7333874702453613
26.565147399902344,21.27923011779785,-3.548827886581421
24.515640258789062,21.309385299682617,-3.386746644973755
22.641521453857422,21.336246490478516,-3.2437243461608887
20.91596031188965,21.36029815673828,-3.1170225143432617
19.02484703063965,21.05848503112793,-2.9589762687683105
17.69151496887207,21.239044189453125,-2.8820791244506836
16.74932289123535,21.83515739440918,-2.8692758083343506
16.28645896911621,23.097057342529297,-2.946676731109619
16.313364028930664,25.22953987121582,-3.1325321197509766
17.54166030883789,29.679794311523438,-3.5946145057678223
10.181571960449219,18.92336654663086,-2.2404842376708984
15.58726692199707,31.987146377563477,-3.710012912750244
14.032392501831055,32.000614166259766,-3.6431992053985596
13.654111862182617,34.88530731201172,-3.905963897705078
13.267682075500488,38.3729362487793,-4.233317852020264
21.42424964904785,71.09097290039062,-7.741506576538086
20.18597412109375,78.22988891601562,-8.423724174499512
9.337066650390625,43.308555603027344,-4.619274616241455
15.907268524169922,91.48207092285156,-9.68142032623291
12.272542953491211,92.44672393798828,-9.723441123962402
-10.749025344848633,45.97936248779297,-4.92325496673584
-21.251144409179688,76.8348617553711,-8.311875343322754
-19.495464324951172,60.85725784301758,-6.662853240966797
-20.888322830200195,57.18832778930664,-6.3479790687561035
-23.332143783569336,56.7000617980957,-6.3927435874938965
-26.89643669128418,58.5591926574707,-6.718836784362793
-19.688800811767578,38.68862533569336,-4.526133060455322
-19.730266571044922,35.19635009765625,-4.206976413726807
-7.251224994659424,11.797672271728516,-1.4438410997390747
-21.607608795166016,32.18163299560547,-4.041548728942871
-9.924734115600586,13.570016860961914,-1.752894401550293
-26.659582138061523,33.53616714477539,-4.466837406158447
-29.62941551208496,34.34392166137695,-4.729270935058594
-32.811092376708984,35.078155517578125,-5.007978916168213
-15.53217887878418,14.13720703125,-2.189817428588867
-29.957887649536133,25.14285659790039,-4.077823638916016
-21.110292434692383,13.761163711547852,-2.6274001598358154
3.646031141281128,-11.678985595703125,-1.2756569385528564
16.365903854370117,-12.845707893371582,-2.169229030609131
16.976308822631836,-12.25556755065918,-2.1830666065216064
18.25382423400879,-12.09299373626709,-2.2829837799072266
19.66559600830078,-11.92015266418457,-2.3976783752441406
21.239931106567383,-11.734556198120117,-2.530062198638916
9.834319114685059,-4.928401947021484,-1.1469181776046753
54.19765090942383,-24.488475799560547,-6.200922966003418
60.85337448120117,-24.60236167907715,-6.84373140335083
13.884285926818848,-4.974215507507324,-1.5377305746078491
18.456140518188477,-4.981998443603516,-1.9931868314743042
24.799022674560547,-5.6359968185424805,-2.6515791416168213
91.43266296386719,-16.948862075805664,-9.695539474487305
92.83236694335938,-13.376469612121582,-9.77904224395752
86.77179718017578,-5.451563358306885,-9.06501579284668
93.2512435913086,-2.10435152053833,-9.725220680236816
87.95084381103516,1.5497825145721436,-9.171527862548828
82.29837799072266,4.762228965759277,-8.595108985900879
77.4554672241211,7.613678932189941,-8.114739418029785
71.90206909179688,9.998017311096191,-7.568925857543945
58.946651458740234,10.625833511352539,-6.2450714111328125
64.04468536376953,14.22270393371582,-6.84022331237793
63.3658332824707,16.769201278686523,-6.834232330322266
60.727333068847656,18.711475372314453,-6.625444412231445
58.330284118652344,20.572795867919922,-6.448929309844971
28.00042152404785,11.159558296203613,-3.1427597999572754
53.72889709472656,23.957597732543945,-6.133669376373291
53.51963806152344,26.49077796936035,-6.226327896118164
53.57255554199219,29.252901077270508,-6.364163398742676
35.27522277832031,21.144136428833008,-4.288050174713135
32.332550048828125,21.190814971923828,-4.030642986297607
29.71802520751953,21.231456756591797,-3.8080434799194336
27.37261962890625,21.26715087890625,-3.6141464710235596
25.250322341918945,21.298662185668945,-3.4442052841186523
23.314878463745117,21.326679229736328,-3.2944979667663574
21.537256240844727,21.35171890258789,-3.1620543003082275
19.655805587768555,21.118431091308594,-3.0080466270446777
18.17526626586914,21.172996520996094,-2.9093880653381348
17.21870994567871,21.770526885986328,-2.894035577774048
15.966268539428711,21.944358825683594,-2.8295271396636963
16.303144454956055,24.41171646118164,-3.060685873031616
15.831635475158691,25.901418685913086,-3.1651039123535156
10.49344253540039,18.828153610229492,-2.2473955154418945
17.601858139038086,34.800636291503906,-4.06617546081543
14.599559783935547,31.994916915893555,-3.6668057441711426
13.785785675048828,33.73827362060547,-3.800018310546875
13.41592788696289,37.0143928527832,-4.104948043823242
21.928661346435547,69.04051208496094,-7.5528154373168945
20.680273056030273,75.49774169921875,-8.161669731140137
18.096921920776367,78.28401184082031,-8.377459526062012
17.330717086791992,91.59607696533203,-9.71961784362793
13.614877700805664,92.0665054321289,-9.703632354736328
5.675905704498291,85.28646850585938,-8.911981582641602
17.516324996948242,72.30085754394531,-7.131980895996094
12.999374389648438,64.95865631103516,-6.351041316986084
14.421167373657227,90.90628051757812,-8.824132919311523
10.787386894226074,91.66401672363281,-8.848453521728516
-22.647361755371094,90.77774047851562,-8.969578742980957
-19.326576232910156,66.04671478271484,-6.5973944664001465
-19.23082160949707,57.10113525390625,-5.7763872146606445
-21.881380081176758,57.256744384765625,-5.876372814178467
-25.364622116088867,59.13093948364258,-6.168398857116699
-19.24956512451172,40.32221984863281,-4.283586025238037
-19.643495559692383,37.222957611083984,-4.034976005554199
-19.68729019165039,33.92961120605469,-3.7607357501983643
-19.96875762939453,31.433923721313477,-3.5702152252197266
-9.654422760009766,13.927973747253418,-1.6246905326843262
-24.626298904418945,32.64376449584961,-3.9201977252960205
-27.334697723388672,33.35728073120117,-4.134515285491943
-30.2403621673584,34.018428802490234,-4.3636298179626465
-33.655948638916016,34.9279670715332,-4.65010929107666
-15.543383598327637,13.731356620788574,-1.9883390665054321
-30.75153350830078,25.040908813476562,-3.8019325733184814
21.41354751586914,-17.702777862548828,-2.663605213165283
16.66922950744629,-12.688712120056152,-2.008387327194214
17.06166648864746,-11.9362211227417,-1.996240496635437
18.33904266357422,-11.76176643371582,-2.0886831283569336
19.75140953063965,-11.57504940032959,-2.1947669982910156
9.839103698730469,-5.246892929077148,-1.0690125226974487
9.856229782104492,-4.75777006149292,-1.0492439270019531
56.33381652832031,-24.45391845703125,-5.8875932693481445
13.87071418762207,-5.369763374328613,-1.425950288772583
14.136322975158691,-4.829103469848633,-1.4321393966674805
18.296154022216797,-5.439865589141846,-1.8299342393875122
95.87138366699219,-24.359195709228516,-9.483195304870605
24.686424255371094,-5.2265143394470215,-2.4191389083862305
92.03800964355469,-15.65246295928955,-8.950342178344727
86.73127746582031,-11.186607360839844,-8.38377571105957
86.83415222167969,-7.66904878616333,-8.35716724395752
87.35877990722656,-4.188429355621338,-8.384673118591309
77.55786895751953,2.517991781234741,-7.439360618591309
73.15805053710938,5.323300838470459,-7.032176494598389
69.33287048339844,7.855361461639404,-6.689444541931152
49.74647903442383,7.671175479888916,-4.825549125671387
58.373329162597656,11.419083595275879,-5.702303886413574
60.205665588378906,14.310554504394531,-5.932727336883545
57.75238800048828,16.204116821289062,-5.750521659851074
55.463993072509766,17.994857788085938,-5.59017276763916
53.41733932495117,19.735830307006836,-5.4594502449035645
53.50431442260742,22.24951171875,-5.555275917053223
53.57290267944336,24.84721565246582,-5.66154146194458
53.627403259277344,27.542062759399414,-5.779649257659912
37.418399810791016,21.15863800048828,-4.1210856437683105
34.21829605102539,21.206905364990234,-3.8594253063201904
