-16.022132873535156,56.448455810546875,5.625466346740723
-18.15632438659668,55.39167404174805,5.588382244110107
-20.256378173828125,54.32152557373047,5.558082580566406
-22.326690673828125,53.23627471923828,5.534411430358887
-22.81475257873535,48.804290771484375,5.164847373962402
-26.22769546508789,50.69117736816406,5.471703052520752
-28.174354553222656,49.47641372680664,5.458423137664795
-29.79601287841797,47.754737854003906,5.3962788581848145
-31.28538703918457,45.92487335205078,5.327327728271484
-21.912919998168945,29.542261123657227,3.5262858867645264
-33.75962448120117,41.88606643676758,5.157524108886719
-35.241180419921875,40.29740905761719,5.1322197914123535
-35.795833587646484,37.756744384765625,4.987906455993652
-38.04153823852539,37.02595520019531,5.089296817779541
-41.08055114746094,36.88882827758789,5.293182373046875
-42.80605697631836,35.43794631958008,5.327633380889893
-43.99557113647461,33.5377197265625,5.303585052490234
-28.580989837646484,20.024465560913086,3.345632553100586
-27.7177791595459,17.80382537841797,3.1582512855529785
-27.037273406982422,15.869916915893555,3.005587339401245
-26.41884994506836,14.111788749694824,2.8714520931243896
-26.85871696472168,12.988015174865723,2.860196590423584
-28.343002319335938,12.32663631439209,2.9630913734436035
-29.93592643737793,11.612842559814453,3.078326940536499
-31.655338287353516,10.838186264038086,3.207736015319824
-33.522953033447266,9.99235725402832,3.353571653366089
-35.612083435058594,9.074602127075195,3.523219108581543
-34.17057800292969,7.259134292602539,3.3490278720855713
-27.714677810668945,12.401383399963379,3.1657466888427734
-29.255535125732422,11.704141616821289,3.2853503227233887
-30.914669036865234,10.948928833007812,3.419473171234131
-32.71198654174805,10.126150131225586,3.5703625679016113
-34.6717529296875,9.22411060333252,3.7407631874084473
-34.69914245605469,7.753435134887695,3.7070934772491455
-34.355377197265625,6.239373207092285,3.6406264305114746
-33.83302688598633,4.749627590179443,3.5621590614318848
-33.33220672607422,3.3204972743988037,3.4925527572631836
-32.310672760009766,1.9120997190475464,3.3747384548187256
-34.961387634277344,0.6618247032165527,3.6458680629730225
-38.0718994140625,-0.809288740158081,3.9704267978668213
-69.07202911376953,-4.24881649017334,7.215336799621582
-68.12914276123047,-6.947042942047119,7.140251159667969
-70.99800109863281,-10.135481834411621,7.477582931518555
-76.31392669677734,-14.043030738830566,8.090391159057617
-77.21500396728516,-17.44218635559082,8.253591537475586
52.03830337524414,36.88115692138672,6.650217533111572
49.93610763549805,41.79881286621094,6.7897844314575195
60.2947998046875,59.324676513671875,8.819329261779785
59.91340637207031,75.16537475585938,10.022076606750488
51.643245697021484,70.4178695678711,9.104880332946777
47.940895080566406,71.20008850097656,8.949566841125488
43.41117858886719,70.4228515625,8.625535011291504
39.1843376159668,69.68616485595703,8.33561897277832
34.95292663574219,68.46105194091797,8.014507293701172
31.185014724731445,67.66280364990234,7.768013000488281
27.94747543334961,67.66413879394531,7.633007049560547
24.4731502532959,66.73185729980469,7.410861968994141
20.488954544067383,63.67163848876953,6.973912239074707
17.931442260742188,64.503662109375,6.980441093444824
14.487945556640625,61.6090087890625,6.598830699920654
11.737655639648438,60.775794982910156,6.453823089599609
9.081761360168457,59.847293853759766,6.311359405517578
6.536870956420898,58.960105895996094,6.185084819793701
4.088099956512451,58.108882904052734,6.073644638061523
1.7764965295791626,59.09064483642578,6.163812160491943
-0.5892957448959351,58.18845748901367,6.067274570465088
-2.889504909515381,57.38692092895508,5.990972518920898
-5.189278602600098,57.18946838378906,5.987303256988525
-7.318647861480713,55.68851852416992,5.856237888336182
-9.547215461730957,55.33466339111328,5.854658126831055
-12.088017463684082,56.426666259765625,6.016753196716309
-14.285805702209473,55.665077209472656,5.991950035095215
-16.392316818237305,54.652557373046875,5.949090957641602
-18.462997436523438,53.625972747802734,5.913366794586182
-20.502016067504883,52.5838508605957,5.884581565856934
-22.513389587402344,51.52454376220703,5.86259651184082
-23.456966400146484,48.29716873168945,5.5981574058532715
-26.30096435546875,49.03639602661133,5.80172061920166
-28.138914108276367,47.75245666503906,5.778968811035156
-29.677757263183594,46.03029251098633,5.71034574508667
-31.14690589904785,44.294734954833984,5.645824909210205
-22.66395378112793,29.625886917114258,3.889129161834717
-33.724273681640625,40.59458923339844,5.5025739669799805
-34.783538818359375,38.603092193603516,5.417808532714844
-36.69562911987305,37.57341003417969,5.475922584533691
-39.02218246459961,36.869041442871094,5.597389221191406
-40.69883728027344,35.46969223022461,5.628801345825195
-42.37632751464844,34.03541946411133,5.6669793128967285
-43.53910827636719,32.1798095703125,5.6449055671691895
-28.30961036682129,19.214595794677734,3.5673444271087646
-27.47519302368164,17.077627182006836,3.3729588985443115
-26.81774139404297,15.210713386535645,3.2145774364471436
-25.767274856567383,13.276211738586426,3.0222387313842773
-27.172317504882812,12.645772933959961,3.1248812675476074
-28.673826217651367,11.967854499816895,3.2396085262298584
-30.287128448486328,11.235082626342773,3.368130922317505
-32.030845642089844,10.438502311706543,3.5125341415405273
-33.92750549316406,9.56723403930664,3.6753742694854736
-35.68146514892578,8.530624389648438,3.8251373767852783
-34.55430603027344,6.80652379989624,3.672003984451294
-34.023216247558594,5.292132377624512,3.590054750442505
-33.51479721069336,3.8416271209716797,3.517271041870117
-33.026084899902344,2.4465742111206055,3.4528722763061523
-33.93476104736328,1.1461806297302246,3.5401930809020996
-36.86226272583008,-0.23659873008728027,3.843486785888672
-40.331424713134766,-1.8808056116104126,4.209688186645508
-68.47494506835938,-5.957268714904785,7.166440010070801
-67.54414367675781,-8.621942520141602,7.0995635986328125
-78.63610076904297,-13.267374038696289,8.314793586730957
-78.09275817871094,-16.42671012878418,8.32044792175293
-94.59069061279297,-23.902013778686523,10.172404289245605
-86.03325653076172,-25.45712661743164,9.354631423950195
-68.29920959472656,-43.677677154541016,8.452795028686523
48.45295715332031,46.278987884521484,6.986026287078857
62.53298568725586,76.10751342773438,10.270261764526367
55.45656967163086,73.3115463256836,9.584356307983398
36.322669982910156,52.254737854003906,6.635245323181152
45.024620056152344,70.67121887207031,8.736820220947266
40.73805618286133,69.9979019165039,8.4442777633667
36.48241424560547,68.91283416748047,8.12986946105957
32.50559616088867,67.86122131347656,7.845296382904053
29.279237747192383,68.01104736328125,7.720296859741211
25.734167098999023,67.07489776611328,7.490536689758301
21.67849349975586,64.09156799316406,7.054356575012207
19.065319061279297,64.83902740478516,7.046571731567383
15.549489974975586,61.98182678222656,6.66273832321167
12.72015380859375,60.98899841308594,6.495795726776123
10.04857063293457,60.18498611450195,6.361993789672852
7.464526653289795,59.283206939697266,6.229913234710693
4.981873512268066,58.41928482055664,6.113139629364014
2.590167999267578,57.661006927490234,6.018032550811768
0.27554094791412354,58.52196502685547,6.101805686950684
-2.0447442531585693,57.61728286743164,6.011188983917236
-4.3407087326049805,57.26563262939453,5.987872123718262
-5.654654502868652,48.5970458984375,5.101107120513916
-8.686866760253906,55.225914001464844,5.828874111175537
-11.236676216125488,56.53464889526367,6.009833335876465
-13.498191833496094,56.035621643066406,6.00961971282959
-15.618940353393555,55.02796173095703,5.964076042175293
-17.70235824584961,54.006744384765625,5.925741672515869
-19.752595901489258,52.970516204833984,5.894415855407715
-21.77371597290039,51.91775131225586,5.869931221008301
-22.6822566986084,48.5208625793457,5.584463596343994
-25.581462860107422,49.44217300415039,5.8041839599609375
-26.406688690185547,46.37226104736328,5.563930034637451
-29.13196563720703,46.69047164916992,5.737987041473389
-30.5889892578125,44.90260314941406,5.664823055267334
-21.952499389648438,29.595611572265625,3.8419742584228516
-33.26258087158203,41.26936340332031,5.5265374183654785
-34.730743408203125,39.713722229003906,5.500748157501221
-35.874725341796875,37.839988708496094,5.436607360839844
-38.18196105957031,37.1626091003418,5.555346965789795
-40.07985305786133,35.990238189697266,5.616427898406982
-41.7567024230957,34.5692138671875,5.652085781097412
-43.43621063232422,33.1113166809082,5.694632053375244
-28.59958839416504,20.037500381469727,3.640946388244629
-27.840309143066406,17.88254737854004,3.4499711990356445
-27.05313491821289,15.879219055175781,3.2706716060638428
-26.43365478515625,14.119699478149414,3.124626636505127
-26.64305305480957,12.883720397949219,3.0856575965881348
-28.107295989990234,12.224125862121582,3.19573974609375
-29.6773681640625,11.512544631958008,3.318950653076172
-31.370540618896484,10.74067497253418,3.457219123840332
-33.20777130126953,9.898409843444824,3.612919569015503
-35.21477508544922,8.973346710205078,3.7889647483825684
-34.75678253173828,7.3836669921875,3.704754590988159
-27.487836837768555,12.299873352050781,3.393064260482788
-29.007102966308594,11.604755401611328,3.52016544342041
-30.641523361206055,10.852191925048828,3.6626076698303223
-32.41032791137695,10.032776832580566,3.8227319717407227
-34.336917877197266,9.135028839111328,4.003419399261475
-34.91808319091797,7.802359104156494,4.03134822845459
-34.370384216308594,6.242097854614258,3.9359617233276367
-33.84748840332031,4.751657485961914,3.8510944843292236
-33.34617233276367,3.3218910694122314,3.7758116722106934
-32.863624572753906,1.9448249340057373,3.709320068359375
-34.47705078125,0.6526563167572021,3.885329246520996
-37.498226165771484,-0.7970939874649048,4.225991249084473
-69.09929656982422,-4.250495910644531,7.800334930419922
-68.15576171875,-6.9497575759887695,7.71912956237793
-71.8876724243164,-10.262487411499023,8.181915283203125
-76.39414978027344,-14.057805061340332,8.7520751953125
-78.92149353027344,-17.827661514282227,9.116364479064941
-85.10704040527344,-46.874420166015625,10.947505950927734
-84.18961334228516,-50.88046646118164,11.083669662475586
51.7705078125,36.691375732421875,7.149578094482422
49.9160270690918,41.78201675415039,7.334436416625977
48.005271911621094,47.2328987121582,7.588047981262207
57.84959030151367,72.57620239257812,10.457279205322266
51.55624771118164,70.29927825927734,9.822612762451172
46.91048812866211,69.66976928710938,9.463489532470703
42.80950164794922,69.44678497314453,9.191998481750488
38.50305938720703,68.47457885742188,8.851273536682129
34.274879455566406,67.13296508789062,8.492867469787598
30.50528907775879,66.18799591064453,8.211535453796387
27.059471130371094,65.51425170898438,7.986532211303711
23.70664405822754,64.64179229736328,7.757712364196777
20.478517532348633,63.639225006103516,7.532513618469238
17.457277297973633,62.79800033569336,7.343932151794434
14.522258758544922,61.75491714477539,7.147915840148926
11.764056205749512,60.912479400634766,6.989998817443848
9.102272033691406,59.982513427734375,6.83577823638916
6.5513410568237305,59.09065246582031,6.698716640472412
4.096991062164307,58.235225677490234,6.577755928039551
1.7288764715194702,57.50670623779297,6.482377052307129
-0.5740470886230469,56.68263626098633,6.386928081512451
-2.8202290534973145,56.011226654052734,6.31894588470459
-5.064948081970215,55.81932830810547,6.3151679039001465
-7.306822776794434,55.5985107421875,6.318314552307129
-9.549599647521973,55.34836196899414,6.328402996063232
-11.797035217285156,55.06829833984375,6.345484256744385
-13.932950019836426,54.290130615234375,6.315260887145996
-15.990243911743164,53.312042236328125,6.271200656890869
-18.012781143188477,52.318336486816406,6.23445987701416
-20.00446128845215,51.30769348144531,6.204851150512695
-21.968997955322266,50.27867889404297,6.182225227355957
-23.75942611694336,48.919944763183594,6.127659797668457
-25.6677188873291,47.85572052001953,6.118671894073486
-27.49325942993164,46.656768798828125,6.101754665374756
-29.030935287475586,45.02709197998047,6.036391258239746
-30.474708557128906,43.33879852294922,5.969481468200684
-22.716938018798828,29.695154190063477,4.212611675262451
-33.3649787902832,40.162109375,5.882998466491699
-34.81913375854492,38.64259719848633,5.8607497215271
-36.4605598449707,37.33271789550781,5.879655361175537
-38.09572982788086,35.99372100830078,5.905214786529541
-39.727291107177734,34.62297058105469,5.937562942504883
-41.358036041259766,33.21757125854492,5.976866722106934
-29.143756866455078,21.540176391601562,4.083268642425537
-28.327699661254883,19.22687530517578,3.8575174808502197
-27.596370697021484,17.1529483795166,3.6610610485076904
-26.833240509033203,15.219507217407227,3.4758429527282715
-25.655258178710938,13.218493461608887,3.251784324645996
-26.95276641845703,12.54358959197998,3.3496177196502686
-28.433704376220703,11.867632865905762,3.4715638160705566
-30.023521423339844,11.13729476928711,3.608090877532959
-31.74021339416504,10.343785285949707,3.7613818645477295
-33.60552215576172,9.476442337036133,3.9341015815734863
-35.16343688964844,8.406766891479492,4.0736236572265625
-34.56953048706055,6.809520721435547,3.969900131225586
-34.03787612915039,5.2944135665893555,3.881265163421631
-33.5289421081543,3.843245267868042,3.8025434017181396
-33.03976821899414,2.4475879669189453,3.7328922748565674
-33.47808074951172,1.1307594776153564,3.7742257118225098
-36.324310302734375,-0.2331458330154419,4.092853546142578
-39.68766784667969,-1.850783348083496,4.476588726043701
-68.50180053710938,-5.959603309631348,7.747453689575195
-67.57036590576172,-8.625290870666504,7.675131797790527
-76.2650375366211,-12.86733341217041,8.714448928833008
-75.68980407714844,-15.92125415802002,8.71481704711914
-95.9739990234375,-24.251564025878906,11.153563499450684
-91.60057830810547,-27.104494094848633,10.763259887695312
-84.38639831542969,-49.305294036865234,11.012060165405273
-68.18724060058594,-43.606075286865234,9.11954116821289
48.61480712890625,46.43357467651367,7.574668884277344
60.96137237548828,74.19474029541016,10.81961441040039
39.76097869873047,52.56256866455078,7.4259562492370605
35.854949951171875,51.58186340332031,7.078042507171631
44.32167053222656,69.56784057617188,9.294039726257324
40.086605072021484,68.87855529785156,8.97938346862793
35.78319549560547,67.5920639038086,8.617172241210938
31.85720443725586,66.50762176513672,8.308917999267578
28.30872344970703,65.75665283203125,8.066399574279785
24.97361183166504,65.09252166748047,7.855416297912598
21.600452423095703,63.86079788208008,7.5958404541015625
18.565608978271484,63.139556884765625,7.415282249450684
15.586660385131836,62.130027770996094,7.217302322387695
12.749822616577148,61.131168365478516,7.036046028137207
10.071460723876953,60.32207107543945,6.890748977661133
7.481165885925293,59.41542434692383,6.747372627258301
4.992779731750488,58.5471305847168,6.620622634887695
2.5944154262542725,57.755619049072266,6.514055252075195
0.2682560682296753,56.97401428222656,6.419503211975098
-1.9941637516021729,56.192176818847656,6.335323333740234
-4.23670768737793,55.89352798461914,6.315755367279053
-5.665770530700684,48.69257736206055,5.52335262298584
-8.721195220947266,55.44415283203125,6.323870658874512
-10.966464042663574,55.17521667480469,6.338360786437988
-13.163812637329102,54.64753341674805,6.333423614501953
-15.234895706176758,53.67490768432617,6.286606788635254
-17.269824981689453,52.687129974365234,6.247183322906494
-19.272438049316406,51.68290328979492,6.214965343475342
-21.246585845947266,50.66084289550781,6.189774513244629
-22.783065795898438,48.73651885986328,6.061671257019043
-24.965269088745117,48.25123596191406,6.121208190917969
-25.710596084594727,45.14984893798828,5.854161262512207
-28.48031234741211,45.646053314208984,6.062051773071289
-29.920570373535156,43.921390533447266,5.987928867340088
-21.99228858947754,29.64925765991211,4.159356117248535
-32.7344856262207,40.61416244506836,5.87742805480957
-34.14823913574219,39.04766082763672,5.844698429107666
-35.85539627075195,37.81959533691406,5.871905326843262
-37.492576599121094,36.49163818359375,5.894996643066406
-39.125152587890625,35.1329460144043,5.9248175621032715
-40.755889892578125,33.74066162109375,5.961533546447754
-42.38749694824219,32.31187438964844,6.005326271057129
-28.618236541748047,20.050565719604492,3.937155246734619
-27.857511520385742,17.893590927124023,3.730515241622925
-27.06904411315918,15.888567924499512,3.5365352630615234
-26.44849967956543,14.127626419067383,3.3785245418548584
-26.430448532104492,12.780913352966309,3.307910442352295
-27.875070571899414,12.123126983642578,3.4249467849731445
-29.422813415527344,11.413790702819824,3.555858612060547
-31.09034538269043,10.64474105834961,3.7026758193969727
-32.89793395996094,9.806051254272461,3.8678739070892334
-34.87034606933594,8.885583877563477,4.054499626159668
-34.77223205566406,7.386948585510254,4.005324840545654
-27.264257431030273,12.19983196258545,3.61710524559021
-28.762405395507812,11.506855010986328,3.7514591217041016
-30.37267303466797,10.756969451904297,3.9019253253936768
-32.1136360168457,9.940929412841797,4.070950984954834
-34.00787353515625,9.047489166259766,4.261528015136719
-34.933746337890625,7.805857181549072,4.334717273712158
-34.38543701171875,6.2448320388793945,4.232112407684326
-33.86199188232422,4.753696441650391,4.1408185958862305
-33.36018371582031,3.32328462600708,4.059837818145752
-32.87718200683594,1.9456243515014648,3.9883179664611816
-34.00508499145508,0.6437230110168457,4.118673324584961
-36.94055938720703,-0.7852431535720825,4.47442626953125
-40.42197799682617,-2.4864702224731445,4.904260158538818
-68.18244171142578,-6.952479839324951,8.299545288085938
-72.54183197021484,-10.35587215423584,8.873706817626953
-76.32342529296875,-14.044784545898438,9.397767066955566
-80.61631774902344,-18.210506439208984,10.0084228515625
-84.397216796875,-46.48347091674805,11.667929649353027
-83.4542465209961,-50.436038970947266,11.808358192443848
82.97052764892578,53.93140411376953,11.983589172363281
51.50495910644531,36.503177642822266,7.644742965698242
72.53768920898438,55.9193229675293,11.09130859375
49.895931243896484,41.76518630981445,7.879665851593018
47.96437454223633,47.192649841308594,8.148467063903809
63.011714935302734,72.84502410888672,11.66369915008545
55.82249450683594,70.03306579589844,10.845354080200195
50.400577545166016,68.72346496582031,10.320415496826172
46.208221435546875,68.62678527832031,10.018819808959961
42.107662200927734,68.3082275390625,9.717328071594238
37.75617980957031,67.14627838134766,9.328558921813965
33.56405258178711,65.7406997680664,8.938591003417969
29.862293243408203,64.79288482666016,8.639506340026855
26.493066787719727,64.14288330078125,8.404024124145508
23.246299743652344,63.38653564453125,8.175863265991211
20.068286895751953,62.364410400390625,7.9335479736328125
12.476531028747559,44.88104248046875,5.641090393066406
10.392254829406738,44.19231414794922,5.497569561004639
8.4069185256958,43.52971267700195,5.368755340576172
6.508476257324219,42.88968276977539,5.253304958343506
4.6863484382629395,42.26909637451172,5.15005350112915
2.931239128112793,41.665157318115234,5.058026313781738
1.691235065460205,56.25481414794922,6.8153910636901855
-0.562124490737915,55.50590515136719,6.7219719886779785
-2.7666842937469482,54.947628021240234,6.662440776824951
-4.949934482574463,54.55177307128906,6.633218765258789
-7.164325714111328,54.5141716003418,6.658288478851318
-9.32529067993164,54.04832458496094,6.6418280601501465
-11.202606201171875,52.29352569580078,6.476310729980469
-13.59648323059082,52.979068756103516,6.623549938201904
-15.606729507446289,52.03335952758789,6.5784454345703125
-17.583221435546875,51.0706787109375,6.540822982788086
-19.529613494873047,50.08980941772461,6.510498523712158
-21.449386596679688,49.089454650878906,6.487321376800537
-23.198986053466797,47.765995025634766,6.430485725402832
-25.06311798095703,46.72850036621094,6.4212751388549805
-26.886531829833984,45.627140045166016,6.413276672363281
-28.399229049682617,44.04730224609375,6.3465681076049805
-29.83257293701172,42.42557907104492,6.280643463134766
-22.77029037475586,29.764892578125,4.538227081298828
-32.70254898071289,39.364715576171875,6.197346210479736
-34.05454635620117,37.79405212402344,6.160647392272949
-35.617034912109375,36.469032287597656,6.1730852127075195
-24.316036224365234,22.974349975585938,4.051054954528809
-38.799346923828125,33.81425857543945,6.232463836669922
-40.38576889038086,32.436668395996094,6.272750377655029
-29.163522720336914,21.554794311523438,4.391556262969971
-28.34584617614746,19.23918914794922,4.14860725402832
-27.61315155029297,17.16339111328125,3.9371988773345947
-26.84878921508789,15.228331565856934,3.7378995418548584
-26.247652053833008,13.52371597290039,3.57562518119812
-26.73632049560547,12.442861557006836,3.5711634159088135
-28.197118759155273,11.768893241882324,3.7000935077667236
-29.763973236083984,11.041020393371582,3.844348669052124
-31.45427131652832,10.250600814819336,4.006206512451172
-33.28901290893555,9.387189865112305,4.188436508178711
-35.1431999206543,8.401932716369629,4.375696182250977
-34.58479690551758,6.812522888183594,4.268618106842041
-34.05257034301758,5.296700477600098,4.173276424407959
-33.54312515258789,3.8448729515075684,4.088594436645508
-33.053489685058594,2.4486050605773926,4.013669967651367
-33.03272247314453,1.1157158613204956,4.002465724945068
-35.800872802734375,-0.22978568077087402,4.3354926109313965
-39.06300354003906,-1.8216559886932373,4.735578536987305
-68.52871704101562,-5.96195125579834,8.330011367797852
-67.59667205810547,-8.628649711608887,8.252218246459961
-75.58111572265625,-12.751941680908203,9.282047271728516
-75.67002868652344,-15.917096138000488,9.36398983001709
-83.65402221679688,-48.87739181518555,11.732728958129883
-83.10133361816406,-53.143699645996094,11.945215225219727
83.34713745117188,52.4339599609375,11.92431640625
72.15341186523438,53.9356803894043,10.908990859985352
73.17823028564453,59.42978286743164,11.415953636169434
60.8707389831543,58.13959503173828,10.193418502807617
65.18035888671875,73.13079071044922,11.862984657287598
58.0780029296875,70.68547058105469,11.07859992980957
39.68539047241211,52.46262741088867,7.966032028198242
35.60987091064453,51.229286193847656,7.555281639099121
43.716102600097656,68.61732482910156,9.85248851776123
39.33346939086914,67.58447265625,9.469473838806152
35.06924819946289,66.24346160888672,9.076698303222656
31.198034286499023,65.13143157958984,8.745405197143555
27.70626449584961,64.35729217529297,8.485039710998535
24.430484771728516,63.67686080932617,8.259159088134766
21.244659423828125,62.80892562866211,8.029319763183594
18.13625144958496,61.67939758300781,7.785417079925537
11.14958667755127,44.443359375,5.548765659332275
9.129204750061035,43.77154541015625,5.414690971374512
7.199969291687012,43.123573303222656,5.2944488525390625
5.350806713104248,42.49614334106445,5.186816692352295
3.5719797611236572,41.88636779785156,5.090753555297852
2.535766124725342,56.44999694824219,6.84284782409668
0.2627207040786743,55.798614501953125,6.757143020629883
-1.9595539569854736,55.216896057128906,6.690828800201416
-4.143989562988281,54.670326232910156,6.639431476593018
-5.676950454711914,48.78866958618164,5.948054313659668
-8.51649284362793,54.142784118652344,6.637182235717773
-10.70849609375,53.87726974487305,6.652030944824219
-12.845036506652832,53.32414627075195,6.642136573791504
-14.868622779846191,52.38446044921875,6.59421443939209
-16.857154846191406,51.42816925048828,6.55385684967041
-18.814241409301758,50.454158782958984,6.5208587646484375
-20.74344253540039,49.46117401123047,6.495052337646484
-22.64812469482422,48.447845458984375,6.476324081420898
-24.37698745727539,47.11424255371094,6.423872947692871
-25.423336029052734,44.6453857421875,6.221584796905518
-27.858226776123047,44.649009704589844,6.373012065887451
-29.28428840637207,42.98738479614258,6.298792839050293
-22.032297134399414,29.70319938659668,4.478488922119141
-32.024173736572266,39.732852935791016,6.17983341217041
-33.54956817626953,38.36307144165039,6.171583652496338
-35.026954650878906,36.94575500488281,6.165138244628906
-24.308307647705078,23.659345626831055,4.10779333114624
-38.15325164794922,34.260215759277344,6.209634304046631
-39.80017852783203,32.949462890625,6.2570343017578125
-41.38639450073242,31.54873275756836,6.301912784576416
-28.63694190979004,20.06366729736328,4.2343058586120605
-27.874771118164062,17.90468406677246,4.011936187744141
-27.084999084472656,15.897929191589355,3.803204298019409
-26.463396072387695,14.135583877563477,3.633185863494873
-26.2208309173584,12.679546356201172,3.5270471572875977
-27.646236419677734,12.023603439331055,3.6508145332336426
-29.172107696533203,11.316539764404297,3.789172410964966
-30.814599990844727,10.550326347351074,3.9442331790924072
-32.59324645996094,9.71523666381836,4.118580341339111
-34.53197479248047,8.799359321594238,4.315372467041016
-34.78772735595703,7.390239715576172,4.306725978851318
-27.04384994506836,12.101203918457031,3.8379721641540527
-28.521318435668945,11.410411834716797,3.9793334007263184
-30.107959747314453,10.663226127624512,4.13754940032959
-31.821744918823242,9.850576400756836,4.315152645111084
-33.684425354003906,8.961442947387695,4.5152387619018555
-34.99324035644531,7.8191609382629395,4.644783973693848
-34.40052795410156,6.2475714683532715,4.529116153717041
-33.87653350830078,4.755736351013184,4.431374549865723
-33.374229431152344,3.3246874809265137,4.344675064086914
-32.890785217285156,1.9464292526245117,4.268104076385498
-33.54494094848633,0.6350116729736328,4.346168518066406
-36.398162841796875,-0.7737114429473877,4.716057777404785
-39.772361755371094,-2.446507453918457,5.16182279586792
-68.20919799804688,-6.955207824707031,8.88158893585205
-73.4779281616211,-10.489505767822266,9.614778518676758
-76.35291290283203,-14.050209045410156,10.056763648986816
-83.57295227050781,-18.87838363647461,11.0987548828125
-31.63506507873535,-8.4950590133667,4.243165969848633
-83.69776153564453,-46.09823226928711,12.377848625183105
-82.73015594482422,-49.998443603515625,12.521918296813965
-82.15516662597656,-54.272560119628906,12.754838943481445
-42.99313735961914,-85.77432250976562,12.428783416748047
84.15465545654297,50.01087951660156,12.681023597717285
82.8187255859375,53.83272933959961,12.795509338378906
51.49453353881836,36.49577331542969,8.176002502441406
66.838623046875,51.525909423828125,10.932319641113281
49.87580490112305,41.74834442138672,8.425553321838379
47.9234619140625,47.152374267578125,8.709054946899414
66.09107971191406,70.47245025634766,12.515387535095215
60.436988830566406,69.86845397949219,11.966946601867676
53.883426666259766,67.60037231445312,11.198383331298828
49.11506652832031,66.9705810546875,10.75826644897461
45.387535095214844,67.4079360961914,10.526887893676758
41.35780334472656,67.09180450439453,10.209604263305664
36.984375,65.77371978759766,9.774869918823242
32.82737731933594,64.29779052734375,9.351837158203125
29.221284866333008,63.402061462402344,9.043375015258789
25.91655731201172,62.74708938598633,8.794233322143555
22.82489776611328,62.23747253417969,8.58726692199707
19.697071075439453,61.21086883544922,8.32961654663086
12.385978698730469,44.55529022216797,5.990527153015137
10.318721771240234,43.87965393066406,5.839191913604736
8.348828315734863,43.22890853881836,5.7033185958862305
6.464457988739014,42.59963607788086,5.581504821777344
4.655272960662842,41.98882293701172,5.472530364990234
2.9121546745300293,41.393802642822266,5.375377655029297
1.6665204763412476,55.432533264160156,7.183919429779053
-0.5550702810287476,54.808956146240234,7.1002678871154785
-2.730884552001953,54.23674774169922,7.034683704376221
-4.878808975219727,53.76776885986328,6.9936347007751465
-7.039981365203857,53.56801223754883,6.9988203048706055
-9.170634269714355,53.15191650390625,6.986985206604004
-11.031268119812012,51.49375915527344,6.8218092918396
-13.202033996582031,51.44213104248047,6.879728317260742
-15.24045467376709,50.812191009521484,6.871875762939453
-17.17286491394043,49.8787956237793,6.83349084854126
-19.075910568237305,48.92610168457031,6.802547454833984
-20.952804565429688,47.95295715332031,6.778890609741211
-22.663326263427734,46.6630859375,6.719918251037598
-24.485225677490234,45.651058197021484,6.710516452789307
-25.23879051208496,42.83088302612305,6.439913749694824
-27.835683822631836,43.173248291015625,6.654269218444824
-29.229915618896484,41.56854248046875,6.582743167877197
-22.823991775512695,29.83509063720703,4.866036415100098
-32.01229476928711,38.53384780883789,6.489439010620117
-33.35161590576172,37.01393508911133,6.454074859619141
-34.81008529663086,35.642765045166016,6.453799247741699
-24.04755210876465,22.720687866210938,4.285604476928711
-37.912025451660156,33.04095458984375,6.514458179473877
-39.456329345703125,31.690170288085938,6.555597305297852
-29.183347702026367,21.569440841674805,4.70088005065918
-28.364051818847656,19.251548767089844,4.440649032592773
-27.62997817993164,17.173839569091797,4.2142205238342285
-26.864381790161133,15.237171173095703,4.00078821182251
-26.262235641479492,13.531229019165039,3.8270058631896973
-26.522905349731445,12.34354305267334,3.789611339569092
-27.9639835357666,11.67158317565918,3.9253008365631104
-29.508377075195312,10.946203231811523,4.077020168304443
-31.172887802124023,10.15889835357666,4.247137069702148
-32.977783203125,9.299427032470703,4.4385223388671875
-35.20320129394531,8.41628646850586,4.688712120056152
-34.6001091003418,6.815543174743652,4.568202495574951
-34.06731414794922,5.298995018005371,4.466123580932617
-33.55735397338867,3.846506357192993,4.375462532043457
-33.0672492980957,2.4496254920959473,4.295247554779053
-32.5396728515625,1.0990498065948486,4.217571258544922
-35.29130172729492,-0.22651457786560059,4.5717058181762695
-38.45647430419922,-1.7933714389801025,4.987040996551514
-68.55570983886719,-5.96429967880249,8.914201736450195
-67.67826843261719,-8.63906478881836,8.838132858276367
-74.70735168457031,-12.60451889038086,9.814312934875488
-75.69915771484375,-15.923218727111816,10.02060604095459
-31.795665740966797,-8.034412384033203,4.248250484466553
-82.93284606933594,-48.45602035522461,12.44240665435791
-82.37202453613281,-52.677310943603516,12.665770530700684
83.31487274169922,52.41366958618164,12.750616073608398
66.48236083984375,49.69646453857422,10.752266883850098
67.27413177490234,54.63492965698242,11.226493835449219
60.98530578613281,58.2490234375,10.924516677856445
68.29464721679688,70.69058990478516,12.73266315460205
62.47333526611328,70.09356689453125,12.16291618347168
55.86604309082031,67.99333953857422,11.39952564239502
39.60993576049805,52.36288833618164,8.505138397216797
35.64609146118164,51.28138732910156,8.09017562866211
42.91814041137695,67.36483764648438,10.346921920776367
38.59427261352539,66.31436157226562,9.93921947479248
34.325016021728516,64.83766174316406,9.50338363647461
30.523717880249023,63.723663330078125,9.152838706970215
27.11683464050293,62.988136291503906,8.883427619934082
23.955656051635742,62.439266204833984,8.663190841674805
20.915603637695312,61.83612060546875,8.456010818481445
13.176490783691406,44.811790466308594,6.050631046295166
11.069986343383789,44.12601852416992,5.893184185028076
9.06558895111084,43.46650314331055,5.751780986785889
7.150907516479492,42.82966995239258,5.624924659729004
5.315086841583252,42.212371826171875,5.5113348960876465
3.5485658645629883,41.6118049621582,5.409929275512695
1.905267357826233,42.414207458496094,5.499848365783691
0.25924503803253174,55.0621337890625,7.132779121398926
-1.9328110218048096,54.46319580078125,7.059549331665039
-4.0898942947387695,53.956512451171875,7.009530067443848
-5.688202857971191,48.885337829589844,6.375298500061035
-8.390043258666992,53.33885955810547,6.994422912597656
-10.234347343444824,51.49167251586914,6.800671577453613
-12.47162914276123,51.774017333984375,6.8986101150512695
-14.518853187561035,51.15217590332031,6.8879618644714355
-16.462982177734375,50.225624084472656,6.846787929534912
-18.37647819519043,49.280181884765625,6.813114166259766
-20.262649536132812,48.31473159790039,6.7867841720581055
-22.12466049194336,47.328067779541016,6.76766300201416
-23.814685821533203,46.027462005615234,6.71317195892334
-25.14186668395996,44.15111541748047,6.581606388092041
-27.29530906677246,43.746829986572266,6.6795196533203125
-28.710079193115234,42.144474029541016,6.60576868057251
-22.072534561157227,29.7574405670166,4.799434185028076
-31.503332138061523,39.08664321899414,6.503105640411377
-32.8558464050293,37.5698356628418,6.465295791625977
-34.23436737060547,36.1097526550293,6.445677280426025
-24.036191940307617,23.39451026916504,4.344959259033203
-37.341068267822266,33.530906677246094,6.5011138916015625
-38.886474609375,32.193023681640625,6.539547920227051
-40.429603576660156,30.81937599182129,6.585371494293213
-28.655717849731445,20.076824188232422,4.532447338104248
-27.892086029052734,17.915809631347656,4.294269561767578
-27.204038619995117,15.96781063079834,4.086201190948486
-26.478334426879883,14.143558502197266,3.8886454105377197
-26.01408576965332,12.579577445983887,3.743169069290161
-27.42066764831543,11.925506591796875,3.873445749282837
-28.925151824951172,11.220739364624023,4.018999099731445
-30.543155670166016,10.457390785217285,4.182019233703613
-32.293575286865234,9.625905990600586,4.365174770355225
-34.91938018798828,8.898090362548828,4.667980194091797
-34.80326843261719,7.393544673919678,4.609002590179443
-26.826507568359375,12.003954887390137,4.05576229095459
-28.283742904663086,11.31535816192627,4.2039008140563965
-29.84728240966797,10.570898056030273,4.369598388671875
-31.53449821472168,9.761656761169434,4.555469036102295
-34.366172790527344,9.142827987670898,4.907465934753418
-35.009010314941406,7.822683334350586,4.950351715087891
-34.41566848754883,6.25032377243042,4.827024459838867
-33.89112091064453,4.757784843444824,4.7228102684021
-33.38832092285156,3.3260912895202637,4.630368232727051
-32.90442657470703,1.947237253189087,4.548727989196777
-33.09613800048828,0.6265175342559814,4.568057060241699
-35.87034606933594,-0.7624936103820801,4.951195240020752
-39.1419563293457,-2.407731056213379,5.411769866943359
-68.23603820800781,-6.957945346832275,9.465343475341797
-74.15352630615234,-10.585953712463379,10.336869239807129
-76.38248443603516,-14.055648803710938,10.717693328857422
-85.11591339111328,-19.226924896240234,12.041876792907715
-37.51121520996094,-10.07300090789795,5.359905242919922
-84.44776153564453,-46.511314392089844,13.30438232421875
-82.01702117919922,-49.56745147705078,13.224698066711426
-81.43392181396484,-53.79608917236328,13.468530654907227
-42.89387130737305,-85.5762939453125,13.209905624389648
84.1221923828125,49.99159240722656,13.503975868225098
51.537803649902344,36.52644729614258,8.71727180480957
61.49428939819336,47.40593338012695,10.715062141418457
49.94137191772461,41.80323028564453,8.987606048583984
47.88252258300781,47.11211395263672,9.2698974609375
63.37681198120117,67.5782470703125,12.78518295288086
58.05943298339844,67.119873046875,12.246959686279297
52.693634033203125,66.10771179199219,11.66630744934082
48.33456039428711,65.90633392333984,11.27873420715332
44.15522384643555,65.5777359008789,10.909893989562988
34.15326690673828,55.40439987182617,8.981712341308594
36.05680465698242,64.12411499023438,10.152082443237305
32.156341552734375,62.98345947265625,9.758933067321777
28.640666961669922,62.14228057861328,9.442549705505371
25.43585205078125,61.58321762084961,9.194791793823242
22.37447166442871,61.00931930541992,8.967545509338379
19.277076721191406,59.905616760253906,8.684396743774414
12.296523094177246,44.23353958129883,6.335662364959717
10.246079444885254,43.57073211669922,6.1767401695251465
8.291398048400879,42.93159866333008,6.034003257751465
6.420936584472656,42.312870025634766,5.90598726272583
4.624540328979492,41.71165466308594,5.791443824768066
2.893263101577759,41.1253776550293,5.689294815063477
1.6351008415222168,54.38726043701172,7.508780479431152
-0.5455892086029053,53.87286376953125,7.434779644012451
-2.6876754760742188,53.37845230102539,7.375506401062012
-4.8159499168396,53.07517623901367,7.354412078857422
-6.920605659484863,52.6596565246582,7.329459190368652
-9.00019645690918,52.16415786743164,7.304957389831543
-10.864740371704102,50.71641540527344,7.157619953155518
-12.89672565460205,50.25247573852539,7.159533977508545
-14.890235900878906,49.64457702636719,7.15243673324585
-16.780399322509766,48.7388916015625,7.113398551940918
-18.64188003540039,47.81290817260742,7.081920623779297
-20.47708511352539,46.864200592041016,7.05763578414917
-22.289478302001953,45.893367767333984,7.04069709777832
-23.94915771484375,44.651611328125,6.992254257202148
-24.650676727294922,41.832828521728516,6.700623035430908
-27.3636417388916,42.44111251831055,6.968626499176025
-28.691898345947266,40.803401947021484,6.883574485778809
-22.878080368041992,29.905778884887695,5.196108818054199
-31.353496551513672,37.7408447265625,6.7709808349609375
-32.67567825317383,36.263790130615234,6.736231803894043
-23.740970611572266,24.30887794494629,4.689036846160889
-23.784378051757812,22.472034454345703,4.515521049499512
-37.06260299682617,32.30066680908203,6.784407615661621
-38.56684875488281,30.975770950317383,6.826287746429443
-29.2032470703125,21.584152221679688,5.011300563812256
-28.38232421875,19.26396369934082,4.733706951141357
-27.646867752075195,17.184343338012695,4.492187023162842
-26.982219696044922,15.304010391235352,4.280760765075684
-26.276865005493164,13.538766860961914,4.07920503616333
-26.312410354614258,12.245582580566406,4.005063533782959
-27.734176635742188,11.57567024230957,4.147286891937256
-29.256582260131836,10.852799415588379,4.306220054626465
-30.895889282226562,10.068633079528809,4.484302520751953
-33.434974670410156,9.428363800048828,4.793939113616943
-35.21921920776367,8.420116424560547,4.997189521789551
-34.65884780883789,6.827129364013672,4.874799728393555
-34.08209228515625,5.301292419433594,4.759857177734375
-33.571617126464844,3.8481435775756836,4.663193225860596
-33.08104705810547,2.4506478309631348,4.577669620513916
-32.11186599731445,1.084604024887085,4.4339399337768555
-34.794979095458984,-0.22333025932312012,4.801777362823486
-37.86724853515625,-1.765892505645752,5.231328964233398
-41.512577056884766,-3.6115612983703613,5.750339508056641
-67.97675323486328,-8.677166938781738,9.456849098205566
-76.76786041259766,-12.952169418334961,10.743623733520508
-75.7283706665039,-15.929363250732422,10.679145812988281
-31.80788230895996,-8.03749942779541,4.527429580688477
-94.38140869140625,-27.927326202392578,13.582763671875
-82.22245025634766,-48.040950775146484,13.141450881958008
-81.65390014648438,-52.218055725097656,13.375297546386719
-81.04478454589844,-56.54051208496094,13.636863708496094
84.6093978881836,48.59733963012695,13.46496868133545
83.76953887939453,52.69969177246094,13.657453536987305
74.90664672851562,51.436458587646484,12.539499282836914
63.94929885864258,47.80296325683594,11.018037796020508
61.773685455322266,50.16783905029297,10.98182201385498
62.14271926879883,54.753631591796875,11.42953109741211
61.14863967895508,58.4050407409668,11.669137954711914
65.4432373046875,67.7391357421875,12.997879028320312
59.977073669433594,67.29280090332031,12.439506530761719
54.46359634399414,66.28643798828125,11.839137077331543
39.53460693359375,52.263282775878906,9.043353080749512
35.682464599609375,51.33371353149414,8.627317428588867
41.5558967590332,65.22665405273438,10.67279052734375
37.57121658325195,64.5564956665039,10.307652473449707
33.58692932128906,63.443424224853516,9.906329154968262
29.906105041503906,62.43429183959961,9.553299903869629
26.591066360473633,61.76686096191406,9.28009033203125
23.49576759338379,61.240570068359375,9.051793098449707
20.464370727539062,60.5020637512207,8.813905715942383
13.080404281616211,44.48497009277344,6.398774147033691
10.991334915161133,43.81251525878906,6.233449459075928
9.002710342407227,43.1650390625,6.0849175453186035
7.10239315032959,42.53912353515625,5.951623439788818
5.279755592346191,41.9317626953125,5.832238674163818
3.525411605834961,41.34024429321289,5.725625038146973
1.9526615142822266,43.469173431396484,6.0047607421875
0.25468289852142334,54.0908203125,7.464560031890869
-1.9006681442260742,53.55785369873047,7.395578384399414
-4.030352592468262,53.17119216918945,7.358621597290039
-5.699517250061035,48.982601165771484,6.8051652908325195
-8.236551284790039,52.36297607421875,7.314884185791016
-9.934141159057617,49.98130798339844,7.032294273376465
-12.182440757751465,50.573486328125,7.178729057312012
-14.106168746948242,49.69822692871094,7.129227638244629
-16.086030960083008,49.07559585571289,7.126922607421875
-17.957731246948242,48.1572151184082,7.092672824859619
-19.802663803100586,47.21793746948242,7.065882205963135
-21.62278938293457,46.25450134277344,7.04610538482666
-23.29309844970703,45.01939010620117,6.994955062866211
-25.064605712890625,44.01543426513672,6.989890098571777
-26.792381286621094,42.94076919555664,6.984633922576904
-28.058900833129883,41.18857955932617,6.877566337585449
-22.113006591796875,29.811992645263672,5.122241973876953
-30.863750457763672,38.29310989379883,6.78715705871582
-32.188846588134766,36.807125091552734,6.7477006912231445
-33.498374938964844,35.33343505859375,6.719005584716797
-23.76953887939453,23.134960174560547,4.577364921569824
-23.80670738220215,21.377553939819336,4.415453910827637
-38.011905670166016,31.469017028808594,6.80995512008667
-39.51412582397461,30.12151527404785,6.856588840484619
-28.674556732177734,20.090023040771484,4.8316240310668945
-27.909452438354492,17.92695426940918,4.577569007873535
-27.22015953063965,15.977273941040039,4.355639934539795
-26.49332618713379,14.151571273803711,4.144952297210693
-25.810148239135742,12.480958938598633,3.9563632011413574
-27.198278427124023,11.828788757324219,4.092944145202637
-28.681821823120117,11.126346588134766,4.245450496673584
-30.275880813598633,10.36588191986084,4.4161481857299805
-31.99871063232422,9.538021087646484,4.607793807983398
-35.05343246459961,8.932251930236816,4.991922378540039
-34.86248016357422,7.406133651733398,4.9183526039123535
-26.612146377563477,11.908038139343262,4.270566463470459
-28.049543380737305,11.221667289733887,4.425260543823242
-29.59048080444336,10.479951858520508,4.59818172454834
-32.05427169799805,9.922566413879395,4.915073871612549
-34.49665832519531,9.177545547485352,5.228780269622803
-35.02484130859375,7.826229572296143,5.256898403167725
-34.474002838134766,6.260930061340332,5.132299423217773
-33.90575408935547,4.759840965270996,5.01516580581665
-33.40245056152344,3.32749605178833,4.916959285736084
-32.91810989379883,1.9480481147766113,4.830230712890625
-32.658203125,0.6182253360748291,4.784580230712891
-35.3564567565918,-0.7515705823898315,5.18012809753418
-38.529842376708984,-2.3700742721557617,5.654461860656738
-68.26295471191406,-6.960693359375,10.050902366638184
-73.3060302734375,-10.464971542358398,10.846616744995117
-76.41213989257812,-14.061111450195312,11.380655288696289
-83.3708267211914,-18.832733154296875,12.519722938537598
-37.37957000732422,-10.037652015686035,5.66927433013916
-91.08313751220703,-28.427593231201172,13.976424217224121
-83.93934631347656,-46.231292724609375,14.036842346191406
-68.93002319335938,-41.65825271606445,11.79743480682373
-80.72361755371094,-53.32686996459961,14.171403884887695
-80.08546447753906,-57.65625,14.45462417602539
-42.79484176635742,-85.37872314453125,13.989211082458496
76.73523712158203,33.86857604980469,12.28619384765625
86.97982788085938,47.06843566894531,14.486509323120117
84.58136749267578,50.26447296142578,14.411965370178223
51.58124542236328,36.55723571777344,9.260700225830078
58.47658920288086,45.07958984375,10.815315246582031
57.54290008544922,48.1660270690918,10.99189567565918
57.684288024902344,52.365692138671875,11.411835670471191
47.84157180786133,47.07181930541992,9.831067085266113
60.871238708496094,64.90657043457031,13.034242630004883
55.856998443603516,64.57373809814453,12.506349563598633
51.173805236816406,64.20098876953125,12.025978088378906
45.240814208984375,61.6878776550293,11.20548152923584
41.66204833984375,61.87496566772461,10.9263916015625
34.16109085083008,55.41706466674805,9.535772323608398
35.06608963012695,62.36219024658203,10.479781150817871
31.51169776916504,61.72083282470703,10.15090560913086
28.084877014160156,60.936363220214844,9.828243255615234
24.91600799560547,60.32464599609375,9.560300827026367
21.875059127807617,59.64752197265625,9.306085586547852
18.900144577026367,58.734310150146484,9.03775405883789
12.20815372467041,43.91566467285156,6.676632881164551
10.174278259277344,43.26543045043945,6.510329246520996
8.23464584350586,42.63767623901367,6.360913276672363
6.377901077270508,42.02928924560547,6.226867198944092
4.594149589538574,41.43749237060547,6.106891632080078
2.8745832443237305,40.85980224609375,5.999874114990234
1.3338135480880737,44.36564636230469,6.501546859741211
-0.5356307029724121,52.889835357666016,7.74761438369751
-2.641230344772339,52.456199645996094,7.693422317504883
-4.725066661834717,52.07363510131836,7.658992767333984
-6.784625053405762,51.624996185302734,7.626958847045898
-8.80588150024414,51.03784942626953,7.586390495300293
-10.702818870544434,49.96053695678711,7.4841814041137695
-12.595641136169434,49.07929611206055,7.422032356262207
-14.555789947509766,48.52950668334961,7.421388626098633
-16.405099868774414,47.648799896240234,7.381606101989746
-18.226287841796875,46.74702072143555,7.349482536315918
-20.022214889526367,45.82319259643555,7.324880599975586
-21.79552459716797,44.87631607055664,7.307686805725098
-23.419017791748047,43.6631965637207,7.257596015930176
-24.70199966430664,41.91992950439453,7.127148628234863
-26.729915618896484,41.45819091796875,7.225517272949219
-28.098371505737305,39.95934295654297,7.1553874015808105
-22.932519912719727,29.976957321166992,5.528505325317383
-30.720434188842773,36.97881317138672,7.041909694671631
-32.02515411376953,35.54182434082031,7.007783889770508
-23.473590850830078,24.035099029541016,4.9210968017578125
-23.526308059692383,22.228193283081055,4.74097204208374
-23.568485260009766,20.540313720703125,4.5793633460998535
-37.71467590332031,30.29132080078125,7.085623741149902
-29.22321319580078,21.598899841308594,5.322850704193115
-28.400650024414062,19.27638816833496,5.027811527252197
-27.66381072998047,17.194873809814453,4.771127700805664
-26.997983932495117,15.312957763671875,4.546447277069092
-26.291545867919922,13.546329498291016,4.332269191741943
-26.10477638244629,12.148944854736328,4.21760368347168
-27.50760841369629,11.48110294342041,4.366150856018066
-29.00848960876465,10.76076889038086,4.532052040100098
-30.72098731994629,10.01163101196289,4.732893466949463
-33.55898666381836,9.463333129882812,5.107372760772705
-35.23529052734375,8.423959732055664,5.3066606521606445
-34.67427062988281,6.830161094665527,5.176629543304443
