91.41996002197266,-12.71227741241455,6.531307220458984
72.33587646484375,-7.1106696128845215,5.143303871154785
48.56636047363281,41.37810134887695,4.514837265014648
46.59368133544922,77.08291625976562,6.373591899871826
-7.370630264282227,-67.28231048583984,4.789517402648926
-5.010181903839111,-72.56863403320312,5.1473259925842285
7.397042274475098,-80.35482788085938,5.71010684967041
29.894268035888672,-50.58021545410156,4.157547950744629
32.116310119628906,-49.6699333190918,4.185477256774902
34.053443908691406,-48.294010162353516,4.181521892547607
64.81155395507812,-71.7397689819336,6.841314792633057
70.1683578491211,-39.6777229309082,5.704103469848633
55.04368209838867,-28.26964569091797,4.378667831420898
56.598114013671875,-26.25054359436035,4.414801597595215
58.72144317626953,-24.419187545776367,4.500210285186768
58.03507614135742,-21.442096710205078,4.378009796142578
67.69879913330078,-21.96455192565918,5.036333084106445
72.08722686767578,-20.226457595825195,5.2980265617370605
49.172691345214844,40.65128707885742,4.514638423919678
40.53024673461914,46.28050994873047,4.353211402893066
36.71260070800781,45.485294342041016,4.136236667633057
-71.27570343017578,-44.9697380065918,5.963560104370117
-57.71953582763672,-76.5106201171875,6.781876087188721
-46.216331481933594,-87.57588958740234,7.00704288482666
-31.808679580688477,-94.44721984863281,7.052127838134766
-5.925088405609131,-70.5674819946289,5.011070251464844
-3.3324198722839355,-76.40837860107422,5.4119486808776855
31.259557723999023,-49.95504379272461,4.169959545135498
33.59407424926758,-49.17585372924805,4.2142510414123535
33.39131164550781,-44.89449691772461,3.959195137023926
62.79499053955078,-71.61567687988281,6.73988151550293
72.82452392578125,-66.61476135253906,7.808828353881836
70.91614532470703,-38.72355270385742,6.392871379852295
55.299461364746094,-27.371990203857422,4.881927490234375
57.12165832519531,-25.47061538696289,4.948398590087891
57.852352142333984,-23.057199478149414,4.927412509918213
59.411521911621094,-20.95432472229004,4.984433650970459
68.29670715332031,-21.043954849243164,5.65431547164917
72.73126983642578,-19.247852325439453,5.95259428024292
91.49410247802734,-12.722591400146484,7.308656215667725
72.35901641845703,-7.112945556640625,5.752625465393066
53.069644927978516,26.595260620117188,4.6966142654418945
50.24282455444336,36.271209716796875,4.902842044830322
48.5778923034668,41.387939453125,5.04929256439209
46.59978485107422,77.09303283691406,7.127325534820557
-83.82352447509766,38.1248893737793,7.285856246948242
-87.69668579101562,-26.783578872680664,7.254937171936035
-7.376128673553467,-67.33269500732422,5.359223365783691
-4.906882286071777,-71.07237243652344,5.636621475219727
7.406721115112305,-80.45988464355469,6.392886638641357
44.48912048339844,-82.68756103515625,7.429062843322754
29.62397575378418,-50.12290573120117,4.60657262802124
31.836246490478516,-49.23680114746094,4.6390228271484375
33.311004638671875,-47.241085052490234,4.573470592498779
33.67002868652344,-43.89395523071289,4.3769450187683105
64.83051300048828,-71.76077270507812,7.6515913009643555
70.18696594238281,-39.68824768066406,6.379517555236816
55.67109680175781,-28.591880798339844,4.95164155960083
55.918724060058594,-25.935428619384766,4.876984119415283
58.10013961791992,-24.16082763671875,4.9785003662109375
57.600425720214844,-21.281509399414062,4.858442783355713
66.76517486572266,-21.661643981933594,5.553521633148193
71.0421371459961,-19.933237075805664,5.837914943695068
54.026153564453125,13.726901054382324,4.4103593826293945
49.151153564453125,40.63347625732422,5.045659065246582
40.54747009277344,46.30018615722656,4.869443893432617
36.71017837524414,45.48231506347656,4.624472141265869
-83.40379333496094,31.520160675048828,7.054415225982666
-81.53909301757812,27.12512969970703,6.798967361450195
-78.29228973388672,9.459456443786621,6.239526271820068
-71.17122650146484,-44.9038200378418,6.658153533935547
-57.74420928955078,-76.54330444335938,7.586136817932129
-46.24428939819336,-87.62884521484375,7.83939266204834
-31.809219360351562,-94.44872283935547,7.885194301605225
-8.428597450256348,-67.65266418457031,5.394052505493164
-5.800922870635986,-69.0887680053711,5.485526084899902
-3.258605480194092,-74.71629333496094,5.917160987854004
44.751468658447266,-86.21658325195312,7.685626983642578
30.98796844482422,-49.521034240722656,4.621973037719727
33.29912185668945,-48.744110107421875,4.670633792877197
32.89863204956055,-44.23207473754883,4.361505508422852
62.81487274169922,-71.63835906982422,7.53832483291626
71.0282974243164,-64.97169494628906,8.421819686889648
70.76547241210938,-59.691070556640625,8.099571228027344
70.94245147705078,-38.73792266845703,7.071691513061523
55.311126708984375,-27.37776756286621,5.399449348449707
56.433414459228516,-25.163724899291992,5.405880451202393
57.25202178955078,-22.817949295043945,5.3920674324035645
59.43865966796875,-20.963891983032227,5.51417350769043
67.34974670410156,-20.7521915435791,6.165713787078857
71.67044067382812,-18.967121124267578,6.486216068267822
91.56843566894531,-12.73292350769043,8.088282585144043
72.38218688964844,-7.115231513977051,6.363144874572754
95.98187255859375,-1.6916369199752808,8.398632049560547
76.37842559814453,27.36324691772461,7.098137378692627
53.077919006347656,26.59939956665039,5.194202423095703
50.16357421875,36.21400451660156,5.412884712219238
48.589454650878906,41.39776611328125,5.584702014923096
46.60697937011719,77.10494232177734,7.8824262619018555
-83.80643463134766,38.11709976196289,8.054866790771484
-83.04754638671875,-14.757935523986816,7.379549980163574
-82.25738525390625,-18.053560256958008,7.3678765296936035
-87.67910766601562,-26.77821159362793,8.020712852478027
-7.378307342529297,-67.35245513916016,5.927828311920166
-4.8033294677734375,-69.57235717773438,6.101283073425293
-2.1660265922546387,-75.32048034667969,6.592414379119873
7.4164276123046875,-80.56536865234375,7.0783562660217285
35.939876556396484,-81.96083068847656,7.829749584197998
39.33346176147461,-80.71793365478516,7.855736255645752
42.57439041137695,-79.1288833618164,7.8613128662109375
29.358182907104492,-49.67320251464844,5.048127174377441
31.56067657470703,-48.81061553955078,5.0853071212768555
32.59933853149414,-46.23183822631836,4.949182987213135
34.003387451171875,-44.328556060791016,4.887831687927246
64.84953308105469,-71.78185272216797,8.463415145874023
70.94938659667969,-66.85945892333984,8.529139518737793
70.86380767822266,-61.59635543823242,8.214527130126953
70.20565032958984,-39.698822021484375,7.056183815002441
55.68300247192383,-28.59798812866211,5.476571083068848
55.254581451416016,-25.627403259277344,5.328794002532959
57.49106216430664,-23.907541275024414,5.447385311126709
57.95074462890625,-21.41092872619629,5.405014991760254
65.85575866699219,-21.366596221923828,6.057297706604004
70.02566528320312,-19.64801597595215,6.363046169281006
94.16633605957031,-3.0575919151306152,8.242831230163574
54.034461975097656,13.729008674621582,4.877610683441162
51.94786071777344,30.44314956665039,5.267777442932129
49.129600524902344,40.61565399169922,5.576913833618164
40.564727783203125,46.319889068603516,5.3867974281311035
36.70777130126953,45.479312896728516,5.113285064697266
-83.37962341308594,31.51102638244629,7.7983317375183105
-81.5238037109375,27.120059967041016,7.516713619232178
-78.26420593261719,9.456063270568848,6.897027969360352
-83.4509048461914,-13.555718421936035,7.396705150604248
-82.5824203491211,-16.8447322845459,7.373790740966797
-81.44377136230469,-20.051254272460938,7.338178634643555
-71.0669174194336,-44.83800506591797,7.351623058319092
-57.76891326904297,-76.57608032226562,8.392142295837402
-46.27228927612305,-87.68193054199219,8.673850059509277
-8.431096076965332,-67.67264556884766,5.966361045837402
-5.681698799133301,-67.6689224243164,5.94109582901001
-3.187915802001953,-73.09541320800781,6.401098728179932
34.6894645690918,-82.41248321533203,7.822866916656494
38.078941345214844,-81.1803207397461,7.844884395599365
41.48217010498047,-79.91808319091797,7.877706050872803
30.04524040222168,-52.60195541381836,5.2998785972595215
30.72071075439453,-49.093936920166016,5.066778182983398
32.95460510253906,-48.23979949951172,5.11122989654541
33.159786224365234,-44.58319854736328,4.861123561859131
62.834815979003906,-71.66108703613281,8.338332176208496
71.04167938232422,-68.96482849121094,8.662290573120117
70.96064758300781,-63.55298614501953,8.334139823913574
69.15354919433594,-68.5582275390625,9.335583686828613
69.15571594238281,-63.258785247802734,8.985288619995117
68.96939849853516,-58.176063537597656,8.650201797485352
55.733062744140625,-30.432863235473633,6.087785243988037
55.32281494140625,-27.383556365966797,5.917941093444824
55.760589599609375,-24.86371612548828,5.853112697601318
56.66318130493164,-22.58326530456543,5.847828388214111
59.465850830078125,-20.973487854003906,6.045168399810791
66.42742156982422,-20.467992782592773,6.663829803466797
70.6386489868164,-18.694061279296875,7.00524377822876
91.64301300048828,-12.74328899383545,8.870320320129395
72.40540313720703,-7.117518424987793,6.974940299987793
94.09967041015625,-5.445445537567139,9.036398887634277
93.27888488769531,-1.6440030336380005,8.944003105163574
76.16410827636719,27.286466598510742,7.756277084350586
91.69027709960938,37.06903076171875,9.481513977050781
90.67916107177734,40.97179412841797,9.539586067199707
53.08620071411133,26.603551864624023,5.692668437957764
50.17173767089844,36.21989822387695,5.932376384735107
48.60102844238281,41.40763854980469,6.121151924133301
46.615333557128906,77.11872100830078,8.639069557189941
-52.57356643676758,67.49491119384766,8.202065467834473
-50.798152923583984,60.07277297973633,7.542202949523926
-54.17906188964844,54.5153923034668,7.368442535400391
-57.67686080932617,53.54995346069336,7.545264720916748
-61.141448974609375,52.35431671142578,7.716917037963867
-83.7893295288086,38.109336853027344,8.824684143066406
-83.36075592041016,-11.38090991973877,8.065903663635254
-82.2831039428711,-14.622091293334961,8.012041091918945
-81.28518676757812,-17.840177536010742,7.97825813293457
-87.66151428222656,-26.772842407226562,8.7872953414917
-25.60503387451172,-79.92781829833984,8.046236991882324
-7.380477428436279,-67.37223815917969,6.497593879699707
-4.703906059265137,-68.13230895996094,6.547369480133057
-1.9612995386123657,-68.20138549804688,6.5411481857299805
1.1316862106323242,-98.98914337158203,9.490676879882812
5.093784332275391,-98.60176849365234,9.465524673461914
7.426180362701416,-80.67127990722656,7.766626358032227
35.38950729370117,-80.70573425292969,8.448415756225586
38.72915267944336,-79.47783660888672,8.476024627685547
40.815208435058594,-75.85924530029297,8.258439064025879
29.096752166748047,-49.230857849121094,5.482451915740967
31.2894344329834,-48.3911247253418,5.524563312530518
31.91646385192871,-45.26338577270508,5.30968713760376
34.01321792602539,-44.34135437011719,5.357609748840332
64.86863708496094,-71.80296325683594,9.276898384094238
69.20944213867188,-70.67999267578125,9.483642578125
69.21961975097656,-65.22940063476562,9.118324279785156
69.0403823852539,-60.01139450073242,8.769816398620605
68.84251403808594,-55.14458084106445,8.456233978271484
70.22440338134766,-39.70943832397461,7.734195709228516
55.69493865966797,-28.6041202545166,6.00248384475708
54.64251708984375,-25.343517303466797,5.7745842933654785
56.893760681152344,-23.659151077270508,5.907198429107666
57.976722717285156,-21.420536041259766,5.925444602966309
61.32478332519531,-19.89653205871582,6.180878162384033
69.03640747070312,-19.370454788208008,6.874092102050781
73.42166900634766,-17.452165603637695,7.2350287437438965
97.94929504394531,-7.127594470977783,9.415193557739258
93.20361328125,-3.026319742202759,8.940109252929688
97.39017486572266,0.7521671056747437,9.337042808532715
54.042781829833984,13.731125831604004,5.345685958862305
92.05390930175781,35.63646697998047,9.463399887084961
91.05706024169922,39.526554107666016,9.516595840454102
51.946250915527344,30.442214965820312,5.77223014831543
49.1080322265625,40.59782791137695,6.108471393585205
40.58202362060547,46.339622497558594,5.905341148376465
36.705352783203125,45.47631072998047,5.602742671966553
-53.258644104003906,70.50770568847656,8.471222877502441
-51.49140548706055,62.75768280029297,7.782521724700928
-52.993377685546875,54.92865753173828,7.317221164703369
-56.4326171875,53.97548294067383,7.486429691314697
-59.845516204833984,52.80335998535156,7.651386737823486
-63.40436553955078,51.56521224975586,7.8350138664245605
-55.56587219238281,35.0104866027832,6.296309947967529
-83.35543060302734,31.501876831054688,8.542891502380371
-81.50849151611328,27.114965438842773,8.235230445861816
-79.60197448730469,16.186086654663086,7.787579536437988
-78.25108337402344,9.454473495483398,7.556463241577148
-80.47600555419922,-9.773255348205566,7.77189302444458
-82.68098449707031,-13.430651664733887,8.030494689941406
-81.67704772949219,-16.660058975219727,7.991584300994873
-80.66302490234375,-19.859039306640625,7.964055061340332
-70.9627685546875,-44.77228546142578,8.044069290161133
-46.300384521484375,-87.73516082763672,9.510529518127441
-8.433591842651367,-67.69265747070312,6.539844512939453
-5.566802978515625,-66.3004379272461,6.378567218780518
-2.987398624420166,-68.49835205078125,6.573154449462891
-0.3310509920120239,-97.26383972167969,9.32470989227295
3.643700122833252,-99.02618408203125,9.500030517578125
34.15871810913086,-81.15156555175781,8.441102981567383
37.494720458984375,-79.93479919433594,8.464498519897461
40.78196334838867,-78.569091796875,8.486642837524414
30.3859920501709,-53.198543548583984,5.873447895050049
30.457658767700195,-48.67354202270508,5.504605293273926
32.2421760559082,-47.19692611694336,5.479777812957764
33.16930389404297,-44.596004486083984,5.328324317932129
62.85478210449219,-71.68384552001953,9.14000415802002
69.11213684082031,-67.0916976928711,9.234286308288574
69.10881042480469,-61.89446258544922,8.894184112548828
68.9176254272461,-56.903621673583984,8.568230628967285
67.30257415771484,-66.72320556640625,9.881251335144043
67.3765869140625,-61.631370544433594,9.520641326904297
67.25957489013672,-56.73381423950195,9.174392700195312
70.10918426513672,-54.471622467041016,9.256893157958984
56.36871337890625,-30.77997589111328,6.696346282958984
55.33452224731445,-27.389341354370117,6.43747615814209
55.102596282958984,-24.5703067779541,6.290494918823242
56.08541488647461,-22.352985382080078,6.295015811920166
59.49310302734375,-20.98310661315918,6.5774993896484375
65.52860260009766,-20.1910343170166,7.149254322052002
69.63455963134766,-18.428340911865234,7.510329246520996
91.71781158447266,-12.753684997558594,9.654878616333008
72.4286880493164,-7.119803428649902,7.58810567855835
93.09736633300781,-5.387448310852051,9.722944259643555
93.3010482788086,-1.6443960666656494,9.729456901550293
94.86885070800781,2.1405177116394043,9.893927574157715
76.17848205566406,27.291616439819336,8.43701171875
90.25341033935547,36.488121032714844,10.15012264251709
89.24957275390625,40.32586669921875,10.211307525634766
53.094505310058594,26.607707977294922,6.192086219787598
50.17991256713867,36.22580337524414,6.452869892120361
48.61262512207031,41.41750717163086,6.6587042808532715
46.62488555908203,77.134521484375,9.397432327270508
6.379523277282715,62.515560150146484,6.551977157592773
4.137939929962158,67.1847915649414,7.0182318687438965
1.4376580715179443,67.3876724243164,7.027711391448975
-51.33052062988281,65.89905548095703,8.709330558776855
-49.6872444152832,58.75904083251953,8.023215293884277
-48.351402282714844,52.72848892211914,7.4591779708862305
-53.62501525878906,53.9578971862793,7.931673526763916
-57.031925201416016,52.951141357421875,8.114169120788574
-60.442386627197266,51.75572204589844,8.296650886535645
-64.0006103515625,50.49137496948242,8.4995698928833
-83.77220153808594,38.10152816772461,9.595410346984863
-80.47906494140625,21.938352584838867,8.697253227233887
-71.89413452148438,-6.887251853942871,7.530289649963379
-81.67256164550781,-11.150430679321289,8.594505310058594
-81.53143310546875,-14.488515853881836,8.6339750289917
-80.53373718261719,-17.675254821777344,8.596622467041016
-65.48683166503906,-20.000436782836914,7.1392645835876465
-61.885833740234375,-56.32740783691406,8.724990844726562
-56.918357849121094,-56.149070739746094,8.336176872253418
-44.98389434814453,-88.3929443359375,10.341005325317383
-25.618452072143555,-79.9697265625,8.755356788635254
-10.268856048583984,-68.27068328857422,7.198247909545898
-7.382641792297363,-67.3920669555664,7.068603992462158
-4.608354091644287,-66.74854278564453,6.976037979125977
-1.9439210891723633,-67.59718322753906,7.050869941711426
1.0939536094665527,-95.68909454345703,9.977581024169922
5.014434337615967,-97.06612396240234,10.133997917175293
34.854915618896484,-79.48658752441406,9.04936408996582
38.142234802246094,-78.27336883544922,9.078487396240234
40.558448791503906,-75.38199615478516,8.92504596710205
30.042919158935547,-50.831756591796875,6.156386852264404
31.02239990234375,-47.97813415527344,5.957016944885254
31.45488929748535,-44.608795166015625,5.691092014312744
34.023067474365234,-44.35417938232422,5.8284077644348145
64.88775634765625,-71.82412719726562,10.092158317565918
67.32839965820312,-68.75899505615234,10.033709526062012
67.41315460205078,-63.52709197998047,9.657926559448242
67.30573272705078,-58.50359344482422,9.29806900024414
68.57757568359375,-54.93233871459961,9.161269187927246
70.24323272705078,-39.7200927734375,8.41365909576416
55.70689392089844,-28.610260009765625,6.529463291168213
54.11701202392578,-25.09978675842285,6.219810485839844
56.30781555175781,-23.415491104125977,6.358270168304443
58.002784729003906,-21.430164337158203,6.447171211242676
62.12607192993164,-20.156518936157227,6.80991268157959
68.07322692871094,-19.100208282470703,7.371683597564697
72.43669891357422,-17.218067169189453,7.762975692749023
93.02228546142578,-6.769076824188232,9.72452449798584
93.22576904296875,-3.0270376205444336,9.725214958190918
93.43003845214844,0.7215894460678101,9.741683006286621
99.15837860107422,4.753809928894043,10.350522994995117
54.05112075805664,13.733243942260742,5.814651012420654
90.61405944824219,35.07906723022461,10.13103199005127
89.62491607666016,38.904884338378906,10.187089920043945
85.9906234741211,41.5088005065918,9.95563793182373
86.14259338378906,45.936866760253906,10.178827285766602
51.94465255737305,30.4412784576416,6.277453899383545
49.08644485473633,40.57998275756836,6.640410423278809
40.599365234375,46.35942840576172,6.42515754699707
36.70293045043945,45.47331237792969,6.092918872833252
4.967039108276367,64.93154907226562,6.789806365966797
2.447314739227295,67.63898468017578,7.056929588317871
-0.26886188983917236,66.95884704589844,6.981457233428955
-51.95909881591797,68.78730010986328,8.988162994384766
-50.33483123779297,61.348060607910156,8.273848533630371
-48.82456970214844,54.856483459472656,7.656895160675049
-52.45514678955078,54.370811462402344,7.8770952224731445
-55.806427001953125,53.3765869140625,8.051600456237793
-59.167015075683594,52.204689025878906,8.226999282836914
-62.66845703125,50.96672058105469,8.422148704528809
-55.55284881591797,35.00226593017578,6.846008777618408
-83.33120727539062,31.492738723754883,9.288212776184082
-81.4931640625,27.10985565185547,8.954623222351074
-79.57718658447266,16.181032180786133,8.466824531555176
-78.23796081542969,9.45289134979248,8.216730117797852
-77.95555114746094,-9.467183113098145,8.187678337097168
-81.92394256591797,-13.307682991027832,8.653678894042969
-80.92073059082031,-16.505788803100586,8.610848426818848
-79.89590454101562,-19.670169830322266,8.579014778137207
-70.85875701904297,-44.7066650390625,8.735583305358887
-63.82572937011719,-56.38465881347656,8.87956714630127
-58.70603561401367,-56.21870040893555,8.474900245666504
-46.32854080200195,-87.78854370117188,10.349569320678711
-8.436092376708984,-67.71271514892578,7.1145806312561035
-5.613251209259033,-66.85363006591797,6.994956970214844
-2.960822820663452,-67.88858032226562,7.085068225860596
-0.258070170879364,-75.81822967529297,7.905158519744873
3.586728096008301,-97.47837829589844,10.170365333557129
33.643150329589844,-79.92671966552734,9.041646957397461
36.92726516723633,-78.72502136230469,9.066324234008789
39.321659088134766,-75.75576782226562,8.89924144744873
30.788358688354492,-53.90298843383789,6.472314357757568
30.198644638061523,-48.25962829589844,5.935683727264404
31.558834075927734,-46.196624755859375,5.833280563354492
33.17885208129883,-44.60883712768555,5.796540260314941
35.4875373840332,-43.912532806396484,5.886696815490723
62.87480163574219,-71.70668029785156,9.94347095489502
67.44593048095703,-65.4742202758789,9.8007230758667
67.34844970703125,-60.31785202026367,9.426562309265137
67.22489166259766,-55.505977630615234,9.089588165283203
71.2138671875,-54.139347076416016,9.327106475830078
67.91519165039062,-67.33056640625,10.775372505187988
65.683837890625,-60.082923889160156,10.029996871948242
66.05326080322266,-55.71629333496094,9.736494064331055
70.13247680664062,-54.489742279052734,10.006790161132812
74.45240020751953,-53.19137954711914,10.30971908569336
56.38114547729492,-30.786767959594727,7.238006114959717
55.34626007080078,-27.395166397094727,6.958139419555664
54.42998504638672,-24.2703857421875,6.714848041534424
55.52080154418945,-22.127962112426758,6.734230041503906
59.52045440673828,-20.99274444580078,7.111245632171631
64.65226745605469,-19.921022415161133,7.622524261474609
68.65696716308594,-18.169618606567383,8.002097129821777
91.79291534423828,-12.764139175415039,10.442095756530762
72.4520263671875,-7.122094631195068,8.20273208618164
93.68421936035156,-5.4213995933532715,10.573334693908691
93.88920593261719,-1.6547666788101196,10.58041763305664
94.09529876708984,2.123065948486328,10.604693412780762
76.19340515136719,27.296964645385742,9.119244575500488
88.8584976196289,35.9241828918457,10.799205780029297
86.8393783569336,39.23686218261719,10.736855506896973
53.102821350097656,26.61188316345215,6.692531585693359
84.0106201171875,46.41360092163086,10.814258575439453
50.188106536865234,36.231712341308594,6.974430561065674
48.62425231933594,41.427425384521484,7.197456359863281
46.6357536315918,77.15252685546875,10.157707214355469
7.994026184082031,55.96630096435547,6.36989164352417
6.182298183441162,60.58283233642578,6.861496925354004
4.046720027923584,65.70382690429688,7.417075157165527
1.4238866567611694,66.74250030517578,7.521790981292725
-1.2832863330841064,68.06982421875,7.670992851257324
-50.142906188964844,64.37437438964844,9.193985939025879
-48.6220817565918,57.49938201904297,8.484420776367188
-47.38630294799805,51.67604446411133,7.89987325668335
-53.08121871948242,53.4107551574707,8.484450340270996
-56.40013885498047,52.36458206176758,8.671446800231934
-59.7579345703125,51.169654846191406,8.864251136779785
-47.54784393310547,37.51144790649414,6.82383918762207
-50.093299865722656,36.3526496887207,6.9737653732299805
-52.979278564453125,35.287513732910156,7.172243595123291
-83.75505828857422,38.09373092651367,10.367162704467773
-80.45213317871094,21.930994033813477,9.395543098449707
-69.42552185058594,-6.6507697105407715,7.85819149017334
-78.79910278320312,-10.758148193359375,8.96088981628418
-80.79206848144531,-14.35712718963623,9.245699882507324
-79.79478454589844,-17.513071060180664,9.204706192016602
-54.700927734375,-16.706298828125,6.444356441497803
-64.28631591796875,-53.95350646972656,9.456281661987305
-59.2523307800293,-53.93044662475586,9.027436256408691
-54.599788665771484,-53.86185073852539,8.641532897949219
-53.46787643432617,-57.161800384521484,8.818977355957031
-44.94615936279297,-88.31881713867188,11.16563892364502
-25.631908416748047,-80.01174926757812,9.46645450592041
-10.271941184997559,-68.29119110107422,7.781125545501709
-7.384824275970459,-67.41195678710938,7.64094352722168
-4.595560073852539,-66.56292724609375,7.517695426940918
-1.9268217086791992,-67.00257873535156,7.552499294281006
1.055380940437317,-92.31101989746094,10.401633262634277
4.994065284729004,-96.6714096069336,10.906782150268555
34.33534240722656,-78.30169677734375,9.633419036865234
37.37012481689453,-76.68889617919922,9.612074851989746
40.569671630859375,-75.40286254882812,9.647522926330566
30.062646865844727,-50.86513900756836,6.657269477844238
30.75943374633789,-47.57143783569336,6.382884979248047
31.76641845703125,-45.050601959228516,6.210989952087402
34.032920837402344,-44.36704635620117,6.300294399261475
36.02339553833008,-43.247066497802734,6.341790199279785
64.90693664550781,-71.84535217285156,10.90931510925293
68.81576538085938,-70.27796936035156,11.0824613571167
65.69568634033203,-61.90861511230469,10.170943260192871
65.6533203125,-57.06727600097656,9.801273345947266
68.60012817382812,-54.95043182373047,9.903387069702148
72.82717895507812,-53.679786682128906,10.193830490112305
56.156944274902344,-31.75476837158203,7.268905162811279
55.7188720703125,-28.616409301757812,7.057581901550293
54.733177185058594,-25.38556671142578,6.797969341278076
55.73282241821289,-23.17638397216797,6.800903797149658
58.02891540527344,-21.439817428588867,6.97028112411499
62.21477508544922,-20.18529510498047,7.36964225769043
67.13495635986328,-18.836933135986328,7.856409549713135
72.33366394042969,-17.193580627441406,8.377127647399902
93.60867309570312,-6.811742782592773,10.575052261352539
93.81343078613281,-3.0461230278015137,10.575803756713867
94.01903533935547,0.7261413335800171,10.59371566772461
54.059478759765625,13.735366821289062,6.284575939178467
89.2161636352539,34.53790283203125,10.779211044311523
88.2347640991211,38.30143737792969,10.837926864624023
85.56044006347656,41.3011474609375,10.704744338989258
84.4316635131836,45.02448654174805,10.781282424926758
51.94305419921875,30.440343856811523,6.7835235595703125
49.064842224121094,40.562129974365234,7.172804355621338
40.61675262451172,46.379268646240234,6.946320056915283
36.700496673583984,45.47030258178711,6.583878993988037
8.599040031433105,54.42168045043945,6.2079267501831055
6.883011817932129,58.798545837402344,6.670244216918945
4.875662803649902,63.73685073852539,7.2024030685424805
2.4238054752349854,66.98875427246094,7.552763938903809
-0.2667604684829712,66.43870544433594,7.48590612411499
-50.719364166259766,67.14604187011719,9.481310844421387
-49.120296478271484,59.8677978515625,8.725398063659668
-47.82471466064453,53.73312759399414,8.104979515075684
-49.26140594482422,51.06040954589844,7.994106292724609
-55.192962646484375,52.78981018066406,8.605316162109375
-58.50257110595703,51.61845397949219,8.790668487548828
-61.94820022583008,50.38095474243164,8.996793746948242
-49.06403350830078,36.729095458984375,6.905575275421143
-51.89630126953125,35.6888313293457,7.096536159515381
-54.880279541015625,34.57851028442383,7.3085761070251465
-83.30696105957031,31.483572006225586,10.03438949584961
-81.47782135009766,27.104753494262695,9.674994468688965
-79.5523681640625,16.17599105834961,9.146821975708008
-78.22481536865234,9.451297760009766,8.877920150756836
-70.13961791992188,-5.670429229736328,7.928622245788574
-75.0538330078125,-9.114790916442871,8.518670082092285
-81.17935943603516,-13.186731338500977,9.266608238220215
-80.1770248413086,-16.354093551635742,9.219789505004883
-79.14193725585938,-19.484546661376953,9.183427810668945
-70.75486755371094,-44.6411247253418,9.426274299621582
-61.063663482666016,-53.94459915161133,9.180450439453125
-56.2764778137207,-53.89209747314453,8.77938461303711
-53.855228424072266,-55.89038848876953,8.745132446289062
-52.3476448059082,-58.88731384277344,8.877592086791992
-46.35682678222656,-87.84209442138672,11.191088676452637
-11.313250541687012,-68.3084945678711,7.801364421844482
-8.438578605651855,-67.73281860351562,7.690657138824463
-5.614902973175049,-66.87315368652344,7.561310768127441
-2.9346766471862793,-67.28853607177734,7.588807106018066
-0.2524827718734741,-74.18012237548828,8.358139991760254
3.5166563987731934,-95.57373046875,10.775862693786621
33.14706802368164,-78.74809265136719,9.626777648925781
36.37578582763672,-77.54932403564453,9.651206970214844
39.33251190185547,-75.77665710449219,9.619625091552734
31.202238082885742,-54.62760543823242,7.088332653045654
29.943580627441406,-47.85200500488281,6.360217571258545
30.94542121887207,-45.29869079589844,6.181208610534668
33.18842697143555,-44.62169647216797,6.265839576721191
35.49794006347656,-43.925392150878906,6.363323211669922
62.89485549926758,-71.72956848144531,10.748845100402832
65.70287322998047,-63.7820930480957,10.317437171936035
65.67271423339844,-58.817081451416016,9.933356285095215
67.09882354736328,-55.401859283447266,9.804242134094238
71.23773956298828,-54.157501220703125,10.082720756530762
67.9373550415039,-67.35249328613281,11.584836959838867
64.07111358642578,-58.607757568359375,10.515275955200195
66.0746841430664,-55.73435974121094,10.467897415161133
70.70413970947266,-54.93387985229492,10.84267520904541
56.39360427856445,-30.793560028076172,7.780919075012207
55.35801696777344,-27.400983810424805,7.479997634887695
53.79706573486328,-23.988168716430664,7.133006572723389
54.93563461303711,-21.894744873046875,7.161474704742432
59.547874450683594,-21.002418518066406,7.646480560302734
63.62460708618164,-19.604379653930664,8.06225299835205
68.91463470458984,-18.23781967163086,8.632697105407715
91.86824035644531,-12.774613380432129,11.232072830200195
72.47541046142578,-7.12439489364624,8.818907737731934
93.70655822753906,-5.422693252563477,11.366628646850586
93.91162109375,-1.6551504135131836,11.374238967895508
94.11780548095703,2.1235809326171875,11.40034008026123
76.2088851928711,27.30251121520996,9.803094863891602
86.79776763916016,39.21806716918945,11.534138679504395
53.11116027832031,26.616058349609375,7.194066047668457
84.02391815185547,46.42094421386719,11.62469482421875
76.86422729492188,46.590457916259766,10.884506225585938
50.19631576538086,36.237648010253906,7.49714469909668
61.54490661621094,52.43571472167969,9.79116153717041
46.6480712890625,77.17289733886719,10.920095443725586
7.843498706817627,54.91258239746094,6.717279434204102
6.057662487030029,59.36149215698242,7.225869178771973
3.7401204109191895,60.72544479370117,7.367642879486084
1.4103671312332153,66.10840606689453,8.007397651672363
-1.298534631729126,68.87830352783203,8.342482566833496
-49.336734771728516,68.8780288696289,10.259973526000977
-49.00692367553711,62.91599655151367,9.657567977905273
-22.450603485107422,26.549592971801758,4.210492134094238
-37.062931060791016,40.41813278198242,6.640839099884033
-39.36995315551758,39.614376068115234,6.763378620147705
-41.79644012451172,38.8057861328125,6.9066362380981445
-44.2668571472168,37.90488815307617,7.057340621948242
-46.81902313232422,36.93645095825195,7.221648693084717
-49.52027130126953,35.936798095703125,7.4094624519348145
-52.356163024902344,34.87249755859375,7.617860794067383
-55.392208099365234,33.76359558105469,7.855753421783447
-83.73788452148438,38.085941314697266,11.140044212341309
-80.42515563964844,21.923646926879883,10.094671249389648
-69.81974792480469,-6.688535213470459,8.4937162399292
-75.82459259033203,-10.352046966552734,9.267362594604492
-80.06468200683594,-14.22786808013916,9.847545623779297
-79.06793975830078,-17.353548049926758,9.802840232849121
-54.68989181518555,-16.702926635742188,6.924810409545898
-84.91280364990234,-50.611568450927734,11.970743179321289
-61.5380973815918,-51.647010803222656,9.728859901428223
-56.829490661621094,-51.7252197265625,9.305694580078125
-54.492942810058594,-53.7564582824707,9.269497871398926
-53.45836639404297,-57.151634216308594,9.476696968078613
-52.37443542480469,-60.70778274536133,9.709369659423828
-51.23383712768555,-64.44883728027344,9.970208168029785
-44.908416748046875,-88.2446517944336,11.990427017211914
-25.645395278930664,-80.05391693115234,10.179632186889648
-10.275035858154297,-68.31175231933594,8.365449905395508
-7.369949817657471,-67.27633666992188,8.195744514465332
-4.596897125244141,-66.58229064941406,8.082152366638184
-1.957099199295044,-68.05587768554688,8.244813919067383
1.0258398056030273,-89.72845458984375,10.866613388061523
4.774272441864014,-92.41645812988281,11.206337928771973
38.927879333496094,-79.88562774658203,10.761411666870117
40.85462188720703,-75.93244171142578,10.441705703735352
28.556415557861328,-48.316612243652344,6.79655122756958
30.50040626525879,-47.170833587646484,6.802371025085449
31.7755184173584,-45.063507080078125,6.677306652069092
34.042808532714844,-44.37993240356445,6.773344039916992
36.38034439086914,-43.67556381225586,6.883508205413818
64.9261474609375,-71.86663055419922,11.728492736816406
68.83887481689453,-70.30158233642578,11.915114402770996
66.50701141357422,-62.673152923583984,11.066434860229492
64.62218475341797,-56.170997619628906,10.368681907653809
69.1590576171875,-55.398128509521484,10.730594635009766
73.42122650146484,-54.117679595947266,11.045406341552734
56.79766845703125,-32.117069244384766,7.901545524597168
55.73088455200195,-28.622570037841797,7.586921691894531
54.744537353515625,-25.390827178955078,7.307777404785156
55.168418884277344,-22.941682815551758,7.23539400100708
58.05510711669922,-21.44949722290039,7.494837284088135
62.244483947753906,-20.194927215576172,7.92446231842041
67.02035522460938,-18.804786682128906,8.42943000793457
72.37287902832031,-17.202903747558594,9.008378028869629
93.63101196289062,-6.8133697509765625,11.368474006652832
93.8358154296875,-3.0468482971191406,11.369283676147461
94.04151153564453,0.7263078689575195,11.388545989990234
85.57384490966797,41.30760955810547,11.506950378417969
84.44498443603516,45.03158950805664,11.589241027832031
51.941444396972656,30.43939971923828,7.290513038635254
49.04322052001953,40.544246673583984,7.705726623535156
40.63418960571289,46.39918899536133,7.468908786773682
36.69805908203125,45.46729278564453,7.0756940841674805
8.585881233215332,54.33840560913086,6.661890506744385
6.748031139373779,57.64560317993164,7.028414726257324
4.662172317504883,60.945762634277344,7.40195369720459
2.1836140155792236,60.34978485107422,7.3129987716674805
-0.264123797416687,65.78284454345703,7.966213226318359
-48.090213775634766,69.28638458251953,10.213397026062012
-49.535240173339844,65.57837677001953,9.952330589294434
-22.089778900146484,26.923017501831055,4.2172722816467285
-36.271427154541016,40.75247573852539,6.606631278991699
-38.50934600830078,39.91569900512695,6.716536521911621
-40.86582946777344,39.086483001708984,6.847928524017334
-43.3416862487793,38.241554260253906,6.9995269775390625
-45.85243606567383,37.29064178466797,7.1571044921875
-48.50821304321289,36.31298828125,7.337838649749756
-51.29230499267578,35.27347183227539,7.538384914398193
-54.22270965576172,34.16419982910156,7.760923862457275
-83.2826919555664,31.474395751953125,10.781529426574707
-81.46245574951172,27.099634170532227,10.396442413330078
-79.52751922607422,16.170934677124023,9.82767105102539
-78.21165466308594,9.449708938598633,9.540125846862793
-70.1285629272461,-5.669534206390381,8.520112037658691
-72.35549926757812,-8.787095069885254,8.826458930969238
-80.44683074951172,-13.067737579345703,9.869612693786621
-79.44551086425781,-16.204877853393555,9.818755149841309
-78.40068054199219,-19.30204963684082,9.777639389038086
-85.54039001464844,-49.28073501586914,11.954830169677734
-70.65108489990234,-44.57564163208008,10.116228103637695
-63.37175750732422,-51.60312271118164,9.896617889404297
-58.526153564453125,-51.70294952392578,9.456868171691895
-54.863773345947266,-52.53923797607422,9.198959350585938
-53.845726013183594,-55.88054275512695,9.397358894348145
-52.780826568603516,-59.37460708618164,9.620332717895508
-51.66209030151367,-63.044349670410156,9.870430946350098
-11.368995666503906,-68.64515686035156,8.426005363464355
-8.441105842590332,-67.75296783447266,8.268156051635742
-5.616542339324951,-66.89271545410156,8.12905502319336
-2.9088966846466064,-66.69790649414062,8.084638595581055
-0.25273996591567993,-74.26072692871094,8.99284839630127
3.3636436462402344,-91.41535949707031,11.077674865722656
33.92241287231445,-80.59017181396484,10.588607788085938
41.838077545166016,-89.19437408447266,11.930459022521973
39.608734130859375,-76.3088150024414,10.411502838134766
27.7587890625,-48.59894561767578,6.777586936950684
29.692302703857422,-47.4504508972168,6.778417587280273
30.954011917114258,-45.31127166748047,6.645229339599609
33.198001861572266,-44.63459396362305,6.73629093170166
35.50835037231445,-43.93828201293945,6.841123580932617
62.914981842041016,-71.75248718261719,11.556239128112793
67.32829284667969,-65.35999298095703,11.363211631774902
64.0754165649414,-57.38651657104492,10.416421890258789
67.12071228027344,-55.419960021972656,10.540760040283203
71.818603515625,-54.599063873291016,10.924975395202637
67.95960235595703,-67.37457275390625,12.396469116210938
65.74757385253906,-60.1412353515625,11.542601585388184
66.61270904541016,-56.18817138671875,11.288784980773926
70.72775268554688,-54.952239990234375,11.602388381958008
56.45365524291992,-30.826366424560547,8.33218765258789
55.36980438232422,-27.406808853149414,8.00312614440918
54.409488677978516,-24.261245727539062,7.717107772827148
55.66073989868164,-22.183732986450195,7.7618088722229
59.57536697387695,-21.01211929321289,8.183289527893066
64.01300811767578,-19.724048614501953,8.676916122436523
68.95055389404297,-18.24730682373047,9.239287376403809
91.94383239746094,-12.785116195678711,12.024943351745605
72.49886322021484,-7.126702308654785,9.436721801757812
93.72896575927734,-5.423995494842529,12.161895751953125
93.93408203125,-1.6555461883544922,12.170042991638184
94.14037322998047,2.124086856842041,12.197980880737305
76.22494506835938,27.30826187133789,10.488673210144043
86.81134033203125,39.22419357299805,12.340105056762695
53.1195182800293,26.6202449798584,7.696772575378418
84.54297637939453,46.70771789550781,12.511865615844727
72.96141052246094,44.22480773925781,11.052068710327148
50.204551696777344,36.24357604980469,8.021080017089844
61.57462692260742,52.461029052734375,10.478755950927734
46.66197967529297,77.19590759277344,11.684812545776367
9.982977867126465,54.22673797607422,7.1425371170043945
7.6988525390625,53.89992141723633,7.053025245666504
5.714029788970947,55.9941291809082,7.291110038757324
3.41549015045166,55.454566955566406,7.197158336639404
1.2748725414276123,59.75659942626953,7.742589473724365
-1.3105671405792236,69.51669311523438,9.006745338439941
-48.85686492919922,68.20809936523438,10.868446350097656
-47.80998992919922,61.37931823730469,10.078473091125488
-22.444713592529297,26.542617797851562,4.502819538116455
-36.68604278564453,40.00713348388672,7.03153133392334
-38.962318420410156,39.20418167114258,7.159933567047119
-41.34393310546875,38.385650634765625,7.30810546875
-43.766963958740234,37.47684097290039,7.464050769805908
-46.30173873901367,36.528377532958984,7.639712810516357
-48.959083557128906,35.529541015625,7.836152076721191
-51.746368408203125,34.46630859375,8.053986549377441
-54.681671142578125,33.33051300048828,8.295580863952637
-83.72068786621094,38.07810974121094,11.914161682128906
-80.39813232421875,21.916288375854492,10.79473876953125
-62.38673782348633,1.562484622001648,8.084066390991211
-70.18922424316406,-3.887089729309082,9.106196403503418
-69.80875396728516,-6.68748664855957,9.084375381469727
-73.06116485595703,-9.974773406982422,9.55208969116211
-79.34883880615234,-14.100658416748047,10.43982982635498
-78.352783203125,-17.19658660888672,10.391341209411621
-54.67884826660156,-16.699556350708008,7.406038284301758
-84.7140121459961,-50.49306869506836,12.77523422241211
-47.59544372558594,-36.790531158447266,7.792700290679932
-59.01036071777344,-49.52554702758789,9.979571342468262
-55.47513961791992,-50.49251174926758,9.717158317565918
-54.48344421386719,-53.7470817565918,9.9139404296875
-53.44883346557617,-57.14146423339844,10.135505676269531
-52.378318786621094,-60.71226501464844,10.386974334716797
-51.23738098144531,-64.45328521728516,10.665963172912598
-44.870670318603516,-88.17044067382812,12.815488815307617
-25.658966064453125,-80.09618377685547,10.895001411437988
-10.2778959274292,-68.33078002929688,8.951089859008789
-7.239394187927246,-66.08428955078125,8.611727714538574
-4.598215103149414,-66.60169219970703,8.648072242736816
-1.9542174339294434,-67.95526123046875,8.80651569366455
0.999868631362915,-87.45771026611328,11.329951286315918
38.257938385009766,-87.24720001220703,12.340778350830078
38.9665641784668,-79.96500396728516,11.523021697998047
40.865962982177734,-75.95355987548828,11.17269515991211
28.316303253173828,-47.91035461425781,7.209199905395508
30.080677032470703,-46.52169418334961,7.1764235496521
31.784650802612305,-45.076438903808594,7.144826889038086
34.05271530151367,-44.392860412597656,7.247618675231934
36.391090393066406,-43.68849563598633,7.365531921386719
64.9454574584961,-71.88798522949219,12.549805641174316
68.862060546875,-70.32527160644531,12.75
66.52782440185547,-62.69279861450195,11.841578483581543
65.148193359375,-56.628173828125,11.181750297546387
69.18191528320312,-55.41645050048828,11.482413291931152
73.44622039794922,-54.13610076904297,11.819397926330566
56.85834503173828,-32.15139389038086,8.46139144897461
55.742923736572266,-28.628765106201172,8.117558479309082
54.75592803955078,-25.3961124420166,7.818824291229248
54.614227294921875,-22.711214065551758,7.662018775939941
58.081382751464844,-21.459205627441406,8.020927429199219
62.33778381347656,-20.225194931030273,8.489575386047363
67.054443359375,-18.814346313476562,9.021628379821777
72.41222381591797,-17.212247848510742,9.641584396362305
93.65338134765625,-6.814994812011719,12.163869857788086
93.8582534790039,-3.047583818435669,12.164738655090332
94.06403350830078,0.7264806032180786,12.185351371765137
86.10233306884766,41.5627326965332,12.385119438171387
84.96661376953125,45.30976104736328,12.473699569702148
51.939842224121094,30.43845558166504,7.798486709594727
72.43363189697266,46.455081939697266,11.146933555603027
49.0215950012207,40.52635955810547,8.239249229431152
40.651668548583984,46.419151306152344,7.993001461029053
36.69562530517578,45.46426773071289,7.568432807922363
42.667545318603516,74.80693054199219,11.15588092803955
8.583308219909668,54.32210159301758,7.124149322509766
6.578120231628418,56.19397735595703,7.329033374786377
4.257330417633057,55.653541564941406,7.230384826660156
2.1650266647338867,59.83644485473633,7.756245136260986
-0.26155537366867065,65.1385269165039,8.438068389892578
-4.334842205047607,98.01913452148438,12.709739685058594
-47.62456130981445,68.61552429199219,10.819589614868164
-48.40293884277344,64.07937622070312,10.402749061584473
-22.082307815551758,26.91390037536621,4.5097270011901855
-35.893829345703125,40.32822036743164,6.9936017990112305
-38.11333084106445,39.50522994995117,7.110853672027588
-40.43745422363281,38.6767578125,7.248501300811768
-42.856224060058594,37.81321334838867,7.403595447540283
-45.3750114440918,36.90237045288086,7.576308727264404
-47.9637336730957,35.905418395996094,7.761248588562012
-50.70104217529297,34.86687088012695,7.970921039581299
-53.579444885253906,33.758880615234375,8.203444480895996
-83.25837707519531,31.4652042388916,11.529736518859863
-81.44705963134766,27.094524383544922,11.119072914123535
-79.50262451171875,16.165878295898438,10.509461402893066
-78.1984634399414,9.448118209838867,10.203442573547363
-70.11748504638672,-5.668642997741699,9.112604141235352
-69.83958435058594,-8.481554985046387,9.113441467285156
-79.37799072265625,-12.894109725952148,10.417346954345703
-78.72577667236328,-16.058073043823242,10.40806770324707
-77.67174530029297,-19.122591018676758,10.361988067626953
-85.07858276367188,-49.01466369628906,12.719149589538574
-65.6253433227539,-49.189476013183594,10.624028205871582
-60.72567367553711,-49.448429107666016,10.144466400146484
-56.186641693115234,-49.63618469238281,9.711723327636719
-54.854286193847656,-52.530155181884766,9.83851432800293
-53.83621597290039,-55.87065505981445,10.050667762756348
-52.784828186035156,-59.379093170166016,10.291743278503418
-51.6657600402832,-63.04881286621094,10.559242248535156
-11.372177124023438,-68.6644287109375,9.015908241271973
-8.046985626220703,-64.58966064453125,8.431583404541016
-5.618169784545898,-66.9123306274414,8.698271751403809
-2.865844964981079,-65.71054077148438,8.520188331604004
-0.252623975276947,-74.22187805175781,9.614704132080078
3.2231082916259766,-87.59636688232422,11.354849815368652
33.94291687011719,-80.63885498046875,11.333574295043945
40.59352493286133,-86.54113006591797,12.382492065429688
39.619712829589844,-76.32997131347656,11.14037036895752
27.526025772094727,-48.19144058227539,7.189249515533447
29.444725036621094,-47.054805755615234,7.190474987030029
30.962846755981445,-45.32421875,7.1104960441589355
33.20762252807617,-44.64752197265625,7.207959175109863
35.5187873840332,-43.951210021972656,7.320164680480957
62.935150146484375,-71.77549743652344,12.365782737731934
67.34989166259766,-65.38095092773438,12.159231185913086
65.21820831298828,-58.410030364990234,11.341270446777344
67.66738891601562,-55.871334075927734,11.367385864257812
71.84276580810547,-54.61745071411133,11.690483093261719
67.98189544677734,-67.39668273925781,13.210382461547852
65.76766967773438,-60.15962600708008,12.300182342529297
66.63439178466797,-56.20648956298828,12.029943466186523
70.7514419555664,-54.97064971923828,12.364246368408203
56.4661979675293,-30.833215713500977,8.878314971923828
55.4283332824707,-27.435802459716797,8.534802436828613
54.420684814453125,-24.2662296295166,8.22278118133545
55.685184478759766,-22.19347381591797,8.272345542907715
59.66374206542969,-21.04328155517578,8.730650901794434
64.04438018798828,-19.733728408813477,9.248112678527832
68.9865493774414,-18.256839752197266,9.847822189331055
94.3290023803711,-20.948331832885742,13.334457397460938
93.26561737060547,-16.812503814697266,13.078024864196777
92.01973724365234,-12.795675277709961,12.82083511352539
72.52237701416016,-7.129012584686279,10.056270599365234
93.75143432617188,-5.425285816192627,12.95926284790039
93.95661163330078,-1.655948281288147,12.96794319152832
94.16299438476562,2.1245980262756348,12.997719764709473
76.24162292480469,27.314233779907227,11.176103591918945
86.82494354248047,39.230350494384766,13.148064613342285
53.12789535522461,26.62444305419922,8.200718879699707
76.70243072509766,42.37602996826172,12.092853546142578
69.42858123779297,42.08341598510742,11.203752517700195
69.98272705078125,46.362648010253906,11.584603309631348
50.21279525756836,36.249542236328125,8.5463228225708
61.60710906982422,52.48868942260742,11.168984413146973
46.677669525146484,77.22187042236328,12.45210075378418
19.50579071044922,72.61597442626953,10.376176834106445
16.263385772705078,71.97077941894531,10.182328224182129
10.080578804016113,54.75685501098633,7.683382987976074
7.7198405265808105,54.04678726196289,7.534111499786377
5.664741039276123,55.51120376586914,7.700283527374268
3.3864145278930664,54.98240661621094,7.601905345916748
1.3022122383117676,61.03809356689453,8.425122261047363
-1.2982324361801147,68.8626480102539,9.50467586517334
-4.030850410461426,68.20298767089844,9.42838191986084
-6.759918689727783,67.91092681884766,9.417963981628418
