-21.755725860595703,-38.95253372192383,2.7846810817718506
-19.956371307373047,-39.36686325073242,2.754718542098999
-18.110767364501953,-39.59437942504883,2.7174932956695557
-21.457630157470703,-52.37785339355469,3.532806396484375
-19.87679672241211,-54.68461608886719,3.6315622329711914
-19.188339233398438,-60.22310256958008,3.944949150085449
-16.987499237060547,-61.79591751098633,4.000006675720215
-14.69979476928711,-63.32638931274414,4.057544708251953
44.656063079833984,43.540218353271484,3.8927135467529297
22.58601188659668,69.1103286743164,4.537961483001709
16.193540573120117,57.2429084777832,3.7129688262939453
13.636964797973633,56.830284118652344,3.6476988792419434
11.164883613586426,56.43187713623047,3.5904126167297363
8.765532493591309,56.0457649230957,3.5405659675598145
6.809246063232422,58.9697265625,3.7049920558929443
4.794777870178223,63.99934768676758,4.005650997161865
2.3619816303253174,68.24279022216797,4.261857032775879
-0.39091575145721436,70.00347137451172,4.369264125823975
-2.2387661933898926,48.88353729248047,3.0542163848876953
-6.713368892669678,77.91732788085938,4.8811516761779785
-9.71678352355957,76.62911987304688,4.821020603179932
-12.126909255981445,72.24345397949219,4.572089195251465
-14.424918174743652,68.86102294921875,4.391178607940674
-16.4163875579834,65.19532775878906,4.196119785308838
-18.230514526367188,61.7999153137207,4.021509647369385
-19.892004013061523,58.64059066772461,3.864840507507324
-19.667043685913086,51.127262115478516,3.419008731842041
-22.605281829833984,52.38210678100586,3.560818672180176
-22.84833526611328,47.59293746948242,3.295045852661133
-24.919214248657227,46.97123336791992,3.318668842315674
-25.767955780029297,44.1865348815918,3.1925485134124756
-26.459959030151367,41.451690673828125,3.0693318843841553
-27.108739852905273,38.926551818847656,2.960660696029663
-27.76735496520996,36.64067077636719,2.8693928718566895
-28.3784122467041,34.47704315185547,2.7870516777038574
-22.425437927246094,25.116424560546875,2.101541519165039
-21.870441436767578,22.598005294799805,1.9628043174743652
-21.55526351928711,20.55202293395996,1.8588626384735107
-21.19137954711914,18.638641357421875,1.7614394426345825
-21.50933265686035,17.437002182006836,1.7282042503356934
-23.114315032958984,17.246732711791992,1.7999927997589111
-24.78696632385254,16.98863983154297,1.875547170639038
-28.964336395263672,18.18616485595703,2.134586811065674
-28.683969497680664,16.441896438598633,2.0635409355163574
-30.758604049682617,16.025190353393555,2.164696216583252
-33.249271392822266,15.658119201660156,2.293822765350342
-33.5389404296875,14.17773151397705,2.2726480960845947
-33.92131042480469,12.758769035339355,2.261972188949585
-34.34941864013672,11.366968154907227,2.2582242488861084
-34.763587951660156,9.973698616027832,2.257266044616699
-35.77737808227539,8.725549697875977,2.2984588146209717
-35.476078033447266,7.1556501388549805,2.2587950229644775
-35.793548583984375,5.734151840209961,2.2625057697296143
-36.415409088134766,4.341804504394531,2.288921356201172
-15.156601905822754,1.1920552253723145,0.9489054083824158
-21.07823371887207,0.8078098297119141,1.3165429830551147
-26.900440216064453,-0.050467073917388916,1.6789660453796387
-32.42764663696289,-1.3646366596221924,2.025731086730957
-43.50676345825195,-3.5860629081726074,2.7246246337890625
-43.69151306152344,-5.37564754486084,2.7475244998931885
-44.06565856933594,-7.2290239334106445,2.7870776653289795
-39.310150146484375,-8.08261489868164,2.5048305988311768
-45.175010681152344,-11.197154998779297,2.90487003326416
-45.5374870300293,-13.249812126159668,2.960040807723999
-45.89607238769531,-15.37922191619873,3.021096706390381
-45.86544418334961,-17.447959899902344,3.0627856254577637
-46.214778900146484,-19.740772247314453,3.136577606201172
-45.30031967163086,-21.541316986083984,3.1307566165924072
-47.26630401611328,-24.851552963256836,3.332990884780884
-47.612709045410156,-27.52981948852539,3.4326910972595215
-47.92570114135742,-30.34287452697754,3.5403454303741455
-48.317081451416016,-33.3829231262207,3.66544246673584
-29.760923385620117,-22.38039207458496,2.3241124153137207
-27.812795639038086,-22.720439910888672,2.241497039794922
-25.991100311279297,-23.033716201782227,2.167562961578369
-24.279067993164062,-23.323575973510742,2.1012885570526123
-22.662460327148438,-23.592870712280273,2.0418152809143066
-21.129104614257812,-23.844005584716797,1.9884283542633057
-19.737930297851562,-24.16392707824707,1.9473594427108765
-22.774478912353516,-30.287696838378906,2.365173101425171
-22.476314544677734,-32.53428649902344,2.468050003051758
-22.271907806396484,-35.18111801147461,2.5988142490386963
-21.877872467041016,-37.841453552246094,2.7281579971313477
-20.65032958984375,-39.27988052368164,2.7697665691375732
-18.78664779663086,-39.51171112060547,2.7306501865386963
-20.10342025756836,-52.852500915527344,3.5293099880218506
-19.48418617248535,-58.15444564819336,3.8279571533203125
-18.0247859954834,-61.95792770385742,4.027361869812012
-15.49384880065918,-62.5210075378418,4.020228385925293
-13.057318687438965,-63.518680572509766,4.047353744506836
51.89164352416992,37.5855598449707,4.533966541290283
43.652069091796875,43.8431510925293,4.377948760986328
40.181854248046875,43.739349365234375,4.202880382537842
53.28059005737305,74.24102020263672,6.466331481933594
21.531652450561523,69.35205078125,5.138570785522461
15.252824783325195,57.140846252441406,4.1849775314331055
12.72639274597168,56.73246383666992,4.114270210266113
10.28019905090332,56.337703704833984,4.052396297454834
7.90275764465332,55.95469665527344,3.998762845993042
5.955498695373535,59.28173065185547,4.216007232666016
3.934203863143921,65.55337524414062,4.647035598754883
1.3888273239135742,70.26929473876953,4.973368167877197
-1.4358477592468262,70.30561065673828,4.976003646850586
-4.614944934844971,76.05823516845703,5.391925811767578
-7.530582427978516,74.46702575683594,5.296316146850586
-10.182567596435547,71.75547790527344,5.128419876098633
-12.337624549865723,67.36173248291016,4.845942497253418
-14.489275932312012,64.39249420166016,4.670475006103516
-16.356307983398438,61.11307907104492,4.476688385009766
-18.066802978515625,58.05681610107422,4.302543640136719
-19.59526824951172,55.06656265258789,4.135981559753418
-20.885129928588867,51.979068756103516,3.963944435119629
-22.219980239868164,49.45915985107422,3.836798667907715
-22.436874389648438,45.01185989379883,3.5589003562927246
-24.512287139892578,44.5933837890625,3.6008200645446777
-25.255428314208984,41.8677864074707,3.459928035736084
-21.928577423095703,33.25466537475586,2.81872296333313
-26.612606048583984,37.030391693115234,3.226841926574707
-27.25785255432129,34.88104248046875,3.132507801055908
-22.8300838470459,26.912551879882812,2.4973042011260986
-22.320344924926758,24.264389038085938,2.3329548835754395
-21.873790740966797,21.940628051757812,2.1923136711120605
-21.387489318847656,19.794727325439453,2.0621469020843506
-21.12449836730957,18.031124114990234,1.9653056859970093
-22.15120506286621,17.41918182373047,1.9940645694732666
-23.7440185546875,17.174169540405273,2.0736165046691895
-25.4019775390625,16.861801147460938,2.157465696334839
-28.904775619506836,17.55636978149414,2.3930904865264893
-28.632226943969727,15.852592468261719,2.315886974334717
-28.218719482421875,14.173685073852539,2.234543800354004
-32.30313491821289,14.631046295166016,2.509369373321533
-32.61252212524414,13.219316482543945,2.4901044368743896
-33.03899002075195,11.870479583740234,2.484221935272217
-33.45014190673828,10.521403312683105,2.4813287258148193
-33.84685134887695,9.169473648071289,2.4814043045043945
-34.887733459472656,7.962138652801514,2.532201051712036
-34.69257736206055,6.463529109954834,2.497162103652954
-34.89263916015625,5.060113430023193,2.494880437850952
-15.256341934204102,1.5898373126983643,1.0854151248931885
-36.90116882324219,2.352004289627075,2.61647629737854
-20.943706512451172,0.49163204431533813,1.4824248552322388
-12.244217872619629,-0.20464369654655457,0.8665457367897034
-38.08368682861328,-2.169074058532715,2.6992478370666504
-42.167850494384766,-4.106306552886963,2.9979946613311768
-42.517581939697266,-5.872721195220947,3.037193775177002
-38.91205978393555,-6.977863311767578,2.797417402267456
-43.556800842285156,-9.63132381439209,3.1566102504730225
-43.88634490966797,-11.571460723876953,3.211618423461914
-44.20879364013672,-13.57774543762207,3.2725157737731934
-44.524322509765625,-15.658015251159668,3.3397789001464844
-44.459232330322266,-17.67241668701172,3.385453701019287
-44.75899124145508,-19.909191131591797,3.4664275646209717
-42.65797424316406,-21.066370010375977,3.366586685180664
-45.686767578125,-24.893131256103516,3.6816282272338867
-45.969512939453125,-27.497629165649414,3.7904343605041504
-47.9935302734375,-31.392822265625,4.058117389678955
-30.588470458984375,-21.81140899658203,2.6584219932556152
-28.597930908203125,-22.17753791809082,2.560845375061035
-26.740264892578125,-22.513883590698242,2.4735500812530518
-24.997623443603516,-22.82423973083496,2.395298957824707
-23.35502815246582,-23.111783981323242,2.325059175491333
-21.7996826171875,-23.379209518432617,2.2619662284851074
-20.343141555786133,-23.654869079589844,2.2077219486236572
-20.106258392333984,-25.373977661132812,2.2908759117126465
-22.517656326293945,-30.889686584472656,2.7049379348754883
-21.58727264404297,-32.260440826416016,2.746757745742798
-19.873167037963867,-32.44729995727539,2.692464828491211
-21.523651123046875,-38.53701400756836,3.123460054397583
-19.73574447631836,-38.93163299560547,3.0886387825012207
-17.9132080078125,-39.16248321533203,3.047358512878418
-21.437028884887695,-52.32756042480469,4.001476287841797
-19.59952735900879,-53.921810150146484,4.059856414794922
-18.92076301574707,-59.38330841064453,4.410221576690674
-16.972185134887695,-61.740211486816406,4.530927658081055
-14.544266700744629,-62.65645217895508,4.551584243774414
22.233291625976562,68.03104400634766,5.064574718475342
16.208423614501953,57.29549789428711,4.213453769683838
13.649252891540527,56.881561279296875,4.139314651489258
11.174797058105469,56.481998443603516,4.074251651763916
8.773215293884277,56.094852447509766,4.017639636993408
6.707942008972168,58.09245681762695,4.138051509857178
4.669615268707275,62.328857421875,4.42287540435791
2.344120979309082,67.72676086425781,4.795350074768066
-0.3908118009567261,69.98452758789062,4.952322959899902
-2.2455122470855713,49.03092956542969,3.4731638431549072
-6.41172456741333,74.4164047241211,5.285360813140869
-9.250395774841309,72.95113372802734,5.203482627868652
-11.5371732711792,68.73021697998047,4.931532382965088
-13.634750366210938,65.0890121459961,4.705801010131836
-15.686372756958008,62.29618835449219,4.54580545425415
-17.452131271362305,59.161231994628906,4.364720344543457
-19.07438850402832,56.23035430908203,4.201672554016113
-19.63772201538086,51.051048278808594,3.870527744293213
-21.738523483276367,50.373619079589844,3.8822922706604004
-23.039405822753906,47.99094009399414,3.7670040130615234
-24.236412048339844,45.684165954589844,3.659450054168701
-24.989120483398438,42.850990295410156,3.5101563930511475
-25.690162658691406,40.24577331542969,3.37862491607666
-26.361780166625977,37.85396194458008,3.264164447784424
-27.02519989013672,35.66135025024414,3.166229248046875
-27.68998146057129,33.64067459106445,3.083162784576416
-22.50041961669922,25.200395584106445,2.3905930519104004
-21.93902015686035,22.668874740600586,2.2323155403137207
-21.618988037109375,20.61277961730957,2.113720655441284
-21.250736236572266,18.69084930419922,2.002629518508911
-21.53348159790039,17.456579208374023,1.9615530967712402
-23.141260147094727,17.266847610473633,2.0431268215179443
-24.817094802856445,17.0092830657959,2.128988265991211
-29.0323486328125,18.228870391845703,2.425773859024048
-28.72222137451172,16.46382713317871,2.3426647186279297
-28.436147689819336,14.815184593200684,2.2689146995544434
-32.19381332397461,15.161073684692383,2.5180742740631104
-32.48381423950195,13.731701850891113,2.4955596923828125
-32.88336944580078,12.368366241455078,2.4860434532165527
-33.30006790161133,11.019708633422852,2.4820480346679688
-33.7020149230957,9.669134140014648,2.4810309410095215
-34.881248474121094,8.506999015808105,2.5406153202056885
-34.7679557800293,7.012819766998291,2.5097970962524414
-34.749298095703125,5.566863536834717,2.4902870655059814
-35.55398178100586,4.239109039306641,2.533672571182251
-15.183683395385742,1.1941853761672974,1.077744483947754
-21.1065673828125,0.808893620967865,1.4946410655975342
-26.92873764038086,-0.0505213737487793,1.9055355787277222
-32.486061096191406,-1.3670958280563354,2.300814390182495
-42.128116607666016,-3.472423791885376,2.991163969039917
-42.389408111572266,-5.21544075012207,3.0221781730651855
-39.32783889770508,-6.451791763305664,2.8201138973236084
-38.91166687011719,-8.00068187713623,2.8110673427581787
-43.765499114990234,-10.84779167175293,3.190646171569824
-44.090545654296875,-12.828801155090332,3.249318838119507
-44.408626556396484,-14.880796432495117,3.314168930053711
-44.346900939941406,-16.870277404785156,3.3574724197387695
-44.64907455444336,-19.07197380065918,3.4356205463409424
-42.05516052246094,-19.99817657470703,3.2952356338500977
-45.58075714111328,-23.965335845947266,3.6440272331237793
-45.865867614746094,-26.519798278808594,3.7490344047546387
-47.86346435546875,-30.303464889526367,4.008659839630127
-47.719764709472656,-32.97023010253906,4.104327201843262
-29.316326141357422,-22.04605484008789,2.5956010818481445
-27.4118709564209,-22.392915725708008,2.504666328430176
-25.62859535217285,-22.71247100830078,2.4232065677642822
-23.950664520263672,-23.008102416992188,2.3501169681549072
-22.364486694335938,-23.282669067382812,2.2844772338867188
-20.858474731445312,-23.53859519958496,2.2255070209503174
-20.212955474853516,-24.745464324951172,2.260955333709717
-22.571247100830078,-30.017412185668945,2.657587766647339
-22.23729705810547,-32.18830871582031,2.768400192260742
-20.49843406677246,-32.37970733642578,2.711794853210449
-21.649188995361328,-37.44588851928711,3.0607190132141113
-20.420787811279297,-38.84327697753906,3.105323553085327
-18.58073616027832,-39.07866287231445,3.06195068359375
-22.41399383544922,-52.47906494140625,4.038049221038818
-19.844379425048828,-52.17145538330078,3.949800491333008
-19.182275772094727,-57.25334548950195,4.272705078125
-18.008407592773438,-61.90169143676758,4.561887264251709
-15.203495025634766,-61.349395751953125,4.472527503967285
-13.208651542663574,-64.25494384765625,4.6418867111206055
43.60913848876953,43.800025939941406,4.890220642089844
40.15399169921875,43.70901870727539,4.696030616760254
53.317989349365234,74.29317474365234,7.235152244567871
48.121551513671875,73.0810317993164,6.92310905456543
25.443222045898438,71.64988708496094,6.015742778778076
21.174419403076172,68.2013931274414,5.650169372558594
15.266769409179688,57.19308853149414,4.683548927307129
12.737833023071289,56.783451080322266,4.604348659515381
10.289288520812988,56.3875732421875,4.535041809082031
7.909662246704102,56.00357437133789,4.474968910217285
5.810759544372559,57.84085464477539,4.59939432144165
3.9375641345977783,65.60942840576172,5.200348377227783
1.3899919986724854,70.32889556884766,5.565494060516357
-1.4370566606521606,70.3648681640625,5.568417549133301
-4.398415565490723,72.48979187011719,5.745919704437256
-7.134003162384033,70.54544830322266,5.609992980957031
-9.697352409362793,68.33611297607422,5.4608988761901855
-11.76933765411377,64.25894927978516,5.168728351593018
-13.855512619018555,61.57592010498047,4.993688583374023
-15.66929817199707,58.54618835449219,4.795199394226074
-17.33627700805664,55.70933151245117,4.616205215454102
-18.87442970275879,53.04088592529297,4.454371929168701
-20.097400665283203,50.01856994628906,4.264965057373047
-21.431848526000977,47.70486068725586,4.137804985046387
-22.65472412109375,45.44887924194336,4.017880439758301
-23.774272918701172,43.250789642333984,3.904902219772339
-24.5239315032959,40.65514373779297,3.756537675857544
-21.98149871826172,33.33491516113281,3.1592540740966797
-25.906112670898438,36.04732894897461,3.512187957763672
-26.610918045043945,34.053192138671875,3.4193613529205322
-22.910202026367188,27.00700569152832,2.8020684719085693
-22.39350128173828,24.343917846679688,2.617056369781494
-21.941146850585938,22.0081844329834,2.4587972164154053
-21.540727615356445,19.93655776977539,2.3222296237945557
-21.182796478271484,18.08089256286621,2.2034976482391357
-22.176483154296875,17.439050674438477,2.2321290969848633
-23.772201538085938,17.194541931152344,2.32128643989563
-25.43342399597168,16.882675170898438,2.415273904800415
-28.971965789794922,17.597169876098633,2.6819584369659424
-28.696504592895508,15.888175964355469,2.5952301025390625
-28.280075073242188,14.20450496673584,2.503901958465576
-31.311460494995117,14.181889533996582,2.7196199893951416
-31.64160919189453,12.825751304626465,2.7013258934020996
-32.05762481689453,11.5178861618042,2.6951346397399902
-32.457698822021484,10.209239959716797,2.6920862197875977
-32.84260940551758,8.897414207458496,2.692167282104492
-33.984683990478516,7.756042957305908,2.757997512817383
-33.872615814208984,6.310756683349609,2.7261099815368652
-34.02511978149414,4.934311866760254,2.720202922821045
-15.283876419067383,1.5927058458328247,1.215806007385254
-35.87533950805664,2.286619186401367,2.84419584274292
-20.993864059448242,0.49280840158462524,1.6614893674850464
-12.265714645385742,-0.20500263571739197,0.9705968499183655
-38.15016174316406,-2.172861099243164,3.0233240127563477
-40.95561599731445,-3.9882566928863525,3.2557315826416016
-41.279788970947266,-5.701751708984375,3.297058343887329
-38.288047790527344,-6.865962982177734,3.0776679515838623
-42.25102615356445,-9.34259033203125,3.4236433506011963
-42.54848098754883,-11.218707084655762,3.48148250579834
-42.836334228515625,-13.156224250793457,3.54544734954834
-43.114593505859375,-15.162251472473145,3.61600661277771
-43.021305084228516,-17.100845336914062,3.6628873348236084
-43.277889251708984,-19.250381469726562,3.747598648071289
-42.14079666137695,-20.81096649169922,3.718585729598999
-44.09616470336914,-24.026464462280273,3.973153591156006
-44.32345962524414,-26.51300811767578,4.086369037628174
-48.08399963378906,-31.451997756958008,4.54598331451416
-30.12697410583496,-21.48233985900879,2.927565097808838
-28.18206787109375,-21.855045318603516,2.8216757774353027
-26.364486694335938,-22.197498321533203,2.726841449737549
-24.657302856445312,-22.51350212097168,2.6417500972747803
-23.046276092529297,-22.80624008178711,2.56530499458313
-21.519203186035156,-23.078407287597656,2.496589422225952
-20.085378646850586,-23.35515594482422,2.437206268310547
-20.152973175048828,-25.432931900024414,2.5674071311950684
-22.304134368896484,-30.596776962280273,2.995743751525879
-21.36161994934082,-31.923219680786133,3.0390777587890625
-19.669490814208984,-32.1147575378418,2.979623794555664
-21.29620933532715,-38.12981033325195,3.4554755687713623
-19.519678115844727,-38.50543212890625,3.4156389236450195
-17.776447296142578,-38.86348342895508,3.3812718391418457
-21.416439056396484,-52.27730178833008,4.469802379608154
-19.329574584960938,-53.17909622192383,4.476846218109131
-18.113122940063477,-56.84849548339844,4.720634460449219
-16.956880569458008,-61.684547424316406,5.061517715454102
-14.39184856414795,-61.99979782104492,5.035841464996338
-13.504951477050781,-71.02288818359375,5.72000789642334
22.477924346923828,68.77964782714844,5.725068092346191
16.223337173461914,57.34823226928711,4.715446472167969
13.66158390045166,56.9329948425293,4.6323981285095215
11.184741973876953,56.53226852416992,4.559523582458496
8.780901908874512,56.144081115722656,4.496110439300537
6.49616003036499,56.25830841064453,4.480724811553955
4.927314281463623,65.76841735839844,5.218169212341309
2.3334033489227295,67.41698455810547,5.337216377258301
-0.3911374807357788,70.04363250732422,5.541926383972168
-2.2523176670074463,49.17937469482422,3.8951404094696045
-6.118411064147949,71.0122299194336,5.639275550842285
-8.825742721557617,69.60218048095703,5.551001071929932
-10.996896743774414,65.51155853271484,5.255781650543213
-13.144566535949707,62.748939514160156,5.072441577911377
-15.017769813537598,59.64091491699219,4.866077899932861
-16.736690521240234,56.73592758178711,4.680179119110107
-18.32049560546875,54.007896423339844,4.512258052825928
-19.78535270690918,51.434852600097656,4.360217094421387
-20.934877395629883,48.5113525390625,4.180359840393066
-22.212949752807617,46.26942825317383,4.060839653015137
-23.479341506958008,44.25711441040039,3.9638748168945312
-24.25513458251953,41.59238815307617,3.8094701766967773
-24.963062286376953,39.106719970703125,3.670762538909912
-25.654067993164062,36.83771896362305,3.55172061920166
-26.32088279724121,34.73196792602539,3.44793438911438
-26.98997688293457,32.79023361206055,3.36017107963562
-22.57599639892578,25.285053253173828,2.681931257247925
-22.008108139038086,22.74025535583496,2.5038352012634277
-21.683168411254883,20.67397689819336,2.370391845703125
-21.310497283935547,18.743412017822266,2.245460271835327
-21.557716369628906,17.47622299194336,2.195704936981201
-23.168315887451172,17.287031173706055,2.2871155738830566
-24.84732437133789,17.03000259399414,2.383347272872925
-29.10076141357422,18.271825790405273,2.7186801433563232
-28.760631561279297,16.485837936401367,2.622861623764038
-28.498689651489258,14.847771644592285,2.5424814224243164
-31.202184677124023,14.694082260131836,2.7287659645080566
-31.491920471191406,13.312403678894043,2.7051119804382324
-31.90593147277832,12.000727653503418,2.6970529556274414
-32.31179428100586,10.692669868469238,2.692847728729248
-32.702213287353516,9.382288932800293,2.691772699356079
-33.07792663574219,8.067193984985352,2.6938283443450928
-33.907142639160156,6.839191913604736,2.7367570400238037
-33.520668029785156,5.3700361251831055,2.685966968536377
-34.5084228515625,4.114424705505371,2.7496280670166016
-15.210892677307129,1.1963245868682861,1.207200050354004
-21.13501739501953,0.8099842667579651,1.6734260320663452
-26.95713233947754,-0.050573527812957764,2.1328485012054443
-32.70778274536133,-1.37642502784729,2.590125322341919
-40.81455612182617,-3.3641550540924072,3.2401766777038574
-41.16128158569336,-5.064336776733398,3.2812273502349854
-39.230777740478516,-6.435869216918945,3.1454246044158936
-38.386627197265625,-7.892727851867676,3.1006789207458496
-42.439781188964844,-10.519196510314941,3.4594345092773438
-42.73116683959961,-12.433269500732422,3.5210888385772705
-43.01295852661133,-14.413126945495605,3.589158773422241
-43.28512191772461,-16.466358184814453,3.6641454696655273
-43.184295654296875,-18.446292877197266,3.7153868675231934
-41.88820266723633,-19.918777465820312,3.669814109802246
-44.042144775390625,-23.15635108947754,3.936886787414551
-44.24083709716797,-25.580188751220703,4.043318748474121
-44.461002349853516,-28.1492862701416,4.16350793838501
-30.881149291992188,-21.33620262145996,2.969763994216919
-28.88432502746582,-21.72118377685547,2.8594067096710205
-27.021873474121094,-22.07432746887207,2.760654926300049
-25.275686264038086,-22.399702072143555,2.672105312347412
-23.63067054748535,-22.70069122314453,2.5925822257995605
-22.073904037475586,-22.980161666870117,2.5211129188537598
-20.595434188842773,-23.241764068603516,2.456987142562866
-20.259300231933594,-24.80221176147461,2.5337986946105957
-19.55353546142578,-26.004167556762695,2.574202299118042
-22.003042221069336,-31.849220275878906,3.062769651412964
-20.286865234375,-32.045509338378906,3.0007920265197754
-18.633251190185547,-32.22932052612305,2.945474147796631
-20.196046829223633,-38.415771484375,3.4338831901550293
-18.379056930541992,-38.654502868652344,3.386441707611084
-17.170516967773438,-40.202247619628906,3.458766460418701
-19.58637237548828,-51.493167877197266,4.358901500701904
-18.889245986938477,-56.37871551513672,4.704380512237549
-17.991640090942383,-61.8439826965332,5.09594202041626
-15.21955680847168,-61.414161682128906,5.006062984466553
-13.343501091003418,-64.91083526611328,5.2431230545043945
43.61503601074219,43.805973052978516,5.408209800720215
53.40294647216797,74.41150665283203,8.013193130493164
48.03791046142578,72.95401000976562,7.642090797424316
24.322067260742188,68.49269104003906,6.358933925628662
21.431442260742188,69.02928924560547,6.323648929595947
15.280755043029785,57.24549102783203,5.183692455291748
12.749302864074707,56.834598541259766,5.095954418182373
10.298421859741211,56.43760299682617,5.019181251525879
7.916586399078369,56.0526008605957,4.95263671875
5.672702789306641,56.46661376953125,4.965054512023926
3.940934181213379,65.6656494140625,5.755337715148926
1.391169548034668,70.388671875,6.159412384033203
-1.4410665035247803,70.56110382080078,6.174585342407227
-4.215336322784424,69.47256469726562,6.0892229080200195
-6.731353759765625,66.56378936767578,5.853263854980469
-9.240287780761719,65.1153564453125,5.753909587860107
-11.354191780090332,61.99231719970703,5.513845443725586
-13.274117469787598,58.992149353027344,5.290189266204834
-15.036883354187012,56.183250427246094,5.088400840759277
-16.661680221557617,53.54155731201172,4.905853748321533
-18.164772033691406,51.04658889770508,4.740329742431641
-19.559940338134766,48.6808967590332,4.589960098266602
-20.67514991760254,46.0205192565918,4.413928031921387
-22.06930923461914,44.27449417114258,4.328065872192383
-23.078510284423828,41.98503875732422,4.191575050354004
-23.832731246948242,39.509281158447266,4.036807537078857
-22.034746170043945,33.41566467285156,3.5018842220306396
-25.235305786132812,35.113922119140625,3.78312087059021
-25.949390411376953,33.20667266845703,3.6870503425598145
-22.99099349975586,27.102243423461914,3.1093814373016357
-22.467235565185547,24.424076080322266,2.903400182723999
-22.00901222229004,22.07626724243164,2.727287769317627
-21.603641510009766,19.994789123535156,2.5753633975982666
-21.24148941040039,18.1309814453125,2.4433200359344482
-22.20184326171875,17.458995819091797,2.471052885055542
-23.800466537475586,17.214994430541992,2.569873809814453
-25.464988708496094,16.90362548828125,2.6740589141845703
-29.039560317993164,17.63823890686035,2.9725608825683594
-28.76115608215332,15.923970222473145,2.8762025833129883
-28.341773986816406,14.235496520996094,2.7747905254364014
-30.377683639526367,13.758950233459473,2.917600393295288
-30.725662231445312,12.454483985900879,2.900588274002075
-31.1317081451416,11.185216903686523,2.8941304683685303
-31.52125358581543,9.914687156677246,2.890953540802002
-31.895034790039062,8.640704154968262,2.8910369873046875
-32.25369644165039,7.360994815826416,2.894386053085327
-33.133155822753906,6.172987937927246,2.948655843734741
-32.67716979980469,4.738812446594238,2.888784408569336
-15.31154727935791,1.5955901145935059,1.3468408584594727
-34.82968521118164,2.2199695110321045,3.0533673763275146
-21.044326782226562,0.49399328231811523,1.8416463136672974
-12.287315368652344,-0.2053641378879547,1.075150489807129
-37.134586334228516,-2.1149983406066895,3.254103422164917
-39.809688568115234,-3.8766679763793945,3.4993691444396973
-40.11054229736328,-5.540250301361084,3.542532205581665
-37.873130798339844,-6.791559219360352,3.366323947906494
-41.01971435546875,-9.07032299041748,3.675447940826416
-41.288177490234375,-10.886404037475586,3.735700845718384
-41.54489517211914,-12.759589195251465,3.8022687435150146
-41.78968048095703,-14.696314811706543,3.875615358352661
-41.67174530029297,-16.564401626586914,3.9232702255249023
-41.88988494873047,-18.63298988342285,4.0110955238342285
-39.54096984863281,-19.527053833007812,3.8582372665405273
-42.61069107055664,-23.217090606689453,4.245410919189453
-42.789249420166016,-25.595294952392578,4.362198829650879
-42.952388763427734,-28.095380783081055,4.490354061126709
-29.67861557006836,-21.162630081176758,3.18904972076416
-27.777599334716797,-21.541385650634766,3.075356960296631
-25.998655319213867,-21.889484405517578,2.973428249359131
-24.32568359375,-22.210721969604492,2.8818905353546143
-22.74516487121582,-22.508277893066406,2.7995901107788086
-21.245494842529297,-22.784866333007812,2.7255496978759766
-20.481000900268555,-23.815187454223633,2.748086452484131
-20.199966430664062,-25.492233276367188,2.845590829849243
-22.09435272216797,-30.309003829956055,3.2814602851867676
-21.140348434448242,-31.592548370361328,3.32572340965271
-19.46969985961914,-31.788543701171875,3.261322498321533
-21.073240280151367,-37.73058319091797,3.780967950820923
-19.308032989501953,-38.087921142578125,3.735971212387085
-17.57904624938965,-38.431907653808594,3.6974024772644043
-21.3958683013916,-52.22706985473633,4.937841892242432
-19.066608428955078,-52.45566177368164,4.88303804397583
-17.943532943725586,-56.316253662109375,5.171083927154541
-16.9411678314209,-61.62739181518555,5.591708660125732
-14.242398262023926,-61.35591506958008,5.510668754577637
-13.237963676452637,-69.61876678466797,6.19998836517334
-14.570890426635742,-97.9168930053711,8.660947799682617
22.499086380004883,68.84436798095703,6.336590766906738
16.23829460144043,57.40113067626953,5.219028949737549
13.67398738861084,56.98459243774414,5.1270318031311035
11.194738388061523,56.58269500732422,5.046302795410156
8.788640022277832,56.19346618652344,4.976057529449463
6.429020881652832,55.676937103271484,4.903467178344727
4.931546688079834,65.8249740600586,5.775076866149902
2.3159737586975098,66.91358947753906,5.857687473297119
-0.3914705216884613,70.10291290283203,6.133306503295898
-3.184803009033203,69.54021453857422,6.090340614318848
-5.814972400665283,67.49022674560547,5.926492691040039
-8.327710151672363,65.67464447021484,5.791778564453125
-10.601144790649414,63.153953552246094,5.602558135986328
-12.584683418273926,60.076168060302734,5.370066165924072
-14.40303897857666,57.19970703125,5.160536289215088
-16.076757431030273,54.49882888793945,4.971158027648926
-17.62306022644043,51.951847076416016,4.799584865570068
-19.056589126586914,49.5402946472168,4.64382266998291
-20.21025848388672,46.832210540771484,4.462530612945557
-21.631078720092773,45.05738830566406,4.372746467590332
-22.78214454650879,42.94294738769531,4.252997398376465
-23.562162399291992,40.40407943725586,4.092060565948486
-24.275115966796875,38.028987884521484,3.947169780731201
-24.982494354248047,35.87339782714844,3.8245911598205566
-25.704700469970703,33.918880462646484,3.7233757972717285
-24.918838500976562,30.27401351928711,3.4304709434509277
-22.652179718017578,25.370370864868164,2.9756152629852295
-22.077722549438477,22.812185287475586,2.777433156967163
-21.74781608581543,20.735620498657227,2.628934383392334
-21.37067222595215,18.79633140563965,2.489980459213257
-21.582035064697266,17.49593734741211,2.430692672729492
-23.195466995239258,17.307287216186523,2.5319952964782715
-24.877655029296875,17.05080223083496,2.6386613845825195
-26.482032775878906,16.62757110595703,2.7357146739959717
-28.825637817382812,16.523101806640625,2.9068479537963867
-28.56159210205078,14.880546569824219,2.8176162242889404
-26.89818000793457,12.667192459106445,2.601179838180542
-30.571395874023438,12.923277854919434,2.903810501098633
-30.983749389648438,11.653867721557617,2.896132707595825
-31.379291534423828,10.384085655212402,2.891746997833252
-31.758804321289062,9.111629486083984,2.8906290531158447
-32.12298583984375,7.834300518035889,2.8927698135375977
-33.106788635253906,6.677757740020752,2.9547998905181885
-33.15596008300781,5.311626434326172,2.9377429485321045
-33.48513412475586,3.9924397468566895,2.9502952098846436
-15.238237380981445,1.1984763145446777,1.3372905254364014
-21.163576126098633,0.8110794425010681,1.8529319763183594
-26.98562240600586,-0.05062645673751831,2.360940933227539
-36.6650390625,-1.5429413318634033,3.2105984687805176
-39.63685989379883,-3.2670836448669434,3.4795167446136475
-40.00081253051758,-4.921555995941162,3.5260071754455566
-38.79734802246094,-6.364764213562012,3.4397006034851074
-37.90974426269531,-7.794675350189209,3.386056661605835
-41.190433502197266,-10.2095308303833,3.7127363681793213
-41.45148849487305,-12.060930252075195,3.7769267559051514
-41.700706481933594,-13.973405838012695,3.847712278366089
-41.93781661987305,-15.953821182250977,3.925602674484253
-41.81084060668945,-17.859615325927734,3.9777088165283203
-41.76887512207031,-19.862037658691406,4.046423435211182
-40.116539001464844,-21.092365264892578,3.9652929306030273
-42.72507095336914,-24.70377540588379,4.317815780639648
-42.89402770996094,-27.15719985961914,4.441637992858887
-30.44195556640625,-21.03275489807129,3.2371840476989746
-28.464317321777344,-21.405338287353516,3.11588191986084
-26.64232635498047,-21.764278411865234,3.0097830295562744
-24.93189811706543,-22.095035552978516,2.914553642272949
-23.318687438964844,-22.4009952545166,2.828964948654175
-21.79041862487793,-22.685035705566406,2.7519783973693848
-20.35212516784668,-22.967195510864258,2.6847774982452393
-20.305923461914062,-24.85928726196289,2.8082571029663086
-19.913227081298828,-26.482519149780273,2.8988473415374756
-21.773359298706055,-31.516767501831055,3.351382255554199
-20.079343795776367,-31.717700958251953,3.2842559814453125
-18.813823699951172,-32.54164123535156,3.2885918617248535
-19.975894927978516,-37.99702072143555,3.7557106018066406
-18.194076538085938,-38.265438079833984,3.7069478034973145
-17.339859008789062,-40.598716735839844,3.8623311519622803
-19.770097732543945,-51.97613525390625,4.865165710449219
-18.62860679626465,-55.600791931152344,5.130204200744629
-16.42426872253418,-56.45637130737305,5.144064903259277
-15.2059907913208,-61.359375,5.530632972717285
-13.481294631958008,-65.5811538696289,5.857581615447998
-15.972437858581543,-97.38821411132812,8.634191513061523
43.6209716796875,43.811927795410156,5.927097320556641
53.60254669189453,74.68964385986328,8.813638687133789
47.95444107055664,72.8272705078125,8.359613418579102
24.956153869628906,70.27833557128906,7.149751663208008
21.35516357421875,68.78355407714844,6.904759407043457
15.294784545898438,57.298065185546875,5.685482501983643
12.760811805725098,56.88591384887695,5.589164733886719
10.30758285522461,56.487789154052734,5.504886627197266
7.9235310554504395,56.10178756713867,5.431838035583496
6.069392204284668,60.415184020996094,5.821136474609375
3.944328546524048,65.7220458984375,6.31208610534668
1.3938274383544922,70.5223388671875,6.762271881103516
-1.369754433631897,67.0693588256836,6.431241989135742
-3.4349253177642822,56.6107177734375,5.437231063842773
-6.428902626037598,63.572837829589844,6.125789165496826
-8.77752685546875,61.854209899902344,5.989354133605957
-10.877765655517578,59.391090393066406,5.788515567779541
-12.738822937011719,56.6131477355957,5.563187599182129
-14.452715873718262,54.00060272216797,5.359231472015381
-16.03675651550293,51.533355712890625,5.174174785614014
-17.505613327026367,49.1942253112793,5.005936145782471
-18.870786666870117,46.96572494506836,4.852447509765625
-20.144794464111328,44.84004592895508,4.712696552276611
-21.33629608154297,42.8039436340332,4.585149765014648
-22.421396255493164,40.78959655761719,4.462327003479004
-23.178508758544922,38.42473602294922,4.302084922790527
-22.088327407836914,33.496925354003906,3.846679210662842
-24.660770416259766,34.314491271972656,4.0511369705200195
-24.48122215270996,31.32790756225586,3.811662435531616
-23.072465896606445,27.198270797729492,3.419313907623291
-22.54156494140625,24.50486946105957,3.1920554637908936
-22.0773983001709,22.14486312866211,2.997835397720337
-21.667015075683594,20.053436279296875,2.8303470611572266
-21.300600051879883,18.181440353393555,2.6848301887512207
-22.227296829223633,17.479015350341797,2.710872173309326
-23.82884979248047,17.235523223876953,2.819410800933838
-25.496673583984375,16.92466163635254,2.9338700771331787
-26.018144607543945,15.803065299987793,2.9184088706970215
-28.82619857788086,15.959978103637695,3.15885591506958
-28.403833389282227,14.266664505004883,3.047257661819458
-29.496734619140625,13.359941482543945,3.104377269744873
-29.86004066467285,12.103605270385742,3.0889039039611816
-30.25654411315918,10.870777130126953,3.0822203159332275
-30.63607406616211,9.636263847351074,3.078932762145996
-30.99932861328125,8.398049354553223,3.079019546508789
-31.34690284729004,7.154043674468994,3.082487106323242
-31.679344177246094,5.902132511138916,3.089346408843994
-32.15013885498047,4.662400722503662,3.1144447326660156
-15.339359283447266,1.5984869003295898,1.4785407781600952
-33.86095428466797,2.158233165740967,3.2528018951416016
-21.09510612487793,0.4951852560043335,2.022937774658203
-12.309024810791016,-0.20572617650032043,1.180227518081665
-36.14641571044922,-2.0587234497070312,3.4709465503692627
-38.72459411621094,-3.7710018157958984,3.730074882507324
-39.00414276123047,-5.387430191040039,3.7748117446899414
-37.8349609375,-6.784714221954346,3.685084342956543
-39.85651397705078,-8.813114166259766,3.913325786590576
-40.098716735839844,-10.572779655456543,3.9756295680999756
-40.327327728271484,-12.385638236999512,4.044397830963135
-40.54201126098633,-14.257545471191406,4.120086669921875
-40.65956497192383,-16.162059783935547,4.194675922393799
-40.586334228515625,-18.05315589904785,4.2585577964782715
-39.43370819091797,-19.474084854125977,4.216367244720459
-41.25068664550781,-22.476055145263672,4.5036115646362305
-41.37071228027344,-24.746761322021484,4.621609210968018
-41.47254943847656,-27.127410888671875,4.750982761383057
-29.24277114868164,-20.85185432434082,3.443227767944336
-27.38401985168457,-21.23616600036621,3.322211265563965
-25.642318725585938,-21.589468002319336,3.2136127948760986
-24.002405166625977,-21.915550231933594,3.115996837615967
-22.451425552368164,-22.217586517333984,3.0281553268432617
-20.9782772064209,-22.498287200927734,2.9490792751312256
-20.527294158935547,-23.869014739990234,3.0181429386138916
-20.247249603271484,-25.551908493041992,3.125485420227051
-21.87288475036621,-30.00519371032715,3.5597643852233887
-20.923295974731445,-31.2681884765625,3.606896162033081
-19.273637771606445,-31.468425750732422,3.537752151489258
-20.854576110839844,-37.33907699584961,4.100172996520996
-19.10061264038086,-37.67876434326172,4.049881458282471
-17.98540687561035,-39.32032012939453,4.145253658294678
-21.37529182434082,-52.17686462402344,5.405663967132568
-18.80281639099121,-51.7298698425293,5.276771068572998
-17.77685546875,-55.79313659667969,5.6138129234313965
-15.398372650146484,-56.01510238647461,5.569361209869385
-14.364706993103027,-61.88288497924805,6.090432167053223
-13.013066291809082,-68.4360580444336,6.678501129150391
-14.300471305847168,-96.09982299804688,9.314507484436035
-10.524336814880371,-97.4842529296875,9.4000883102417
51.70315170288086,76.03985595703125,8.815462112426758
22.52031707763672,68.90929412841797,6.950157165527344
16.25331687927246,57.45421600341797,5.724274635314941
13.686412811279297,57.036354064941406,5.623281002044678
11.204728126525879,56.633277893066406,5.53465461730957
8.796374320983887,56.243003845214844,5.457546234130859
6.445836067199707,55.82264709472656,5.38725471496582
4.935793399810791,65.88169860839844,6.333754062652588
2.2919952869415283,66.22074127197266,6.352362632751465
-0.38138145208358765,68.29519653320312,6.547527313232422
-3.080615282058716,67.265380859375,6.455451488494873
-2.9150075912475586,33.83244705200195,3.2555229663848877
-7.923361778259277,62.48568344116211,6.038449287414551
-10.149463653564453,60.463165283203125,5.877681732177734
-9.824034690856934,46.89748764038086,4.593631744384766
-13.835898399353027,54.947296142578125,5.4322099685668945
-15.466039657592773,52.42853546142578,5.240438461303711
-16.97585678100586,50.043941497802734,5.066215515136719
-18.377695083618164,47.775413513183594,4.907390594482422
-19.684486389160156,45.6138916015625,4.762807369232178
-20.905454635620117,43.54591751098633,4.630895614624023
-22.04912757873535,41.561241149902344,4.510456085205078
-22.90675926208496,39.28019714355469,4.359332084655762
-23.623149871826172,37.007625579833984,4.2091240882873535
-24.22956657409668,34.7922248840332,4.064658164978027
-24.854413986206055,32.79686737060547,3.94508957862854
-24.36766815185547,29.60437774658203,3.6759462356567383
-22.728994369506836,25.45640754699707,3.2717204093933105
-22.14788246154785,22.884674072265625,3.0531678199768066
-21.812942504882812,20.79770851135254,2.889400005340576
-21.43128204345703,18.84964370727539,2.736250162124634
-21.606441497802734,17.51572608947754,2.6665539741516113
-23.22271728515625,17.32762336730957,2.777806282043457
-24.90813446044922,17.07167625427246,2.8949718475341797
-26.135480880737305,16.409984588623047,2.9585537910461426
-26.221271514892578,15.030265808105469,2.8975236415863037
-28.624860763549805,14.913504600524902,3.0943660736083984
-26.639429092407227,12.54533576965332,2.822939872741699
-29.70918846130371,12.558797836303711,3.092237710952759
-30.11215591430664,11.326038360595703,3.08429217338562
-30.497865676879883,10.09240436553955,3.0797533988952637
-30.867067337036133,8.855786323547363,3.078594207763672
-31.220361709594727,7.614160060882568,3.080812692642212
-31.55833625793457,6.3654255867004395,3.086416721343994
-32.33759307861328,5.18051815032959,3.1397056579589844
-31.963411331176758,3.810991048812866,3.0860137939453125
-15.265719413757324,1.2006380558013916,1.4680379629135132
-21.192256927490234,0.8121791481971741,2.0331876277923584
-27.014217376708984,-0.050680696964263916,2.589848041534424
-35.298744201660156,-1.485449194908142,3.387059211730957
-38.67612838745117,-3.187896728515625,3.7204253673553467
-38.902462005615234,-4.786420822143555,3.7576828002929688
-38.61628341674805,-6.335060119628906,3.751612424850464
-37.69382095336914,-7.750278472900391,3.6892900466918945
-40.0108528137207,-9.917160034179688,3.9518942832946777
-40.24452209472656,-11.70974349975586,4.018228054046631
-40.46440505981445,-13.559136390686035,4.091301918029785
-40.670074462890625,-15.471550941467285,4.171620845794678
-40.52022171020508,-17.308326721191406,4.224214553833008
-40.69436264038086,-19.351072311401367,4.319980144500732
-38.974822998046875,-20.49207878112793,4.221486568450928
-41.32273864746094,-23.892940521240234,4.576146602630615
-41.431671142578125,-26.231351852416992,4.701197624206543
-30.900535583496094,-21.349590301513672,3.6007301807403564
-28.05577850341797,-21.098108291625977,3.36535906791687
-26.272775650024414,-21.462383270263672,3.2523577213287354
-24.596864700317383,-21.798120498657227,3.1508355140686035
-23.01441192626953,-22.108694076538086,3.059515953063965
-21.51373291015625,-22.39698028564453,2.9773120880126953
-20.187448501586914,-22.78135108947754,2.9181594848632812
-20.352827072143555,-24.916715621948242,3.0843846797943115
-20.060380935668945,-26.678213119506836,3.2000162601470947
-21.548114776611328,-31.19071388244629,3.6344351768493652
-19.87574005126953,-31.39607810974121,3.5623767375946045
-19.02617835998535,-32.90895080566406,3.6443004608154297
-19.76018714904785,-37.58671569824219,4.071048259735107
-18.024473190307617,-37.90873718261719,4.0241923332214355
-17.56623649597168,-41.12876510620117,4.287581443786621
-19.751358032226562,-51.926902770996094,5.326178550720215
-18.358184814453125,-54.793663024902344,5.540044784545898
-16.272489547729492,-55.934661865234375,5.58475399017334
-15.192028045654297,-61.303096771240234,6.0548858642578125
-13.598795890808105,-66.15280151367188,6.47465705871582
-15.619873046875,-95.23878479003906,9.252493858337402
-11.927207946777344,-96.9739990234375,9.36691665649414
43.626922607421875,43.81789016723633,6.446951389312744
47.87113571166992,72.70072937011719,9.075788497924805
24.72595977783203,69.63004302978516,7.7040581703186035
21.267459869384766,68.5010757446289,7.478501796722412
15.30887222290039,57.35082244873047,6.188997745513916
12.772355079650879,56.937400817871094,6.084052562713623
10.316768646240234,56.538143157958984,5.992231369018555
7.930500030517578,56.1511344909668,5.9126434326171875
6.0342278480529785,60.065250396728516,6.294167995452881
3.9477226734161377,65.77863311767578,6.870686054229736
1.3173872232437134,66.65470123291016,6.951027870178223
-1.3092458248138428,64.10665130615234,6.685410499572754
-3.391191005706787,55.88994216918945,5.8380279541015625
-5.698629379272461,56.351749420166016,5.905428409576416
-8.412086486816406,59.27904510498047,6.242596626281738
-10.439044952392578,56.99571228027344,6.041451454162598
-12.244246482849121,54.415245056152344,5.815410137176514
-13.911416053771973,51.978092193603516,5.610190391540527
-15.456120491027832,49.66749572753906,5.4234819412231445
-16.891408920288086,47.468177795410156,5.253235816955566
-18.229000091552734,45.36845016479492,5.097851753234863
-19.478769302368164,43.357540130615234,4.955885410308838
-20.649354934692383,41.42582702636719,4.826078414916992
-21.74820899963379,39.56491470336914,4.707342147827148
-22.55827522277832,37.39653015136719,4.553577423095703
-23.28803253173828,35.3162727355957,4.410713195800781
-24.029884338378906,33.4366340637207,4.293145656585693
-23.73935317993164,30.378536224365234,4.019791126251221
-23.238054275512695,27.393478393554688,3.7454001903533936
-22.61651039123535,24.58634376525879,3.483097553253174
-22.146316528320312,22.2139892578125,3.270503044128418
-21.730863571166992,20.112529754638672,3.0872440338134766
-21.360130310058594,18.232242584228516,2.928072452545166
-22.252853393554688,17.49911117553711,2.951627731323242
-23.857349395751953,17.256134033203125,3.069945812225342
-25.52849769592285,16.945781707763672,3.1947412490844727
-26.079315185546875,15.8402099609375,3.1814045906066895
-25.774625778198242,14.270442962646484,3.071765899658203
-28.36447525024414,14.246891975402832,3.309485912322998
-28.664154052734375,12.982839584350586,3.2808995246887207
-29.040565490722656,11.771438598632812,3.267178535461426
-29.427934646606445,10.573073387145996,3.260303497314453
-29.79795265197754,9.37264347076416,3.256917953491211
-30.1512508392334,8.168294906616211,3.257007360458374
-30.488380432128906,6.9581098556518555,3.2605738639831543
-30.809831619262695,5.740135192871094,3.267632246017456
-31.572673797607422,4.578655242919922,3.3263111114501953
-15.367317199707031,1.6014010906219482,1.6109347343444824
-32.739501953125,2.0867528915405273,3.420452117919922
-21.146215438842773,0.4963858723640442,2.205395460128784
-12.33084487915039,-0.20609112083911896,1.2858433723449707
-35.289974212646484,-2.009937286376953,3.6854190826416016
-37.695491790771484,-3.6707870960235596,3.948873996734619
-37.95551681518555,-5.242588043212891,3.994961738586426
-38.20122146606445,-6.8503804206848145,4.046544075012207
-38.75574493408203,-8.569709777832031,4.138433933258057
-38.97412109375,-10.27625846862793,4.202475070953369
-39.177310943603516,-12.032434463500977,4.273094177246094
-39.36488342285156,-13.84357738494873,4.350738048553467
-39.53621292114258,-15.715530395507812,4.435924530029297
-39.359561920166016,-17.507474899291992,4.491448402404785
-39.32686233520508,-19.42131996154785,4.5731282234191895
-36.977317810058594,-20.147655487060547,4.390552520751953
-40.02754592895508,-23.94331932067871,4.863090991973877
-40.103694915771484,-26.23203468322754,4.996440410614014
-29.63068199157715,-21.12845802307129,3.7943925857543945
