-4.132232666015625,-40.21274185180664,9.758378028869629
-2.6004798412323,-41.7425537109375,10.096091270446777
-0.9527808427810669,-43.230140686035156,10.438190460205078
0.8104678392410278,-44.65972137451172,10.7825288772583
2.686927080154419,-46.013946533203125,11.126580238342285
4.672037601470947,-47.27398681640625,11.467426300048828
5.5079498291015625,-39.45883560180664,9.617616653442383
7.151104927062988,-39.551544189453125,9.702454566955566
8.820539474487305,-39.62031936645508,9.79840087890625
10.519184112548828,-39.66452407836914,9.90591812133789
12.250207901000977,-39.68339920043945,10.025533676147461
14.017024993896484,-39.676048278808594,10.1578369140625
13.863183975219727,-34.73092269897461,9.027192115783691
7.54953145980835,-16.90717124938965,4.469756603240967
14.952815055847168,-30.169340133666992,8.128243446350098
13.781623840332031,-25.20754623413086,6.935105323791504
13.76276969909668,-22.933368682861328,6.456443786621094
14.733545303344727,-22.45438575744629,6.483119964599609
14.863829612731934,-20.78207778930664,6.167830944061279
7.724771499633789,-9.931671142578125,3.0372986793518066
13.700336456298828,-16.224943161010742,5.126208782196045
13.68681812286377,-14.94701862335205,4.89235258102417
13.673831939697266,-13.778176307678223,4.685925483703613
13.067456245422363,-12.149624824523926,4.307252883911133
11.678159713745117,-10.014090538024902,3.7136144638061523
15.266084671020508,-12.061200141906738,4.696571350097656
16.526443481445312,-12.011042594909668,4.931775093078613
17.920507431030273,-11.954446792602539,5.200164318084717
16.035961151123047,-9.790042877197266,4.535433292388916
21.22808265686035,-11.816402435302734,5.864816188812256
23.22380256652832,-11.731084823608398,6.280810832977295
38.46331787109375,-17.526763916015625,10.203484535217285
22.563688278198242,-9.205920219421387,5.882723331451416
38.88787078857422,-14.071901321411133,9.983138084411621
38.09564208984375,-12.077919960021973,9.647306442260742
30.517776489257812,-8.342181205749512,7.637203693389893
31.43255043029785,-7.2488813400268555,7.786904335021973
34.612545013427734,-6.530158042907715,8.502793312072754
33.63551330566406,-4.955976486206055,8.20720100402832
33.33258819580078,-3.550234079360962,8.091923713684082
32.2888298034668,-2.1318020820617676,7.811419486999512
31.232860565185547,-0.8042852282524109,7.5420403480529785
30.170520782470703,0.4355759620666504,7.283854007720947
32.65251922607422,-6.5164794921875,8.331130027770996
31.815208435058594,-5.029943943023682,8.059388160705566
31.609312057495117,-3.703058958053589,7.963084697723389
30.694671630859375,-2.350795030593872,7.702636241912842
29.760719299316406,-1.0794646739959717,7.451356887817383
28.81330108642578,0.11312805116176605,7.209462642669678
27.85756492614746,1.2295392751693726,6.977055072784424
26.897951126098633,2.2725934982299805,6.754142761230469
25.938274383544922,3.2453415393829346,6.540643215179443
24.98183250427246,4.150908946990967,6.336427688598633
23.526504516601562,4.8875908851623535,6.012279510498047
22.604209899902344,5.65195894241333,5.82994270324707
21.691972732543945,6.35988712310791,5.656039714813232
20.791332244873047,7.014391899108887,5.49030065536499
19.903566360473633,7.618409156799316,5.332442283630371
18.21062660217285,7.8229241371154785,4.959136009216309
16.043102264404297,7.669243335723877,4.449244976043701
14.840497016906738,7.841683387756348,4.199763774871826
13.753463745117188,7.989967346191406,3.9798295497894287
16.021636962890625,10.189767837524414,4.750862121582031
15.207833290100098,10.553452491760254,4.631610870361328
14.410398483276367,10.883041381835938,4.518352031707764
13.629279136657715,11.180529594421387,4.410812854766846
12.864341735839844,11.447773933410645,4.308718681335449
12.115416526794434,11.686493873596191,4.211843490600586
11.3822603225708,11.89832592010498,4.119928359985352
10.664603233337402,12.084755897521973,4.032764911651611
9.962141036987305,12.247198104858398,3.95013165473938
9.27453899383545,12.386977195739746,3.8718278408050537
8.601457595825195,12.505305290222168,3.797647476196289
7.942523002624512,12.603292465209961,3.7274224758148193
7.297386646270752,12.68199634552002,3.660977602005005
6.665656089782715,12.742401123046875,3.5981459617614746
6.0469560623168945,12.785385131835938,3.538782835006714
4.437203407287598,10.44833755493164,2.840268135070801
4.120907783508301,10.901225090026855,2.915989398956299
4.007175922393799,12.042171478271484,3.1755239963531494
3.6031007766723633,12.48059368133545,3.2503111362457275
3.0578906536102295,12.448562622070312,3.207362413406372
1.503416895866394,7.39036226272583,1.8870246410369873
1.9988514184951782,12.346036911010742,3.129338264465332
1.4843755960464478,12.276476860046387,3.0940818786621094
0.9795058965682983,12.195273399353027,3.0612168312072754
0.4964098036289215,12.414606094360352,3.1087522506713867
-0.0026736482977867126,12.308365821838379,3.0796878337860107
-0.4927827715873718,12.191211700439453,3.0528650283813477
-0.9741877317428589,12.06341552734375,3.028224468231201
-1.4471640586853027,11.925213813781738,3.0057098865509033
-1.9119536876678467,11.776823997497559,2.985271453857422
-2.368797540664673,11.618431091308594,2.9668636322021484
-2.817931652069092,11.450179100036621,2.9504458904266357
-3.259564161300659,11.272211074829102,2.9359827041625977
-3.6938979625701904,11.084620475769043,2.9234421253204346
-4.1211395263671875,10.887493133544922,2.9127957820892334
-4.541445255279541,10.680885314941406,2.9040215015411377
-4.955000400543213,10.46483039855957,2.8971006870269775
-5.361957550048828,10.239336013793945,2.8920164108276367
-5.7624592781066895,10.00439453125,2.8887598514556885
-6.156626224517822,9.759979248046875,2.8873229026794434
-6.544583320617676,9.506030082702637,2.8877017498016357
-6.926437854766846,9.242481231689453,2.8898987770080566
-7.3022637367248535,8.969240188598633,2.8939170837402344
-7.672146797180176,8.68618392944336,2.8997669219970703
-8.036150932312012,8.393183708190918,2.9074602127075195
-8.208474159240723,7.91097354888916,2.8524322509765625
-8.55307674407959,7.604581832885742,2.8636295795440674
-8.892029762268066,7.287941932678223,2.8766889572143555
-9.225316047668457,6.9608473777771,2.8916404247283936
-9.5529203414917,6.623071670532227,2.908515691757202
-9.874809265136719,6.274345874786377,2.9273531436920166
-10.190919876098633,5.914411544799805,2.948193311691284
-10.50118350982666,5.542963027954102,2.9710824489593506
-10.805503845214844,5.159679889678955,2.9960734844207764
-11.103754043579102,4.764227867126465,3.0232200622558594
-11.395794868469238,4.356241703033447,3.052584171295166
-11.694059371948242,3.9395735263824463,3.0875606536865234
-12.230414390563965,3.5800726413726807,3.1885948181152344
-12.508853912353516,3.1219398975372314,3.2258574962615967
-12.780076026916504,2.649240732192993,3.2656972408294678
-13.043776512145996,2.1615071296691895,3.3082027435302734
-13.299639701843262,1.658164620399475,3.3534793853759766
-13.547276496887207,1.1386871337890625,3.4016308784484863
-13.786284446716309,0.6024860739707947,3.4527711868286133
-14.016180992126465,0.04894368350505829,3.507024049758911
-14.23646354675293,-0.5225663185119629,3.5645177364349365
-14.446554183959961,-1.1127188205718994,3.6253926753997803
-14.645834922790527,-1.7222189903259277,3.6897969245910645
-14.833602905273438,-2.351775884628296,3.7578861713409424
-15.009095191955566,-3.0021495819091797,3.8298282623291016
-15.171485900878906,-3.674128293991089,3.9058005809783936
-15.319842338562012,-4.3684892654418945,3.985988140106201
-15.128501892089844,-4.979232311248779,3.98507022857666
-15.243232727050781,-5.705325126647949,4.072422504425049
-15.340986251831055,-6.455808162689209,4.164515018463135
-15.420486450195312,-7.231569766998291,4.261576175689697
-15.480314254760742,-8.033446311950684,4.3638410568237305
-14.720892906188965,-8.406566619873047,4.241610050201416
-13.46553897857666,-8.424458503723145,3.974277973175049
-9.278484344482422,-6.3373332023620605,2.8114187717437744
-14.023028373718262,-10.428038597106934,4.372532844543457
-15.742069244384766,-12.719552993774414,5.0639119148254395
-15.64478588104248,-13.715455055236816,5.205788612365723
-15.513284683227539,-14.743489265441895,5.354936599731445
-15.34482192993164,-15.804166793823242,5.511660575866699
-15.136489868164062,-16.897817611694336,5.676258087158203
-7.9083147048950195,-9.576289176940918,3.107522964477539
-14.587451934814453,-19.184589385986328,6.030250549316406
-14.239862442016602,-20.37734031677246,6.220192909240723
-13.851821899414062,-21.62291717529297,6.425225257873535
-13.392544746398926,-22.880300521850586,6.633505344390869
-11.285102844238281,-21.18893814086914,6.006753444671631
-10.93263053894043,-22.678611755371094,6.2993645668029785
-10.915283203125,-25.18148422241211,6.867141246795654
-10.623591423034668,-27.484899520874023,7.372865676879883
-9.832127571105957,-28.83138084411621,7.62186861038208
-8.959145545959473,-30.19084358215332,7.879673004150391
-8.00057601928711,-31.557687759399414,8.145882606506348
-7.131340980529785,-33.77127456665039,8.636282920837402
-5.961293697357178,-35.16487503051758,8.92417049407959
-4.693603992462158,-36.541786193847656,9.218270301818848
-3.326425075531006,-37.891544342041016,9.517340660095215
-1.858873963356018,-39.202362060546875,9.819881439208984
-0.2913544476032257,-40.46440505981445,10.124899864196777
1.3744522333145142,-41.659854888916016,10.429425239562988
3.065889835357666,-41.830501556396484,10.494524002075195
1.8947044610977173,-16.644750595092773,4.191594123840332
6.112280368804932,-39.49953079223633,10.000842094421387
7.734127998352051,-39.42622375488281,10.052885055541992
9.377236366271973,-39.358802795410156,10.123648643493652
11.048224449157715,-39.29712677001953,10.213775634765625
12.75428295135498,-39.24113464355469,10.324162483215332
14.503043174743652,-39.19078826904297,10.4558687210083
7.239222526550293,-17.3826847076416,4.711440086364746
7.809759616851807,-16.815378189086914,4.639030456542969
14.920088768005371,-29.01348304748535,8.163135528564453
13.758170127868652,-24.301050186157227,6.98724365234375
13.92911434173584,-22.448875427246094,6.610363960266113
14.855154991149902,-21.92359161376953,6.626195907592773
14.839376449584961,-20.11046600341797,6.253462314605713
7.735219478607178,-9.646296501159668,3.0937719345092773
13.680009841918945,-15.72161865234375,5.21443510055542
13.66739273071289,-14.488241195678711,4.983575820922852
13.65518569946289,-13.3570556640625,4.779455661773682
13.264904022216797,-11.971233367919922,4.470788478851318
11.662049293518066,-9.703766822814941,3.7960104942321777
15.688726425170898,-12.021394729614258,4.945387840270996
16.991662979125977,-11.9679594039917,5.200228214263916
18.436920166015625,-11.907511711120605,5.491597652435303
16.076847076416016,-9.490485191345215,4.671209812164307
21.88346290588379,-11.759366989135742,6.21596097946167
23.974933624267578,-11.667318344116211,6.671413421630859
36.988094329833984,-16.196210861206055,10.103178977966309
36.4743537902832,-14.25391674041748,9.798405647277832
35.87324523925781,-12.382246971130371,9.49552059173584
35.19641876220703,-10.58670425415039,9.19627857208252
28.535377502441406,-7.347062110900879,7.3727240562438965
32.95179748535156,-7.086058616638184,8.43338394165039
32.12855529785156,-5.569207191467285,8.158798217773438
31.269746780395508,-4.134411334991455,7.892127513885498
31.034971237182617,-2.8405632972717285,7.7977495193481445
30.107418060302734,-1.5395702123641968,7.543050289154053
28.21111488342285,0.8260337114334106,7.061757564544678
27.25244903564453,1.8958369493484497,6.835341930389404
26.29237937927246,2.8941867351531982,6.61837911605835
25.334396362304688,3.824188470840454,6.4107561111450195
24.381450653076172,4.689017295837402,6.212301731109619
22.943645477294922,5.376483917236328,5.896266937255859
22.027496337890625,6.104894161224365,5.71928071975708
21.122438430786133,6.778759479522705,5.550564289093018
20.229793548583984,7.401083469390869,5.389830112457275
19.350658416748047,7.974708557128906,5.236791610717773
17.09111213684082,7.8608832359313965,4.7070231437683105
15.269973754882812,7.781053066253662,4.28816032409668
14.142592430114746,7.937780380249023,4.05790376663208
16.326242446899414,10.04647159576416,4.796451568603516
15.506401062011719,10.423249244689941,4.674932479858398
14.70292854309082,10.765196800231934,4.5594892501831055
13.915796279907227,11.074311256408691,4.44986629486084
13.14489459991455,11.35251522064209,4.345791816711426
12.390087127685547,11.601571083068848,4.2470173835754395
11.651138305664062,11.823142051696777,4.1533002853393555
10.927788734436035,12.01878547668457,4.064408779144287
10.219758987426758,12.189933776855469,3.9801316261291504
9.526703834533691,12.337929725646973,3.900249481201172
8.84830379486084,12.46403980255127,3.8245699405670166
8.184185028076172,12.569405555725098,3.7529077529907227
7.533998966217041,12.65511703491211,3.6850860118865967
6.897353172302246,12.722175598144531,3.620936870574951
6.273890972137451,12.771492958068848,3.560302495956421
5.663218975067139,12.803922653198242,3.503044366836548
4.24000358581543,10.732147216796875,2.887272357940674
3.9108259677886963,11.195446968078613,2.967216730117798
3.8071370124816895,12.489029884338379,3.266859531402588
3.257934093475342,12.461926460266113,3.222904682159424
2.719431161880493,12.42164421081543,3.181642770767212
2.191286087036133,12.368696212768555,3.1429755687713623
1.6731834411621094,12.303534507751465,3.1068150997161865
1.1648011207580566,12.226584434509277,3.0730764865875244
0.6658292412757874,12.138226509094238,3.041682004928589
0.18052300810813904,12.348876953125,3.090153455734253
-0.31286466121673584,12.23571491241455,3.0625109672546387
-0.7974551320075989,12.11181926727295,3.0370705127716064
-1.273510456085205,11.977433204650879,3.013777732849121
-1.7412794828414917,11.83278751373291,2.9925782680511475
-2.201028823852539,11.678070068359375,2.973426342010498
-2.6529834270477295,11.513442039489746,2.9562788009643555
-3.097363233566284,11.339046478271484,2.9410970211029053
-3.534372091293335,11.154998779296875,2.927849292755127
-3.964205741882324,10.961384773254395,2.9165070056915283
-4.387058734893799,10.758269309997559,2.9070444107055664
-4.803086280822754,10.545698165893555,2.8994412422180176
-5.212465286254883,10.323689460754395,2.8936803340911865
-5.615333557128906,10.092238426208496,2.8897500038146973
-6.011823654174805,9.851325988769531,2.887641668319702
-6.402065277099609,9.600905418395996,2.887350082397461
-6.786149978637695,9.34091854095459,2.888875722885132
-7.1641926765441895,9.071264266967773,2.892220973968506
-7.536266326904297,8.791842460632324,2.897392988204956
-7.902431488037109,8.502532005310059,2.904404401779175
-8.079803466796875,8.021553039550781,2.848764181137085
-8.42650318145752,7.718887805938721,2.8592796325683594
-8.767541885375977,7.406056880950928,2.8716485500335693
-9.102917671203613,7.082850933074951,2.8858978748321533
-9.432623863220215,6.74904203414917,2.9020586013793945
-9.75662612915039,6.404397487640381,2.9201667308807373
-10.074881553649902,6.048630237579346,2.94026255607605
-10.387310981750488,5.681467056274414,2.9623897075653076
-10.693839073181152,5.302597522735596,2.986598253250122
-10.994348526000977,4.911676406860352,3.01294207572937
-11.288701057434082,4.50836181640625,3.0414795875549316
-11.589226722717285,4.096686840057373,3.075591564178467
-12.125845909118652,3.745638847351074,3.1754705905914307
-12.40687370300293,3.2927603721618652,3.2118046283721924
-12.68078899383545,2.825500249862671,3.2506816387176514
-12.947314262390137,2.3433635234832764,3.2921926975250244
-13.2061128616333,1.8458434343338013,3.336434841156006
-13.45683479309082,1.3323918581008911,3.383511543273926
-13.69908332824707,0.8024278879165649,3.433535099029541
-13.932394027709961,0.255371630191803,3.4866232872009277
-14.156294822692871,-0.30943262577056885,3.54290509223938
-14.370216369628906,-0.8926299214363098,3.602515935897827
-14.57356071472168,-1.4948924779891968,3.665598154067993
-14.765664100646973,-2.1169631481170654,3.732309103012085
-14.945783615112305,-2.7595629692077637,3.8028082847595215
-15.113106727600098,-3.423450469970703,3.8772690296173096
-15.266764640808105,-4.109463214874268,3.955878973007202
-15.405756950378418,-4.818383693695068,4.038828372955322
-15.20278263092041,-5.4344353675842285,4.039628982543945
-15.30694580078125,-6.1758222579956055,4.129947185516357
-15.39334487915039,-6.942142009735107,4.22514533996582
-15.460604667663574,-7.734279155731201,4.3254618644714355
-15.228081703186035,-8.399100303649902,4.351365566253662
-13.910367965698242,-8.418220520019531,4.068253517150879
-9.262518882751465,-6.126911640167236,2.7787303924560547
-13.103399276733398,-9.445540428161621,4.041639804840088
-15.769850730895996,-12.359835624694824,5.013303756713867
-15.684551239013672,-13.344034194946289,5.15257453918457
-15.56598949432373,-14.360140800476074,5.299002170562744
-15.411504745483398,-15.408712387084961,5.452893257141113
-15.21824836730957,-16.49015998840332,5.61454963684082
-8.18945026397705,-9.622326850891113,3.1615445613861084
-14.702983856201172,-18.752456665039062,5.962335586547852
-14.374237060546875,-19.933170318603516,6.1490325927734375
-13.993253707885742,-21.146333694458008,6.344604015350342
-13.569080352783203,-22.41252899169922,6.555529594421387
-11.945385932922363,-21.64844512939453,6.186576843261719
-10.938543319702148,-21.855932235717773,6.115257263183594
-10.921937942504883,-24.206281661987305,6.644656181335449
-10.903120994567871,-27.00951385498047,7.287936687469482
-10.133630752563477,-28.33244514465332,7.5288872718811035
-9.291220664978027,-29.6877384185791,7.783484935760498
-8.36470890045166,-31.052562713623047,8.046647071838379
-7.363677501678467,-32.4800910949707,8.333113670349121
-6.404531955718994,-34.651763916015625,8.817097663879395
-5.173164367675781,-36.03598403930664,9.109033584594727
-3.842885971069336,-37.39705276489258,9.406426429748535
-2.412409543991089,-38.72370529174805,9.707880020141602
-0.8817170858383179,-40.005592346191406,10.01226806640625
0.748172402381897,-41.22710418701172,10.317171096801758
2.419750690460205,-41.43834686279297,10.385991096496582
4.197285175323486,-42.47015380859375,10.678268432617188
5.517610549926758,-39.52811813354492,9.986257553100586
7.1332173347473145,-39.45259475708008,10.031523704528809
8.767719268798828,-39.38301467895508,10.095305442810059
10.481526374816895,-39.52251052856445,10.230816841125488
12.119852066040039,-39.26115036010742,10.280988693237305
13.85193157196045,-39.20871353149414,10.404677391052246
13.835532188415527,-34.66164779663086,9.338107109069824
7.53931999206543,-16.884292602539062,4.626675605773926
14.928000450134277,-30.119274139404297,8.411019325256348
13.760480880737305,-25.168872833251953,7.177274227142334
13.743109703063965,-22.900604248046875,6.682603359222412
14.71353816986084,-22.42389678955078,6.710690498352051
14.845090866088867,-20.75587272644043,6.384955406188965
7.715552806854248,-9.919816970825195,3.1444318294525146
13.684794425964355,-16.206533432006836,5.307335376739502
13.671998977661133,-14.930834770202637,5.065479755401611
13.659650802612305,-13.763883590698242,4.8519673347473145
13.647659301757812,-12.68907356262207,4.662734508514404
11.67659854888916,-10.012752532958984,3.8486826419830322
15.238724708557129,-12.039587020874023,4.859314918518066
16.49534797668457,-11.988441467285156,5.102213382720947
17.884960174560547,-11.930731773376465,5.379327297210693
16.031124114990234,-9.787090301513672,4.6996026039123535
21.18059730529785,-11.789971351623535,6.065338611602783
23.168180465698242,-11.702987670898438,6.4945268630981445
37.153316497802734,-16.929826736450195,10.215799331665039
22.526018142700195,-9.190550804138184,6.087319374084473
36.10462951660156,-13.064751625061035,9.607023239135742
35.45444107055664,-11.240549087524414,9.306249618530273
30.041580200195312,-8.212007522583008,7.792508602142334
31.295164108276367,-7.217198371887207,8.035922050476074
32.437110900878906,-6.119729042053223,8.259302139282227
31.590492248535156,-4.654656887054443,7.989630222320557
31.372303009033203,-3.3414456844329834,7.894093990325928
30.452003479003906,-2.010528802871704,7.636014461517334
29.513996124267578,-0.7600226402282715,7.3871750831604
28.563936233520508,0.41238123178482056,7.147757053375244
20.261356353759766,-4.043564796447754,5.35243558883667
29.969505310058594,-4.738142013549805,7.860363960266113
29.832151412963867,-3.4948630332946777,7.781202793121338
29.022310256958008,-2.22271466255188,7.540567874908447
28.189350128173828,-1.022468090057373,7.307565212249756
27.338817596435547,0.10733875632286072,7.082479000091553
26.47566795349121,1.1685470342636108,6.86549186706543
25.60422134399414,2.1632866859436035,6.656691074371338
24.728302001953125,3.0939531326293945,6.456089019775391
23.85122299194336,3.96304988861084,6.263636589050293
22.597518920898438,4.694597244262695,5.979134559631348
21.640140533447266,5.4109039306640625,5.778709888458252
20.793262481689453,6.096395492553711,5.613476753234863
19.95417022705078,6.731957912445068,5.45560884475708
19.124292373657227,7.320127487182617,5.30488920211792
18.30478286743164,7.863368034362793,5.161088943481445
15.950393676757812,7.624922752380371,4.579995155334473
14.583915710449219,7.706106185913086,4.273129940032959
13.52791976928711,7.858941078186035,4.053023815155029
12.564652442932129,7.99111795425415,3.857560396194458
14.698543548583984,10.200021743774414,4.634846210479736
13.939225196838379,10.527204513549805,4.52520751953125
13.193912506103516,10.823395729064941,4.420939922332764
12.462625503540039,11.090290069580078,4.321817874908447
11.745332717895508,11.329519271850586,4.227605819702148
11.04193115234375,11.542560577392578,4.138115882873535
10.352285385131836,11.730841636657715,4.053126811981201
9.676200866699219,11.89567756652832,3.9724631309509277
9.013459205627441,12.038290023803711,3.8959290981292725
8.363835334777832,12.159836769104004,3.823349714279175
7.727058410644531,12.261383056640625,3.754567861557007
7.102859020233154,12.343927383422852,3.689422369003296
6.490932464599609,12.408395767211914,3.62776255607605
5.8909993171691895,12.455633163452148,3.569455146789551
4.367373466491699,10.283906936645508,2.894451379776001
4.054355621337891,10.725172996520996,2.970370054244995
4.056643009185791,12.190841674804688,3.328434944152832
3.515439987182617,12.176953315734863,3.283402442932129
2.9844541549682617,12.14960765838623,3.241058349609375
1.505327582359314,7.399753570556641,1.956251859664917
1.9519906044006348,12.05659008026123,3.164062976837158
1.4499566555023193,11.991826057434082,3.129241466522217
0.9570267796516418,11.915438652038574,3.096766233444214
0.485131174325943,12.132558822631836,3.1455838680267334
-0.0026171281933784485,12.031286239624023,3.116837739944458
-0.4817822575569153,11.919106483459473,3.0902976989746094
-0.9526176452636719,11.79628849029541,3.065906524658203
-1.4153493642807007,11.663067817687988,3.043612480163574
-1.870204210281372,11.51966381072998,3.0233683586120605
-2.317382335662842,11.366257667541504,3.0051307678222656
-2.757101535797119,11.203006744384766,2.9888603687286377
-3.189534902572632,11.03004264831543,2.9745240211486816
-3.614874839782715,10.847480773925781,2.962090015411377
-4.033288955688477,10.655397415161133,2.9515326023101807
-4.444917678833008,10.453869819641113,2.942830801010132
-4.849930763244629,10.242921829223633,2.9359664916992188
-5.248453140258789,10.022584915161133,2.9309229850769043
-5.640612602233887,9.792848587036133,2.92769193649292
-6.02650785446167,9.55370044708252,2.9262664318084717
-6.406250953674316,9.305097579956055,2.9266419410705566
-6.779919147491455,9.04697036743164,2.9288220405578613
-7.147585391998291,8.779251098632812,2.9328086376190186
-7.509313583374023,8.501826286315918,2.9386110305786133
-7.865146636962891,8.214584350585938,2.946241617202759
-8.033185958862305,7.742037296295166,2.8902578353881836
-8.369731903076172,7.441565990447998,2.9013588428497314
-8.7005615234375,7.131018161773682,2.914306402206421
-9.025666236877441,6.8102030754089355,2.9291248321533203
-9.344996452331543,6.478919982910156,2.9458470344543457
-9.658517837524414,6.136918544769287,2.9645087718963623
-9.966151237487793,5.783966064453125,2.985147476196289
-10.26781177520752,5.41978120803833,3.007809638977051
-10.563398361206055,5.044072151184082,3.0325419902801514
-10.852761268615723,4.656537055969238,3.0593979358673096
-11.135758399963379,4.256837844848633,3.088435411453247
-11.412210464477539,3.844615936279297,3.119718074798584
-11.945473670959473,3.4966647624969482,3.2244603633880615
-12.214095115661621,3.048374652862549,3.2612547874450684
-12.475295066833496,2.58606219291687,3.3005707263946533
-12.728758811950684,2.1093051433563232,3.3424930572509766
-12.974157333374023,1.6175843477249146,3.3871190547943115
-13.211091041564941,1.1104295253753662,3.434546709060669
-13.439146041870117,0.5873154401779175,3.484882116317749
-13.657855987548828,0.047692492604255676,3.5382394790649414
-13.866694450378418,-0.5089935660362244,3.594738245010376
-14.06508731842041,-1.0833369493484497,3.654508590698242
-14.252416610717773,-1.6759564876556396,3.717686414718628
-14.427995681762695,-2.2874698638916016,3.784414529800415
-14.591050148010254,-2.918531894683838,3.854846239089966
-14.740771293640137,-3.569819688796997,3.9291436672210693
-14.876243591308594,-4.241996765136719,4.00747537612915
-14.996496200561523,-4.935787677764893,4.09002161026001
-14.783186912536621,-5.533135890960693,4.089211463928223
-14.867840766906738,-6.256697177886963,4.178831100463867
-14.934155464172363,-7.003499984741211,4.2731547355651855
-14.980759620666504,-7.774204730987549,4.3723883628845215
-14.686898231506348,-8.387151718139648,4.381496429443359
-13.436394691467285,-8.40622615814209,4.10594367980957
-9.288641929626465,-6.344271183013916,2.9140472412109375
-12.673162460327148,-9.424229621887207,4.091399669647217
-15.166951179504395,-12.254858016967773,5.051476001739502
-15.057806015014648,-13.200862884521484,5.187695026397705
-14.915205001831055,-14.175088882446289,5.330594539642334
-14.736614227294922,-15.177748680114746,5.480422019958496
-14.519355773925781,-16.208866119384766,5.637413024902344
-7.89297342300415,-9.557710647583008,3.2111947536468506
-13.957205772399902,-18.355730056762695,5.973794937133789
-13.606119155883789,-19.470449447631836,6.1535844802856445
-13.20394229888916,-20.611549377441406,6.341335773468018
-12.75936222076416,-21.798545837402344,6.543416976928711
-11.270268440246582,-21.161090850830078,6.211041450500488
-10.951093673706055,-22.716915130615234,6.533191204071045
-10.749523162841797,-24.799083709716797,7.002062797546387
-10.054865837097168,-26.01350212097168,7.224982261657715
-9.28897476196289,-27.23866081237793,7.455511093139648
-8.44842529296875,-28.469823837280273,7.693314075469971
-7.530004978179932,-29.701555252075195,7.937941074371338
-6.698733329772949,-31.722627639770508,8.399324417114258
-5.588359832763672,-32.965049743652344,8.661800384521484
-4.390932559967041,-34.18535232543945,8.928845405578613
-3.1054153442382812,-35.37403106689453,9.1992769241333
-1.7317167520523071,-36.5206298828125,9.471701622009277
-0.2708280384540558,-37.613739013671875,9.7445068359375
1.2748585939407349,-38.641021728515625,10.015830993652344
2.838052749633789,-38.72187805175781,10.058236122131348
1.881908655166626,-16.532329559326172,4.310541152954102
6.135138034820557,-39.64720153808594,10.393291473388672
7.763200283050537,-39.57438278198242,10.447572708129883
9.412711143493652,-39.50775909423828,10.521392822265625
11.090415000915527,-39.44718551635742,10.615427017211914
12.803523063659668,-39.392601013183594,10.730592727661133
14.559746742248535,-39.343990325927734,10.868021011352539
7.225398540496826,-17.349491119384766,4.868770599365234
7.799943923950195,-16.79425048828125,4.797079086303711
14.89599609375,-28.966638565063477,8.43822193145752
13.73757266998291,-24.264677047729492,7.223555564880371
13.910432815551758,-22.418764114379883,6.834996223449707
14.835663795471191,-21.89482307434082,6.851564407348633
14.821001052856445,-20.0855712890625,6.4666337966918945
7.723984241485596,-9.632287979125977,3.19854736328125
13.664715766906738,-15.704046249389648,5.392837047576904
13.652787208557129,-14.472761154174805,5.15433406829834
13.641190528869629,-13.343369483947754,4.943435192108154
13.952720642089844,-12.591967582702637,4.868940830230713
11.645358085632324,-9.6898775100708,3.924651622772217
15.660049438476562,-11.999418258666992,5.110947608947754
16.95899772644043,-11.944955825805664,5.373812198638916
18.399505615234375,-11.883343696594238,5.674298286437988
16.051118850708008,-9.475296974182129,4.8286919593811035
21.83320426940918,-11.732359886169434,6.421040058135986
23.915849685668945,-11.638565063476562,6.890360355377197
34.38893508911133,-15.05809497833252,9.725467681884766
33.98332977294922,-13.280436515808105,9.452120780944824
33.49397277832031,-11.561001777648926,9.179323196411133
27.73594093322754,-8.342680931091309,7.503310680389404
28.42092514038086,-7.317596912384033,7.602883815765381
20.237504959106445,-4.351932525634766,5.362600803375244
20.530038833618164,-3.5586984157562256,5.397844314575195
29.491201400756836,-3.899257183074951,7.706511974334717
29.32433319091797,-2.683992624282837,7.628547668457031
28.49921226501465,-1.4573328495025635,7.3926849365234375
26.795536041259766,0.7845849990844727,6.9446563720703125
25.92668342590332,1.8036088943481445,6.7328267097473145
25.052001953125,2.757650136947632,6.529200553894043
24.174989700317383,3.6491787433624268,6.333747863769531
23.298664093017578,4.480775833129883,6.146385192871094
21.954452514648438,5.144682884216309,5.841617107391357
21.105112075805664,5.849256992340088,5.673613548278809
20.26300048828125,6.502940654754639,5.513055801391602
19.4295597076416,7.108317852020264,5.359722137451172
18.60610008239746,7.667864799499512,5.213394641876221
17.077735900878906,7.854732036590576,4.869699001312256
15.000504493713379,7.643742561340332,4.361483097076416
13.906203269958496,7.805096626281738,4.13120698928833
12.910441398620605,7.944519996643066,3.9271023273468018
14.98241901397705,10.071029663085938,4.676722526550293
14.217954635620117,10.410103797912598,4.565049648284912
13.4674654006958,10.717531204223633,4.458832263946533
12.731000900268555,10.995059967041016,4.357827186584473
12.008545875549316,11.244316101074219,4.261828899383545
11.300032615661621,11.466856002807617,4.170623779296875
10.605325698852539,11.6641206741333,4.083996772766113
9.924257278442383,11.83746337890625,4.0017571449279785
9.256613731384277,11.988143920898438,3.9237170219421387
8.602179527282715,12.117340087890625,3.849700689315796
7.960692405700684,12.22614574432373,3.779538154602051
7.331875801086426,12.315603256225586,3.713066339492798
6.715445518493652,12.386634826660156,3.650136709213257
6.111114025115967,12.44014835357666,3.590602397918701
4.478172779083252,10.124651908874512,2.868011951446533
4.1721906661987305,10.560506820678711,2.9415855407714844
3.936610698699951,11.269251823425293,3.092421293258667
3.714055061340332,12.183675765991211,3.299710988998413
3.179328680038452,12.161236763000488,3.256385326385498
2.654632568359375,12.1256742477417,3.2156875133514404
2.139690637588501,12.077483177185059,3.1775269508361816
1.6342313289642334,12.017114639282227,3.141819953918457
1.1379716396331787,11.94497013092041,3.108487606048584
0.6593325138092041,12.019756317138672,3.1185314655303955
0.1764453500509262,12.069958686828613,3.127190113067627
-0.3058605492115021,11.961777687072754,3.099841833114624
-0.7797465324401855,11.842854499816895,3.0746641159057617
-1.2454441785812378,11.713449478149414,3.0516018867492676
-1.7031643390655518,11.5737886428833,3.0306077003479004
-2.1531543731689453,11.424053192138672,3.0116333961486816
-2.595602035522461,11.264418601989746,2.994640827178955
-3.030710220336914,11.095026969909668,2.9795939922332764
-3.4586477279663086,10.916000366210938,2.9664604663848877
-3.879591464996338,10.727425575256348,2.955214023590088
-4.293718338012695,10.529374122619629,2.945829153060913
-4.701157569885254,10.32190227508545,2.9382877349853516
-5.1020636558532715,10.105030059814453,2.9325735569000244
-5.496557712554932,9.878764152526855,2.9286744594573975
-5.884749412536621,9.643096923828125,2.9265830516815186
-6.2667555809021,9.397987365722656,2.9262940883636475
-6.6426520347595215,9.143394470214844,2.927806854248047
-7.012524127960205,8.879223823547363,2.931126356124878
-7.376443386077881,8.605393409729004,2.9362566471099854
-7.734447002410889,8.321789741516113,2.9432106018066406
-8.086581230163574,8.028282165527344,2.9520015716552734
-8.246138572692871,7.5536675453186035,2.8970465660095215
-8.579078674316406,7.246860980987549,2.9093098640441895
-8.906299591064453,6.92986536026001,2.9234330654144287
-9.227768898010254,6.602466583251953,2.9394500255584717
-9.543436050415039,6.2644572257995605,2.957390785217285
-9.853259086608887,5.915576457977295,2.977294445037842
-10.157137870788574,5.555572032928467,2.999203681945801
-10.454976081848145,5.18415641784668,3.023165702819824
-10.746658325195312,4.801021575927734,3.0492303371429443
-11.032024383544922,4.405852794647217,3.07745623588562
-11.310911178588867,3.998300075531006,3.1079025268554688
-11.84446907043457,3.658724308013916,3.2114970684051514
-12.115762710571289,3.215500593185425,3.247380495071411
-12.379734992980957,2.7584197521209717,3.2857556343078613
-12.636100769042969,2.287036180496216,3.3267064094543457
-12.884516716003418,1.8008931875228882,3.370323419570923
-13.124624252319336,1.2994987964630127,3.4167046546936035
-13.3560152053833,0.7823327779769897,3.4659535884857178
-13.578227043151855,0.2488800585269928,3.5181806087493896
-13.79077434539795,-0.3014429807662964,3.5735056400299072
-13.993096351623535,-0.869204580783844,3.6320533752441406
-14.184587478637695,-1.4549933671951294,3.6939549446105957
-14.364588737487793,-2.059460401535034,3.7593557834625244
-14.532358169555664,-2.6832284927368164,3.828402042388916
-14.687097549438477,-3.3269498348236084,3.9012503623962402
-14.82794189453125,-3.991342306137085,3.9780733585357666
-14.953936576843262,-4.677069187164307,4.059041976928711
-14.747539520263672,-5.271703720092773,4.057269096374512
-14.838651657104492,-5.986880302429199,4.145205497741699
-14.91188907623291,-6.725012302398682,4.237767219543457
-14.965932846069336,-7.486818313598633,4.335164546966553
-14.999364852905273,-8.272950172424316,4.4376068115234375
-13.879551887512207,-8.399571418762207,4.202818870544434
-9.267929077148438,-6.130492210388184,2.8786966800689697
-12.997783660888672,-9.369407653808594,4.1508660316467285
-15.199264526367188,-11.912632942199707,5.002819538116455
-15.101873397827148,-12.848306655883789,5.1366353034973145
-14.971911430358887,-13.81208610534668,5.277039527893066
-14.80690860748291,-14.804224967956543,5.424280166625977
-14.604249000549316,-15.824850082397461,5.5786004066467285
-8.173284530639648,-9.603333473205566,3.2669079303741455
-14.074602127075195,-17.951007843017578,5.909391403198242
-13.741515159606934,-19.05575180053711,6.086284637451172
-13.358590126037598,-20.1872501373291,6.271081447601318
-12.922395706176758,-21.344383239746094,6.46392822265625
-11.929558753967285,-21.61976432800293,6.39691162109375
-10.956475257873535,-21.89177131652832,6.341939449310303
-10.94139575958252,-24.249391555786133,6.891933441162109
-10.319457054138184,-25.563629150390625,7.141773700714111
-9.580275535583496,-26.78533363342285,7.369526386260986
-8.767679214477539,-28.0148868560791,7.604691505432129
-7.878369331359863,-29.247087478637695,7.846858501434326
-7.087066650390625,-31.260005950927734,8.303764343261719
-6.008381366729736,-32.50843048095703,8.564302444458008
-4.843276023864746,-33.737937927246094,8.829784393310547
-3.590350389480591,-34.939456939697266,9.099114418029785
-2.2491397857666016,-36.102901458740234,9.37098503112793
-0.8202597498893738,-37.217124938964844,9.64384651184082
0.6945099830627441,-38.27021408081055,9.915953636169434
2.241649866104126,-38.388370513916016,9.961871147155762
3.880312919616699,-39.262916564941406,10.221041679382324
5.538218975067139,-39.67567443847656,10.378067970275879
7.159964561462402,-39.60054397583008,10.425291061401367
8.800808906555176,-39.53165054321289,10.491826057434082
10.467297554016113,-39.46884536743164,10.578302383422852
12.166449546813965,-39.41205596923828,10.685546875
13.905804634094238,-39.36124038696289,10.81460189819336
13.807875633239746,-34.592376708984375,9.649076461791992
7.529097080230713,-16.861412048339844,4.783830165863037
14.903162956237793,-30.069156646728516,8.694029808044434
13.739313125610352,-25.13015365600586,7.419706344604492
13.723424911499023,-22.86781120300293,6.909062385559082
14.693510055541992,-22.393362045288086,6.9385905265808105
14.826321601867676,-20.729637145996094,6.602437496185303
7.706318378448486,-9.907950401306152,3.251756191253662
8.121471405029297,-9.61803913116455,3.261134147644043
13.657150268554688,-14.91462516784668,5.238952159881592
13.645439147949219,-13.749566078186035,5.018357753753662
13.634013175964355,-12.676387786865234,4.822831153869629
11.675028800964355,-10.011405944824219,3.984276056289673
15.211350440979004,-12.017959594726562,5.022154331207275
16.464231491088867,-11.965832710266113,5.272716522216797
17.84939956665039,-11.907011032104492,5.558521747589111
16.02627182006836,-9.784128189086914,4.86435604095459
21.133136749267578,-11.76354694366455,6.265799045562744
23.11259651184082,-11.674907684326172,6.7081074714660645
34.5154914855957,-15.727837562561035,9.826175689697266
22.48832130432129,-9.17516803741455,6.292081356048584
33.68377685546875,-12.188752174377441,9.279882431030273
33.14676284790039,-10.508917808532715,9.008259773254395
27.016204833984375,-7.385006904602051,7.255621910095215
20.512346267700195,-4.730500221252441,5.453429222106934
20.346670150756836,-3.838686466217041,5.364017009735107
29.77277374267578,-4.3868279457092285,7.796242713928223
29.622896194458008,-3.1551172733306885,7.717546463012695
28.806428909301758,-1.9018847942352295,7.478872299194336
27.96837615966797,-0.7202210426330566,7.247919082641602
27.114091873168945,0.39144936203956604,7.024937152862549
19.56525230407715,-3.9046432971954346,5.345874786376953
21.92889404296875,-3.4669246673583984,5.948810577392578
28.237712860107422,-3.3080735206604004,7.618020534515381
27.516632080078125,-2.107400894165039,7.394654273986816
26.769811630249023,-0.970979630947113,7.177667617797852
26.00243377685547,0.10209199786186218,6.96738862991333
25.219242095947266,1.1130924224853516,6.764057159423828
24.424407958984375,2.063605308532715,6.567821025848389
23.621652603149414,2.955490827560425,6.37875509262085
22.814250946044922,3.79075026512146,6.196874141693115
22.005083084106445,4.5715179443359375,6.022141933441162
20.75128746032715,5.188655376434326,5.731473922729492
19.962646484375,5.8528642654418945,5.57413911819458
19.178619384765625,6.47030782699585,5.4234700202941895
18.40073585510254,7.043178081512451,5.279305934906006
17.63032341003418,7.573634147644043,5.141472816467285
16.338415145874023,7.81041145324707,4.852370262145996
14.334994316101074,7.57457971572876,4.34430456161499
13.308730125427246,7.73160457611084,4.124156951904297
12.370731353759766,7.867786884307861,3.928333044052124
14.2202730178833,9.868134498596191,4.637872695922852
13.496047973632812,10.19250202178955,4.531661033630371
12.783802032470703,10.486957550048828,4.4304914474487305
12.083664894104004,10.75306510925293,4.334164142608643
11.395736694335938,10.992298126220703,4.2425007820129395
10.720026016235352,11.206063270568848,4.155308723449707
10.056501388549805,11.395676612854004,4.072413444519043
9.405082702636719,11.562374114990234,3.993628740310669
8.765645027160645,11.707310676574707,3.918802261352539
8.138040542602539,11.831575393676758,3.847771406173706
7.522109031677246,11.936171531677246,3.7803919315338135
6.917657852172852,12.022065162658691,3.716503858566284
6.324437618255615,12.090115547180176,3.655989646911621
5.742264270782471,12.14116096496582,3.598701238632202
4.299419403076172,10.1239013671875,2.9471778869628906
3.9896459579467773,10.55398941040039,3.0232458114624023
3.9586002826690674,11.896188735961914,3.359422445297241
3.431591272354126,11.886519432067871,3.3150546550750732
2.914167642593384,11.863472938537598,3.2733094692230225
1.5072505474090576,7.409209728240967,2.0259552001953125
1.9070866107940674,11.779239654541016,3.197336196899414
1.4169607162475586,11.718935012817383,3.1629490852355957
0.9354710578918457,11.647035598754883,3.130863666534424
0.4743073880672455,11.861906051635742,3.1809282302856445
-0.0025568827986717224,11.76529312133789,3.152500867843628
-0.4712212383747101,11.657788276672363,3.1262457370758057
-0.9318926334381104,11.53965950012207,3.102107524871826
-1.384779930114746,11.411142349243164,3.080037832260132
-1.8300666809082031,11.272455215454102,3.0599915981292725
-2.2679443359375,11.123779296875,3.041926622390747
-2.6985952854156494,10.965276718139648,3.025806188583374
-3.1221725940704346,10.797082901000977,3.011599063873291
-3.5388376712799072,10.619314193725586,2.999274730682373
-3.948746919631958,10.432056427001953,2.98880934715271
-4.352017402648926,10.235383987426758,2.980181932449341
-4.748798847198486,10.029335021972656,2.973374605178833
-5.139191627502441,9.813942909240723,2.968374252319336
-5.523313999176025,9.58920669555664,2.965169906616211
-5.901247024536133,9.355130195617676,2.9637558460235596
-6.273076057434082,9.111666679382324,2.9641284942626953
-6.638879776000977,8.858769416809082,2.96628999710083
-6.998697757720947,8.596373558044434,2.970243453979492
-7.35258674621582,8.324384689331055,2.9759976863861084
-7.700578212738037,8.042703628540039,2.9835634231567383
-8.042689323425293,7.751193523406982,2.9929566383361816
-8.193334579467773,7.284733772277832,2.9376587867736816
-8.51639461517334,6.980071544647217,2.9504902362823486
-8.83366870880127,6.6653313636779785,2.9651737213134766
-9.145092964172363,6.340325832366943,2.9817397594451904
-9.450628280639648,6.004828929901123,3.0002214908599854
-9.750178337097168,5.6586222648620605,3.0206570625305176
-10.043651580810547,5.301459312438965,3.0430867671966553
-10.33092975616455,4.933067798614502,3.067558526992798
-10.611855506896973,4.553172588348389,3.0941216945648193
-10.886275291442871,4.161468029022217,3.1228318214416504
-11.405667304992676,3.842412233352661,3.2249038219451904
-11.672355651855469,3.4167182445526123,3.258838176727295
-11.931721687316895,2.977900505065918,3.2951645851135254
-12.183491706848145,2.5255725383758545,3.3339602947235107
-12.42733097076416,2.0593552589416504,3.3753039836883545
-12.662912368774414,1.5787792205810547,3.4192874431610107
-12.889837265014648,1.08342707157135,3.466000556945801
-13.107672691345215,0.5728296041488647,3.5155444145202637
-13.315963745117188,0.04649851471185684,3.568023443222046
-13.514169692993164,-0.4960537552833557,3.623549699783325
-13.701730728149414,-1.055350661277771,3.6822421550750732
-13.878026008605957,-1.631931185722351,3.744227409362793
-14.042359352111816,-2.226330280303955,3.809635639190674
-14.194001197814941,-2.839113235473633,3.8786072731018066
-14.332131385803223,-3.4708592891693115,3.9512906074523926
-14.455865859985352,-4.122123718261719,4.02783727645874
-14.564239501953125,-4.793517589569092,4.1084113121032715
-14.348285675048828,-5.370357513427734,4.105082035064697
-14.42115306854248,-6.068720817565918,4.192347049713135
-14.4756498336792,-6.788480281829834,4.2840704917907715
-14.510486602783203,-7.530158042907715,4.380434989929199
-14.524238586425781,-8.294261932373047,4.481630802154541
-13.40725326538086,-8.387993812561035,4.237605094909668
-9.29886531829834,-6.351253509521484,3.017343282699585
-11.431212425231934,-8.500672340393066,3.8170688152313232
-14.63015365600586,-11.821125030517578,5.03986930847168
-14.51102066040039,-12.721502304077148,5.170839786529541
-11.402087211608887,-10.836296081542969,4.214840888977051
-14.172451972961426,-14.596696853637695,5.451445579528809
-13.948209762573242,-15.571261405944824,5.60146427154541
-7.877620697021484,-9.539122581481934,3.314910411834717
-13.376785278320312,-17.592388153076172,5.9218010902404785
-13.023995399475098,-18.637422561645508,6.092400550842285
-12.62254524230957,-19.7039852142334,6.270101070404053
-12.169355392456055,-20.790557861328125,6.454965591430664
-11.255412101745605,-21.133195877075195,6.415669918060303
-10.860654830932617,-22.529293060302734,6.701531410217285
-10.246482849121094,-23.638582229614258,6.903388500213623
-9.541840553283691,-24.68624496459961,7.091585159301758
-8.800704002380371,-25.806869506835938,7.305963039398193
-7.990942478179932,-26.92816925048828,7.526376724243164
-7.2932047843933105,-28.76752471923828,7.952096462249756
-6.314067363739014,-29.90093421936035,8.188615798950195
-5.258011341094971,-31.0163516998291,8.429381370544434
-4.123854160308838,-32.10600280761719,8.673453330993652
-2.911163806915283,-33.16130065917969,8.919719696044922
-1.620398759841919,-34.17287063598633,9.166882514953613
-0.25295114517211914,-35.13066482543945,9.413479804992676
1.1885077953338623,-36.02392578125,9.657835006713867
2.7002334594726562,-36.841522216796875,9.898136138916016
1.873149037361145,-16.455347061157227,4.4376726150512695
5.912973880767822,-38.21151351928711,10.360603332519531
7.598489761352539,-38.734764099121094,10.576763153076172
9.324283599853516,-39.1365966796875,10.780142784118652
11.079062461853027,-39.40679931640625,10.968393325805664
12.850141525268555,-39.53610610961914,11.139180183410645
14.623676300048828,-39.51675796508789,11.290258407592773
7.211802005767822,-17.31684112548828,5.02633810043335
7.790131568908691,-16.77311134338379,4.955419540405273
14.87187671661377,-28.91972541809082,8.713598251342773
13.716948509216309,-24.228248596191406,7.460174560546875
13.891716957092285,-22.38860321044922,7.059989929199219
14.816141128540039,-21.866018295288086,7.077314376831055
14.802591323852539,-20.060626983642578,6.680192470550537
7.712735176086426,-9.618260383605957,3.3034706115722656
13.649389266967773,-15.686426162719727,5.571603775024414
13.638152122497559,-14.457242965698242,5.325459957122803
13.627164840698242,-13.32965087890625,5.107784271240234
13.9293212890625,-12.570855140686035,5.027547359466553
11.628643989562988,-9.675969123840332,4.053477764129639
15.631345748901367,-11.977428436279297,5.276613235473633
16.926328659057617,-11.921941757202148,5.547476768493652
18.362079620361328,-11.859170913696289,5.85704231262207
16.025360107421875,-9.460089683532715,4.986347198486328
21.782960891723633,-11.705360412597656,6.626060485839844
23.856796264648438,-11.60982894897461,7.109167575836182
32.121978759765625,-14.065450668334961,9.396029472351074
31.802000045776367,-12.427998542785645,9.14889144897461
31.402250289916992,-10.839003562927246,8.90133285522461
24.682292938232422,-7.424170970916748,6.906304836273193
28.30691909790039,-7.2882399559021,7.832188129425049
19.523334503173828,-4.198354721069336,5.3508524894714355
19.96476173400879,-3.4607126712799072,5.429317951202393
28.496307373046875,-3.767714500427246,7.702017307281494
27.78616714477539,-2.543208122253418,7.476405620574951
