37.88933563232422,-29.951833724975586,3.014481544494629
56.4659538269043,-41.0618782043457,4.357583045959473
57.42000198364258,-38.32667541503906,4.308820724487305
58.33869171142578,-35.63810348510742,4.266797065734863
59.2252197265625,-32.988433837890625,4.231217384338379
35.509918212890625,-31.120758056640625,3.3411781787872314
37.44606018066406,-30.24641990661621,3.406181812286377
39.49946594238281,-29.363475799560547,3.482773542404175
55.908119201660156,-38.172889709472656,4.790372848510742
56.82793045043945,-35.54066467285156,4.742922306060791
55.830772399902344,-31.871095657348633,4.549090385437012
58.56912612915039,-30.38235855102539,4.668915271759033
59.396087646484375,-27.842742919921875,4.641849517822266
60.19720458984375,-25.32096290588379,4.621163845062256
60.97472381591797,-22.81088638305664,4.606741905212402
61.73070526123047,-20.30651092529297,4.598455905914307
62.467010498046875,-17.801881790161133,4.596283912658691
55.98677062988281,-13.549065589904785,4.0761003494262695
54.57609176635742,-10.907407760620117,3.9382848739624023
53.25739669799805,-8.43493366241455,3.81557559967041
53.2419319152832,-6.252169609069824,3.793395519256592
55.520286560058594,-4.267468452453613,3.9403176307678223
56.789703369140625,-2.075526714324951,4.021237373352051
58.10052490234375,0.21210527420043945,4.111337661743164
60.655967712402344,2.6604037284851074,4.296265602111816
67.48699188232422,5.683236122131348,4.792420864105225
69.09255981445312,8.625415802001953,4.9270782470703125
68.86612701416016,11.42313289642334,4.939699172973633
68.80424499511719,14.274221420288086,4.972403526306152
70.65481567382812,17.645891189575195,5.1532440185546875
71.5551986694336,20.95795440673828,5.276101112365723
72.17024993896484,24.326038360595703,5.3892107009887695
72.78789520263672,27.837745666503906,5.514454364776611
73.4097671508789,31.511428833007812,5.652976989746094
74.03759002685547,35.367835998535156,5.806122779846191
74.6732177734375,39.43088150024414,5.9754638671875
75.01467895507812,43.55154800415039,6.137936115264893
75.97669219970703,48.29182434082031,6.370357513427734
66.71541595458984,46.269771575927734,5.745183944702148
74.04669952392578,55.88957214355469,6.564703464508057
74.77186584472656,61.303253173828125,6.841972827911377
72.98395538330078,64.91118621826172,6.911581993103027
64.51803588867188,62.1995735168457,6.341543674468994
61.319671630859375,64.06446838378906,6.275264263153076
40.538387298583984,45.9111442565918,4.333961486816406
47.234535217285156,68.6317367553711,5.895550727844238
10.76861572265625,-94.83314514160156,6.7537150382995605
14.247771263122559,-92.24119567871094,6.604579448699951
17.4840087890625,-89.2579345703125,6.436104774475098
33.556095123291016,-90.7535629272461,6.846834659576416
35.95156478881836,-86.39306640625,6.621557712554932
38.01029968261719,-81.89973449707031,6.389130592346191
39.8187141418457,-77.48347473144531,6.164515495300293
41.68126678466797,-73.66883850097656,5.989505290985107
42.301761627197266,-68.21752166748047,5.67997932434082
43.33032989501953,-63.985782623291016,5.468266010284424
46.21675491333008,-62.66950988769531,5.510111331939697
39.56057357788086,-49.362274169921875,4.476320743560791
30.974647521972656,-35.61707305908203,3.3400940895080566
32.47417449951172,-34.443485260009766,3.349760055541992
32.97126770019531,-32.26919174194336,3.264582872390747
34.81344985961914,-31.435590744018555,3.3191635608673096
36.72239303588867,-30.573068618774414,3.3812427520751953
38.708370208740234,-29.677038192749023,3.451467275619507
55.55931091308594,-39.15576171875,4.809741020202637
56.4924201965332,-36.50776290893555,4.759603023529053
57.39057159423828,-33.900123596191406,4.716635704040527
58.25682067871094,-31.325788497924805,4.680543422698975
59.09388732910156,-28.777999877929688,4.651088237762451
59.9042854309082,-26.250329971313477,4.628072738647461
60.690284729003906,-23.73665428161621,4.611344814300537
61.45396423339844,-21.230863571166992,4.60080623626709
62.19734191894531,-18.726999282836914,4.596376895904541
56.53376007080078,-14.572519302368164,4.1312055587768555
55.08550262451172,-11.861711502075195,3.9873015880584717
53.73443603515625,-9.329716682434082,3.8592443466186523
52.467193603515625,-6.951788425445557,3.745128631591797
55.06090545654297,-5.054890155792236,3.9126057624816895
56.316497802734375,-2.895362377166748,3.9903311729431152
58.951438903808594,1.7098650932312012,4.173277854919434
64.78797912597656,4.489085674285889,4.595517158508301
68.8631362915039,7.561051845550537,4.902176856994629
69.48323822021484,10.468812942504883,4.972262382507324
69.31161499023438,13.310135841369629,4.9942474365234375
68.24649810791016,15.972652435302734,4.95976448059082
71.32846069335938,19.747432708740234,5.237207412719727
71.94292449951172,23.066631317138672,5.346094131469727
72.5594482421875,26.523305892944336,5.466726779937744
73.17955780029297,30.134906768798828,5.600207328796387
73.80498504638672,33.9212532043457,5.747780799865723
74.43746948242188,37.90499496459961,5.910950660705566
74.77598571777344,41.94227600097656,6.0668206214904785
75.73219299316406,46.57358932495117,6.29123592376709
67.6431884765625,45.442039489746094,5.766374588012695
74.46369171142578,54.48933792114258,6.5292816162109375
75.4424819946289,60.003883361816406,6.821109771728516
73.66661834716797,63.586341857910156,6.886125564575195
65.70979309082031,61.49403381347656,6.3683037757873535
62.495826721191406,63.383544921875,6.2986955642700195
48.132537841796875,67.76171875,5.881511688232422
36.052913665771484,55.33730697631836,4.673520565032959
26.382080078125,59.602718353271484,4.612309455871582
23.008251190185547,58.190696716308594,4.4278788566589355
-38.8486213684082,-86.03713989257812,6.680026054382324
13.008277893066406,-93.37921142578125,6.671510696411133
16.308794021606445,-90.34333801269531,6.496209144592285
15.792074203491211,-71.02755737304688,5.1487836837768555
32.686920166015625,-92.60366821289062,6.949066638946533
35.14875030517578,-88.12757110595703,6.713787078857422
37.26893997192383,-83.525634765625,6.4721221923828125
39.228519439697266,-79.20377349853516,6.254385471343994
41.04891586303711,-75.13043212890625,6.0581512451171875
42.5931396484375,-71.01863861083984,5.859949111938477
42.3162956237793,-64.53001403808594,5.460513591766357
45.14579772949219,-63.15766525268555,5.493541717529297
39.630126953125,-50.98075866699219,4.569269180297852
33.67494583129883,-39.90240478515625,3.694702625274658
31.910755157470703,-34.86800765991211,3.344635009765625
32.2034912109375,-32.46694564819336,3.235898494720459
34.126075744628906,-31.746490478515625,3.2981696128845215
36.00920867919922,-30.895160675048828,3.357414722442627
37.96550369262695,-30.01205062866211,3.424546480178833
55.20534896850586,-40.14514923095703,4.8301239013671875
56.152099609375,-37.480384826660156,4.777265548706055
57.06281280517578,-34.858673095703125,4.731686592102051
55.56749725341797,-30.951082229614258,4.500888347625732
35.57978820800781,-31.181995391845703,3.743163585662842
37.52116775512695,-30.307098388671875,3.816133737564087
39.580406188964844,-29.42365264892578,3.902109146118164
54.695640563964844,-37.34504318237305,5.240015983581543
55.60745620727539,-34.777374267578125,5.189227104187012
56.48479080200195,-32.24445343017578,5.145973205566406
57.330474853515625,-29.73981475830078,5.109964370727539
58.14704132080078,-27.257251739501953,5.080966949462891
58.93687057495117,-24.790822982788086,5.058808326721191
59.701995849609375,-22.33476448059082,5.043342590332031
60.444461822509766,-19.88340187072754,5.034465312957764
61.16604995727539,-17.43113899230957,5.032125949859619
56.13495635986328,-13.584915161132812,4.569595813751221
54.71564865112305,-10.935295104980469,4.414700508117676
53.38933563232422,-8.455831527709961,4.276808738708496
53.42824935913086,-6.27405309677124,4.256281852722168
54.59563064575195,-4.196401119232178,4.332338809967041
55.82481002807617,-2.040262222290039,4.419798374176025
57.091636657714844,0.2084217071533203,4.517113208770752
60.9526481628418,2.6734213829040527,4.827202320098877
66.93899536132812,5.637095928192139,5.314948558807373
67.5280990600586,8.430109024047852,5.384288787841797
68.13470458984375,11.301815032958984,5.464456081390381
68.64649963378906,14.241497039794922,5.546952724456787
67.58980560302734,16.880413055419922,5.5119500160217285
69.5677490234375,20.37584686279297,5.735419750213623
70.41419982910156,23.734106063842773,5.879122257232666
70.97669219970703,27.14505386352539,6.012351036071777
71.53837585449219,30.70812225341797,6.159533500671387
72.10041046142578,34.44244384765625,6.322032928466797
72.66395568847656,38.36989974975586,6.5014567375183105
72.93467712402344,42.34395217895508,6.672608375549316
73.80109405517578,46.90898895263672,6.918818473815918
66.91857147216797,46.41066360473633,6.443316459655762
74.05876922607422,55.8986930847168,7.341263771057129
74.92340087890625,61.42749786376953,7.665588855743408
73.08370971679688,64.99991607666016,7.738480567932129
62.59111785888672,60.3419075012207,6.878787517547607
59.506866455078125,62.17050552368164,6.809020042419434
40.56199645996094,45.93790054321289,4.848674774169922
47.35919952392578,68.81288146972656,6.609282493591309
-37.596221923828125,-86.66886138916016,7.474610328674316
10.483128547668457,-92.31903839111328,7.351208209991455
14.072339057922363,-91.10533905029297,7.29372501373291
17.27413558959961,-88.1865234375,7.109906196594238
30.28033447265625,-93.25076293945312,7.75722074508667
32.520782470703125,-87.9534683227539,7.419319152832031
34.88298034667969,-83.82524108886719,7.183582305908203
36.91774368286133,-79.54564666748047,6.938418388366699
38.80635070800781,-75.51351928710938,6.7173752784729
40.556941986083984,-71.68170928955078,6.516300678253174
42.198787689208984,-68.05142211914062,6.335390090942383
43.40911102294922,-64.10211944580078,6.125245094299316
43.221378326416016,-58.60779571533203,5.761620044708252
38.81912612915039,-48.437110900878906,4.91121768951416
30.78681755065918,-35.40110397338867,3.7119503021240234
32.28506088256836,-34.2429084777832,3.723597526550293
33.03464889526367,-32.331233978271484,3.6571855545043945
34.881500244140625,-31.49703598022461,3.718451976776123
36.795509338378906,-30.633953094482422,3.7881388664245605
38.82246398925781,-29.764497756958008,3.8704960346221924
54.34965515136719,-38.303260803222656,5.260736465454102
55.274959564208984,-35.72100830078125,5.207082748413086
56.164695739746094,-33.176025390625,5.161077976226807
54.68706130981445,-29.406261444091797,4.912698745727539
57.84880065917969,-28.171667098999023,5.0908660888671875
58.64825439453125,-25.69992446899414,5.066192150115967
59.42224884033203,-23.24071502685547,5.048276424407959
60.17285919189453,-20.788272857666016,5.036979675292969
60.90195846557617,-18.33696174621582,5.032232284545898
56.685428619384766,-14.611612319946289,4.631539821624756
55.22813034057617,-11.892419815063477,4.4698004722595215
53.869075775146484,-9.35308837890625,4.325873851776123
52.59477233886719,-6.968688488006592,4.197661399841309
54.15024948120117,-4.97128438949585,4.302374839782715
55.36687469482422,-2.8465423583984375,4.386406898498535
59.735328674316406,1.7326035499572754,4.728238105773926
65.12706756591797,4.512582778930664,5.165192604064941
67.31146240234375,7.3906707763671875,5.357677936553955
67.9204330444336,10.233344078063965,5.434501647949219
68.4988784790039,13.15406608581543,5.518640518188477
68.08698272705078,15.935318946838379,5.532608509063721
69.35950469970703,19.20232391357422,5.6941351890563965
70.20606994628906,22.509754180908203,5.83322811126709
70.7691650390625,25.8688907623291,5.961601257324219
71.3310317993164,29.373699188232422,6.103480815887451
71.89278411865234,33.04239273071289,6.260153770446777
72.45559692382812,36.89578628540039,6.433134078979492
72.65257263183594,40.75123977661133,6.59075927734375
73.58978271484375,45.256080627441406,6.8353071212768555
67.62303161621094,45.42850112915039,6.44553279876709
74.7453384399414,54.69544219970703,7.328078269958496
72.83415222167969,57.9293327331543,7.363088607788086
73.7667465209961,63.67277526855469,7.709920883178711
63.73924255371094,59.64991760253906,6.906943321228027
60.641517639160156,61.5029182434082,6.833688735961914
62.618988037109375,68.83258056640625,7.362423896789551
48.12541580200195,67.7516860961914,6.57521390914917
35.97964096069336,55.224876403808594,5.214906215667725
26.530656814575195,59.93840408325195,5.186121940612793
23.014236450195312,58.20583724975586,4.952150821685791
-38.95682144165039,-86.27678680419922,7.489816665649414
9.094856262207031,-92.28631591796875,7.337055206298828
12.846519470214844,-92.21783447265625,7.366720676422119
16.111234664916992,-89.24891662597656,7.175492286682129
15.793904304504395,-71.03578186035156,5.757579803466797
29.341291427612305,-95.14141845703125,7.877414226531982
31.663835525512695,-89.70518493652344,7.526630401611328
34.08991241455078,-85.47276306152344,7.280633449554443
36.1840705871582,-81.09422302246094,7.025897979736328
38.12508773803711,-76.97590637207031,6.796401023864746
39.929508209228516,-73.08163452148438,6.588977813720703
41.605224609375,-69.37142181396484,6.40010929107666
42.35193634033203,-64.5843505859375,6.110610485076904
44.667720794677734,-62.48884582519531,6.077342510223389
38.87224197387695,-50.00580596923828,5.011247634887695
30.477153778076172,-36.11324691772461,3.7387964725494385
31.725221633911133,-34.66526794433594,3.7179324626922607
31.980785369873047,-32.24241638183594,3.593071937561035
34.19236755371094,-31.808149337768555,3.694883346557617
36.08040237426758,-30.95625114440918,3.7613863945007324
38.076778411865234,-30.100027084350586,3.840252161026001
53.99837112426758,-39.26744842529297,5.282552242279053
54.937618255615234,-36.66973876953125,5.225983619689941
55.84013366699219,-34.11177062988281,5.177196979522705
55.566585540771484,-30.950576782226562,5.032408237457275
35.65003967285156,-31.243549346923828,4.147263526916504
37.63099670410156,-30.395795822143555,4.23213529586792
39.661800384521484,-29.484155654907227,4.323721885681152
53.53314971923828,-36.55131530761719,5.67111873626709
54.43678665161133,-34.045230865478516,5.617311477661133
55.30536651611328,-31.571170806884766,5.571464538574219
53.84539031982422,-27.93195152282715,5.3069748878479
56.94795227050781,-26.69513702392578,5.502535820007324
57.72667694091797,-24.281768798828125,5.479031085968018
58.479759216308594,-21.877525329589844,5.462620258331299
59.20915222167969,-19.477048873901367,5.453205108642578
59.91655349731445,-17.075050354003906,5.4507293701171875
56.28413391113281,-13.621023178100586,5.066366195678711
54.856117248535156,-10.963369369506836,4.894195079803467
53.522098541259766,-8.476852416992188,4.74094295501709
52.53861618041992,-6.169581413269043,4.628118515014648
53.700111389160156,-4.127568244934082,4.712008476257324
54.89095687866211,-2.0061302185058594,4.805542945861816
56.115909576416016,0.2048635482788086,4.909540176391602
61.25261688232422,2.6865711212158203,5.364063262939453
65.4958724975586,5.515563011169434,5.750427722930908
66.05370330810547,8.246049880981445,5.8238067626953125
66.61369323730469,11.049518585205078,5.90757417678833
67.1656265258789,13.934281349182129,6.001352310180664
67.43385314941406,16.841459274291992,6.080906867980957
66.39637756347656,19.446971893310547,6.052962303161621
68.73942565917969,23.169601440429688,6.346358776092529
69.2512435913086,26.485158920288086,6.4866743087768555
69.75774383544922,29.943775177001953,6.641518592834473
70.25963592529297,33.56310272216797,6.812264442443848
70.75753784179688,37.36322784423828,7.000526428222656
70.89277648925781,41.158485412597656,7.1718268394470215
46.21199035644531,29.372953414916992,4.790611267089844
67.18496704101562,46.595428466796875,7.153204917907715
72.72266387939453,54.89021682739258,7.9713311195373535
72.17375946044922,59.173160552978516,8.16534423828125
56.36211395263672,50.127872467041016,6.599152088165283
60.77364730834961,58.58974838256836,7.385513782501221
57.79599380493164,60.383052825927734,7.312756061553955
41.11442184448242,46.56353759765625,5.434559345245361
-37.47951889038086,-86.3997802734375,8.239574432373047
10.236698150634766,-90.14885711669922,7.937691688537598
13.898395538330078,-89.9793930053711,7.965533256530762
22.91851043701172,-96.31298065185547,8.661581039428711
26.764814376831055,-95.2994384765625,8.660209655761719
29.337236404418945,-90.34638214111328,8.310574531555176
31.546184539794922,-85.3176040649414,7.95822811126709
33.87302017211914,-81.39823913574219,7.713430404663086
35.885868072509766,-77.32234191894531,7.457892417907715
37.75531768798828,-73.46832275390625,7.226725101470947
39.49033737182617,-69.79654693603516,7.016050815582275
41.119022369384766,-66.31013488769531,6.826256275177002
40.595367431640625,-59.947052001953125,6.3341064453125
43.30082321166992,-58.71551513671875,6.382761478424072
38.104034423828125,-47.544830322265625,5.330651760101318
30.85177230834961,-35.475791931152344,4.1132402420043945
31.99849510192871,-33.938961029052734,4.0809102058410645
33.09837341308594,-32.39358139038086,4.05181360244751
34.94990921020508,-31.55880355834961,4.119829177856445
36.90266036987305,-30.723159790039062,4.201023101806641
38.901641845703125,-29.825206756591797,4.288624286651611
53.190032958984375,-37.48600769042969,5.693077087402344
54.10738754272461,-34.966453552246094,5.636232376098633
54.98857498168945,-32.4813117980957,5.587489128112793
54.65811538696289,-29.39069938659668,5.4294562339782715
56.6535758972168,-27.589597702026367,5.513032913208008
57.442237854003906,-25.17146873474121,5.486883163452148
58.20457458496094,-22.76445770263672,5.467860221862793
58.942508697509766,-20.363218307495117,5.455871105194092
59.657840728759766,-17.962379455566406,5.450835704803467
56.83810806274414,-14.650959014892578,5.135230541229248
55.37168502807617,-11.923336029052734,4.95543098449707
54.00458526611328,-9.376622200012207,4.795477390289307
52.72312927246094,-6.985693454742432,4.652985572814941
53.268062591552734,-4.89029598236084,4.6799516677856445
54.44755935668945,-2.7992749214172363,4.76983642578125
59.86764144897461,1.7364387512207031,5.239940643310547
65.2873306274414,4.523680686950684,5.725598335266113
65.8488998413086,7.230086326599121,5.795656681060791
66.40061950683594,10.004358291625977,5.874870300292969
66.96732330322266,12.859962463378906,5.965926647186279
67.50190734863281,15.798395156860352,6.06523323059082
66.88506317138672,18.51726531982422,6.071805000305176
68.272216796875,21.88971710205078,6.272550106048584
69.06293487548828,25.245197296142578,6.43324089050293
69.57130432128906,28.6490478515625,6.582572937011719
70.0748291015625,32.20684814453125,6.747272968292236
70.57410430908203,35.93769073486328,6.928872585296631
70.71144104003906,39.66244888305664,7.093170642852783
71.56265258789062,44.009437561035156,7.35010290145874
67.65052795410156,45.446964263916016,7.130209445953369
72.54232788085938,53.0833740234375,7.864373207092285
73.03064727783203,58.085609436035156,8.163875579833984
56.72734069824219,48.96493911743164,6.556131362915039
61.88105773925781,57.910953521728516,7.414868354797363
58.89189910888672,59.728431701660156,7.338489532470703
59.18217086791992,65.05474090576172,7.6943559646606445
48.14384460449219,67.77764892578125,7.273483753204346
36.07402038574219,55.36972427368164,5.781630992889404
26.681119918823242,60.27829360961914,5.767193794250488
23.020246505737305,58.22099304199219,5.477384567260742
27.87384033203125,91.34767150878906,8.355669021606445
-39.06578826904297,-86.51811218261719,8.305212020874023
4.0280303955078125,-69.30915069580078,6.074002265930176
8.881508827209473,-90.12139892578125,7.92280387878418
12.539520263671875,-90.01421356201172,7.9512786865234375
15.918137550354004,-88.1792984008789,7.839382171630859
15.795726776123047,-71.04400634765625,6.36732292175293
28.413713455200195,-92.1336669921875,8.435274124145508
30.701602935791016,-86.97915649414062,8.069835662841797
33.0898551940918,-82.9653091430664,7.814550399780273
35.16033172607422,-78.79987335205078,7.54925012588501
37.08071517944336,-74.86724090576172,7.309408664703369
38.86819839477539,-71.13912963867188,7.092258930206299
40.53007125854492,-67.57872009277344,6.894181728363037
42.101261138916016,-64.20210266113281,6.716952800750732
42.29695129394531,-59.17220687866211,6.363487243652344
38.1418571472168,-49.06622314453125,5.437190055847168
30.29900360107422,-35.902156829833984,4.110097408294678
31.54157257080078,-34.46461868286133,4.087398529052734
32.43000411987305,-32.695308685302734,4.028934955596924
34.25898361206055,-31.870136260986328,4.093664169311523
36.15198516845703,-31.017658233642578,4.167490005493164
38.153839111328125,-30.160930633544922,4.255041599273682
52.841590881347656,-38.42625045776367,5.7161736488342285
53.773040771484375,-35.89238739013672,5.656259536743164
54.66725158691406,-33.395267486572266,5.604567527770996
55.52711868286133,-30.928592681884766,5.560745716094971
35.75324249267578,-31.33399200439453,4.557703018188477
37.707008361816406,-30.457183837890625,4.646912574768066
39.7436408996582,-29.544994354248047,4.7476911544799805
52.41745376586914,-35.78953552246094,6.084872722625732
53.312808990478516,-33.34228515625,6.028331756591797
54.172576904296875,-30.924522399902344,5.980134010314941
53.79736328125,-27.907033920288086,5.810172080993652
55.79566192626953,-26.154998779296875,5.907656669616699
56.563507080078125,-23.792510986328125,5.882922172546387
57.30488586425781,-21.43799591064453,5.865655899047852
58.021636962890625,-19.086400985717773,5.855745792388916
58.71538543701172,-16.732742309570312,5.853139400482178
56.434326171875,-13.657365798950195,5.5665130615234375
54.99750518798828,-10.991626739501953,5.376857280731201
53.65571975708008,-8.498014450073242,5.208067893981934
52.24216842651367,-6.134768009185791,5.042850017547607
52.832252502441406,-4.060859680175781,5.079949378967285
53.98652648925781,-1.9730806350708008,5.1791276931762695
60.81048583984375,0.22200298309326172,5.829917907714844
61.55602264404297,2.699878692626953,5.90703010559082
64.11170196533203,5.3990020751953125,6.168118000030518
64.64029693603516,8.069599151611328,6.245150089263916
65.16850280761719,10.809788703918457,6.333053112030029
65.67406463623047,13.62483024597168,6.430217266082764
66.18098449707031,16.52857208251953,6.539623260498047
66.39637756347656,19.44697380065918,6.632807731628418
66.85551452636719,22.53460121154785,6.763711452484131
67.60536193847656,25.85569190979004,6.939127445220947
68.06119537353516,29.215532302856445,7.100744724273682
68.50804901123047,32.72637176513672,7.278743743896484
68.9460220336914,36.40666198730469,7.474754810333252
69.02539825439453,40.0743293762207,7.651844024658203
69.79573059082031,44.36311340332031,7.928555488586426
70.20745849609375,48.691654205322266,8.191073417663574
70.61016845703125,53.29573059082031,8.481203079223633
71.00366973876953,58.213829040527344,8.802465438842773
55.72936248779297,49.56510543823242,7.150135040283203
43.60210037231445,42.03526306152344,5.806338310241699
56.01610565185547,58.52346420288086,7.766501426696777
59.058189392089844,66.8854751586914,8.554203033447266
-37.36335754394531,-86.13202667236328,9.00090503692627
-23.228609085083008,-91.51769256591797,9.051977157592773
2.2639570236206055,-69.19786071777344,6.637531280517578
6.670956611633301,-91.36197662353516,8.782164573669434
9.978279113769531,-87.8731918334961,8.478519439697266
13.578246116638184,-87.90663146972656,8.52752685546875
17.04498291015625,-87.0166244506836,8.50079345703125
22.75041961669922,-95.60646057128906,9.4216947555542
25.922260284423828,-92.29939270019531,9.191072463989258
28.44985008239746,-87.61361694335938,8.831230163574219
30.6435489654541,-82.87647247314453,8.471073150634766
32.91999816894531,-79.1080551147461,8.214530944824219
34.90876770019531,-75.21697235107422,7.949793338775635
36.758323669433594,-71.52825164794922,7.709892272949219
38.476966857910156,-68.00546264648438,7.490864276885986
37.996734619140625,-61.27503204345703,6.9121832847595215
40.669647216796875,-60.0567626953125,6.953581809997559
43.0408935546875,-58.36308288574219,6.952218532562256
37.413818359375,-46.68362045288086,5.735505104064941
30.672090530395508,-35.26918029785156,4.4810099601745605
31.634296417236328,-33.552677154541016,4.42094612121582
33.16242218017578,-32.45627975463867,4.448556900024414
35.050621032714844,-31.649751663208008,4.527501106262207
36.97664260864258,-30.784753799438477,4.612689971923828
38.98126220703125,-29.886249542236328,4.709071636199951
52.077308654785156,-36.70180892944336,6.107922554016113
52.98651123046875,-34.24210739135742,6.048221588134766
53.859100341796875,-31.814138412475586,5.996979236602783
54.69780731201172,-29.412036895751953,5.953896999359131
52.88419723510742,-25.75396728515625,5.639217853546143
56.2831916809082,-24.663570404052734,5.891176223754883
57.03412628173828,-22.306690216064453,5.871168613433838
57.75978469848633,-19.9545955657959,5.858546733856201
58.461830139160156,-17.602283477783203,5.85325288772583
56.991851806640625,-14.690593719482422,5.642386436462402
55.516197204589844,-11.954462051391602,5.444311618804932
54.140968322753906,-9.400303840637207,5.268131732940674
52.852317810058594,-7.002816200256348,5.1112189292907715
52.4129638671875,-4.81179141998291,5.045939922332764
53.557003021240234,-2.7534937858581543,5.141271114349365
60.00074005126953,1.740300178527832,5.754666805267334
63.91339874267578,4.4284892082214355,6.142045021057129
64.446533203125,7.07610559463501,6.215602874755859
64.97901916503906,9.790168762207031,6.299825668334961
65.48867797851562,12.576007843017578,6.393094539642334
65.99949645996094,15.446767807006836,6.498327255249023
66.4878158569336,18.407297134399414,6.613929748535156
64.62881469726562,20.72154998779297,6.506632328033447
67.43470764160156,24.65001678466797,6.883316516876221
67.8939437866211,27.958328247070312,7.039244174957275
68.34408569335938,31.411388397216797,7.211021423339844
68.78533172607422,35.026817321777344,7.400176525115967
68.86873626708984,38.62886428833008,7.57011079788208
69.64151763916016,42.82797622680664,7.837983131408691
67.7113265991211,45.487815856933594,7.8202667236328125
70.46253967285156,51.56146240234375,8.370661735534668
70.85948181152344,56.3587532043457,8.679976463317871
56.09459686279297,48.41878128051758,7.1040449142456055
55.090354919433594,51.55588150024414,7.233518123626709
57.0726432800293,57.88330841064453,7.79306173324585
56.09872055053711,61.66531753540039,7.992151260375977
39.2352294921875,50.78422546386719,6.152445316314697
48.18528366088867,67.8359603881836,7.977105140686035
36.18286895751953,55.53677749633789,6.35459566116333
23.026241302490234,58.23619079589844,6.003658771514893
27.806556701660156,91.12718200683594,9.134004592895508
-20.84870719909668,-91.84351348876953,9.029022216796875
4.012578964233398,-69.04308319091797,6.630307674407959
8.657730102539062,-87.8506088256836,8.463010787963867
12.244882583618164,-87.8990249633789,8.50822639465332
15.837810516357422,-87.73416900634766,8.546993255615234
15.844176292419434,-71.2618179321289,6.998662948608398
24.931747436523438,-94.11465454101562,9.333978652954102
27.541778564453125,-89.30635833740234,8.959671974182129
29.810983657836914,-84.45594787597656,8.58635425567627
32.147003173828125,-80.6013412475586,8.319145202636719
34.191566467285156,-76.6286849975586,8.0444974899292
36.090606689453125,-72.86824035644531,7.795751571655273
37.86039352416992,-69.29461669921875,7.570160388946533
39.51485061645508,-65.88599395751953,7.365377902984619
38.6468391418457,-58.93428039550781,6.75648832321167
42.37471008300781,-59.28099060058594,6.985900402069092
37.43741226196289,-48.16002655029297,5.848003387451172
30.1226749420166,-35.69321823120117,4.477615833282471
31.359790802001953,-34.265987396240234,4.453136444091797
32.492408752441406,-32.75822830200195,4.423379898071289
34.32597732543945,-31.932445526123047,4.494588851928711
36.25699234008789,-31.107751846313477,4.579986572265625
38.231319427490234,-30.22218132019043,4.672123432159424
51.73176574707031,-37.619178771972656,6.132190704345703
52.655235290527344,-35.14628219604492,6.069255352020264
53.54100799560547,-32.707271575927734,6.014932632446289
54.391929626464844,-30.296295166015625,5.968865394592285
35.824317932128906,-31.39628791809082,4.966633319854736
37.7834358215332,-30.518924713134766,5.064043998718262
39.825958251953125,-29.606182098388672,5.174091815948486
51.34565734863281,-35.05774688720703,6.482349395751953
52.23262405395508,-32.666709899902344,6.423330783843994
53.08357620239258,-30.302860260009766,6.373010158538818
53.90104675292969,-27.96082305908203,6.331096649169922
52.148460388183594,-24.445316314697266,6.004951000213623
55.44453430175781,-23.321842193603516,6.2714691162109375
56.174537658691406,-21.015113830566406,6.253413677215576
56.87904357910156,-18.71053695678711,6.243061065673828
57.55961990356445,-16.403369903564453,6.240339279174805
56.58556365966797,-13.693964958190918,6.070146083831787
55.139862060546875,-11.020079612731934,5.862794399261475
53.79023361206055,-8.51932144165039,5.678294658660889
52.372344970703125,-6.150059223175049,5.498071670532227
51.990684509277344,-3.996178150177002,5.436748504638672
53.110069274902344,-1.941042423248291,5.541164398193359
60.94798278808594,0.22249984741210938,6.3547234535217285
61.86293029785156,2.7133431434631348,6.456279754638672
62.78273010253906,5.287081718444824,6.569153308868408
63.28401565551758,7.900290489196777,6.649459362030029
63.782527923583984,10.579887390136719,6.741089820861816
64.25636291503906,13.33071517944336,6.842286586761475
64.72883605957031,16.165897369384766,6.956175327301025
65.17650604248047,19.08969497680664,7.081044673919678
65.33311462402344,22.021459579467773,7.188437461853027
66.0334243774414,25.254497528076172,7.371251106262207
66.44269561767578,28.520784378051758,7.538846492767334
66.83907318115234,31.929100036621094,7.7232255935668945
67.22228240966797,35.4964485168457,7.926002502441406
67.25110626220703,39.044219970703125,8.107932090759277
67.94762420654297,43.188438415527344,8.394450187683105
68.2885513305664,47.360816955566406,8.664811134338379
68.61384582519531,51.78892517089844,8.963041305541992
68.92237854003906,56.507450103759766,9.292608261108398
55.10968017578125,49.01396942138672,7.689739227294922
43.3846321105957,41.82560348510742,6.283247470855713
53.01226043701172,55.38515090942383,7.993595123291016
55.934059143066406,63.34728240966797,8.811075210571289
27.93236541748047,59.0167350769043,6.807726860046387
-37.390472412109375,-86.19452667236328,9.796127319335938
-23.184789657592773,-91.34500885009766,9.825997352600098
2.221312999725342,-67.89414978027344,7.082706451416016
6.25344181060791,-85.64386749267578,8.953348159790039
9.732215881347656,-85.70623779296875,8.993507385253906
13.346446990966797,-86.40596008300781,9.115869522094727
16.562118530273438,-84.55146789550781,8.983211517333984
22.423385620117188,-94.23211669921875,10.09935188293457
25.129919052124023,-89.47813415527344,9.690299034118652
27.10831642150879,-83.48229217529297,9.151601791381836
29.901409149169922,-80.86932373046875,8.989681243896484
32.01771545410156,-76.93988037109375,8.688943862915039
33.981998443603516,-73.22010040283203,8.416350364685059
35.81114196777344,-69.6851577758789,8.168912887573242
37.5196647644043,-66.3134994506836,7.944076061248779
38.066078186035156,-61.38689041137695,7.53114128112793
40.62312316894531,-59.98804473876953,7.553783416748047
42.038291931152344,-57.00355529785156,7.384829044342041
36.74711990356445,-45.851749420166016,6.126554012298584
30.494213104248047,-35.06462097167969,4.845110893249512
31.219526290893555,-33.11276626586914,4.745002746582031
33.22682571411133,-32.51930618286133,4.8474626541137695
35.119842529296875,-31.712251663208008,4.933646202087402
37.05104446411133,-30.846691131591797,5.026669502258301
39.06134033203125,-29.947643280029297,5.131915092468262
51.00849533081055,-35.94855880737305,6.506409645080566
51.90945053100586,-33.54607009887695,6.444101333618164
52.773406982421875,-31.172826766967773,6.390605449676514
53.60298156738281,-28.82332992553711,6.3455986976623535
52.32710266113281,-25.482681274414062,6.068389415740967
55.168251037597656,-24.17498016357422,6.280090808868408
55.90807342529297,-21.86627960205078,6.2591776847839355
56.62179946899414,-19.561458587646484,6.245992660522461
57.3110466003418,-17.255786895751953,6.240455150604248
57.14667510986328,-14.730504989624023,6.153101921081543
55.66169357299805,-11.9857816696167,5.936532020568848
54.27825927734375,-9.424141883850098,5.743933200836182
52.982337951660156,-7.020042896270752,5.5724287033081055
51.607826232910156,-4.7378740310668945,5.403464317321777
52.69375228881836,-2.7091078758239746,5.5013203620910645
60.1346435546875,1.7441859245300293,6.272519111633301
62.59402847290039,4.33706521987915,6.541954040527344
63.100563049316406,6.9283223152160645,6.618660926818848
63.60416793823242,9.583024978637695,6.706475734710693
64.08297729492188,12.306061744689941,6.803627967834473
64.54840850830078,15.10714054107666,6.911951065063477
65.01272583007812,17.998912811279297,7.033461093902588
63.25038146972656,20.279590606689453,6.9254231452941895
65.5997085571289,23.979249954223633,7.282314777374268
66.29307556152344,27.299091339111328,7.475091457366943
66.6942138671875,30.653095245361328,7.653106212615967
67.08234405517578,34.15961456298828,7.848880767822266
67.11690521240234,37.6462516784668,8.023529052734375
67.81798553466797,41.70655059814453,8.301076889038086
67.7999496459961,45.5473518371582,8.51613712310791
68.49563598632812,50.122161865234375,8.849478721618652
68.81050872802734,54.72909164428711,9.167033195495605
55.47482681274414,47.88382339477539,7.640718460083008
54.470726013183594,50.97601318359375,7.778402328491211
53.41575622558594,54.17447280883789,7.932370185852051
41.46035385131836,45.574398040771484,6.423871040344238
39.09221649169922,50.5991096496582,6.6667656898498535
48.2506103515625,67.92793273925781,8.687339782714844
36.29254913330078,55.70513153076172,6.931955814361572
23.032257080078125,58.25142288208008,6.531050205230713
27.849063873291016,91.26651763916016,9.948970794677734
-20.781354904174805,-91.54685974121094,9.787884712219238
4.022006034851074,-69.20526123046875,7.2277936935424805
8.444611549377441,-85.68807983398438,8.97746467590332
11.941872596740723,-85.72404479980469,9.02424430847168
15.386744499206543,-85.23555755615234,9.030648231506348
20.152084350585938,-90.63739013671875,9.68098258972168
24.158199310302734,-91.19458770751953,9.83629322052002
26.720502853393555,-86.64320373535156,9.453608512878418
29.077754974365234,-82.37876892089844,9.108512878417969
31.254993438720703,-78.36487579345703,8.796534538269043
33.27332305908203,-74.57077026367188,8.513919830322266
27.173826217651367,-54.864898681640625,6.383628845214844
36.74557876586914,-67.25419616699219,7.990575790405273
37.0849723815918,-61.834468841552734,7.517716407775879
38.67633819580078,-58.979270935058594,7.353695392608643
41.525508880615234,-58.092994689941406,7.445326328277588
42.889564514160156,-55.17375946044922,7.286302089691162
29.9481143951416,-35.486366271972656,4.841459274291992
31.179805755615234,-34.06932830810547,4.815258026123047
32.555145263671875,-32.82148742675781,4.819980621337891
34.424705505371094,-32.0242805480957,4.902199745178223
36.32942199707031,-31.16990089416504,4.990961074829102
38.309234619140625,-30.283775329589844,5.091570854187012
50.665931701660156,-36.84410858154297,6.531716823577881
51.58128356933594,-34.429443359375,6.466052055358887
52.45857620239258,-32.0460319519043,6.4093451499938965
53.30052947998047,-29.688377380371094,6.361250877380371
35.89581298828125,-31.458932876586914,5.377902507781982
37.860313415527344,-30.581024169921875,5.483599662780762
39.90875244140625,-29.667736053466797,5.603010177612305
50.315040588378906,-34.35406494140625,6.864550590515137
51.193572998046875,-32.01689910888672,6.803289413452148
52.035709381103516,-29.704673767089844,6.75105094909668
52.84389877319336,-27.41244125366211,6.707513809204102
51.39967727661133,-24.094310760498047,6.3960676193237305
54.3671760559082,-22.86865997314453,6.645562648773193
55.0860481262207,-20.60791778564453,6.626814365386963
55.77869415283203,-18.348583221435547,6.616052627563477
56.446590423583984,-16.086177825927734,6.613224029541016
56.737876892089844,-13.730827331542969,6.577364444732666
55.28318786621094,-11.048709869384766,6.352095127105713
53.925655364990234,-8.540773391723633,6.151693820953369
54.06813049316406,-6.349194526672363,6.133875370025635
51.29777145385742,-3.9429173469543457,5.7969207763671875
52.26014709472656,-1.9099817276000977,5.892233371734619
60.51588439941406,0.22092103958129883,6.818552017211914
61.01373291015625,2.676090717315674,6.881207466125488
61.50558853149414,5.179531097412109,6.954544544219971
61.98125457763672,7.737654685974121,7.037817001342773
62.452022552490234,10.359195709228516,7.132801055908203
62.896278381347656,13.048551559448242,7.237609386444092
63.325042724609375,15.815292358398438,7.354181289672852
63.75010681152344,18.671911239624023,7.4846673011779785
63.87604904174805,21.53032875061035,7.594941139221191
64.53038787841797,24.679662704467773,7.784430503845215
64.89675903320312,27.857181549072266,7.957304954528809
65.24678039550781,31.16845703125,8.147287368774414
65.57984161376953,34.62915802001953,8.355969429016113
65.56289672851562,38.064090728759766,8.541891098022461
66.19187927246094,42.072471618652344,8.837065696716309
66.46868133544922,46.09867858886719,9.114089965820312
66.72412109375,50.36257553100586,9.419147491455078
66.95637512207031,54.895565032958984,9.755599975585938
54.502593994140625,48.474029541015625,8.218379974365234
43.475704193115234,41.91340255737305,6.80424690246582
52.40546417236328,54.751197814941406,8.539401054382324
52.7894287109375,59.78586196899414,8.986374855041504
27.9052734375,58.95948028564453,7.349634647369385
-37.4947509765625,-86.43494415283203,10.615711212158203
2.1843655109405518,-66.76469421386719,7.526601791381836
5.024754524230957,-68.81631469726562,7.774379253387451
9.497604370117188,-83.64009094238281,9.484545707702637
12.972867965698242,-83.98727416992188,9.575319290161133
18.018329620361328,-91.98555755615234,10.561246871948242
16.981874465942383,-71.36468505859375,8.265392303466797
24.38330078125,-86.81973266601562,10.160713195800781
26.818269729614258,-82.58901977539062,9.78386402130127
29.075498580932617,-78.63562774658203,9.446367263793945
31.162158966064453,-74.88389587402344,9.13879680633545
33.10169219970703,-71.32331848144531,8.859519958496094
34.76199722290039,-67.64360046386719,8.569116592407227
35.481204986572266,-62.710662841796875,8.118349075317383
38.135807037353516,-61.49933624267578,8.153436660766602
39.67611312866211,-58.58958435058594,7.972701072692871
41.07971954345703,-55.70372009277344,7.798437595367432
36.102684020996094,-45.047645568847656,6.504552364349365
30.318069458007812,-34.86210250854492,5.205625534057617
31.485225677490234,-33.39456558227539,5.171322822570801
33.32194900512695,-32.61240768432617,5.253410816192627
35.18946075439453,-31.775108337402344,5.342114448547363
37.125877380371094,-30.90898895263672,5.443044662475586
39.141883850097656,-30.009395599365234,5.557247638702393
49.98094177246094,-35.224369049072266,6.889506816864014
50.87358856201172,-32.87663269042969,6.824841499328613
51.728843688964844,-30.555809020996094,6.769307613372803
52.549293518066406,-28.256757736206055,6.722599506378174
52.77937316894531,-25.702930450439453,6.614492416381836
54.09478759765625,-23.70459747314453,6.654531002044678
54.82378387451172,-21.442195892333984,6.632800102233887
55.52592086791992,-19.182865142822266,6.619100570678711
56.202789306640625,-16.922100067138672,6.613348960876465
56.85577392578125,-14.655508995056152,6.615507125854492
55.80821228027344,-12.017328262329102,6.432201385498047
54.4164924621582,-9.448143005371094,6.22299861907959
53.113224029541016,-7.037376403808594,6.036718845367432
51.73429870605469,-4.749483585357666,5.8535661697387695
51.85646438598633,-2.666065216064453,5.850539207458496
60.26938247680664,1.7480907440185547,6.793585300445557
61.325889587402344,4.249204158782959,6.926336288452148
61.8074951171875,6.786352157592773,7.005882263183594
62.28404235839844,9.384126663208008,7.096935272216797
62.734046936035156,12.047021865844727,7.197585582733154
63.168548583984375,14.78419303894043,7.309719085693359
63.58759689331055,17.604351043701172,7.434105396270752
63.73155212402344,20.43385124206543,7.540879249572754
64.11801147460938,23.437633514404297,7.691887855529785
64.76337432861328,26.669172286987305,7.89155912399292
65.11949157714844,29.929344177246094,8.07504940032959
65.45890808105469,33.33293151855469,8.27662467956543
65.44916534423828,36.710811614990234,8.455177307128906
66.08458709716797,40.64054870605469,8.741286277770996
66.368896484375,44.586002349853516,9.008708000183105
66.63238525390625,48.758724212646484,9.303057670593262
66.87346649169922,53.18843460083008,9.627479553222656
54.86756896972656,47.35966110229492,8.166563034057617
53.86382293701172,50.40803909301758,8.312085151672363
52.808963775634766,53.55907440185547,8.474743843078613
41.484798431396484,45.60127639770508,6.9460530281066895
39.073238372802734,50.574546813964844,7.200941562652588
48.34413528442383,68.05962371826172,9.40618896484375
36.4030876159668,55.87480545043945,7.513837814331055
23.03829002380371,58.26667404174805,7.059632301330566
27.91384506225586,91.47885131835938,10.776376724243164
-20.742958068847656,-91.37765502929688,10.557732582092285
1.1802749633789062,-66.03951263427734,7.44205379486084
3.953989028930664,-68.03522491455078,7.678670406341553
8.241381645202637,-83.62594604492188,9.46803092956543
11.653059959411621,-83.65056610107422,9.516168594360352
14.959962844848633,-82.871337890625,9.48828125
19.958511352539062,-89.76675415039062,10.361266136169434
23.429990768432617,-88.44558715820312,10.309172630310059
25.940696716308594,-84.11473083496094,9.917911529541016
28.264299392700195,-80.0741195678711,9.567743301391602
30.40975570678711,-76.24560546875,9.248895645141602
32.40162658691406,-72.61720275878906,8.959539413452148
34.2567253112793,-69.16551971435547,8.696572303771973
35.83689498901367,-65.5910415649414,8.421478271484375
37.152774810791016,-61.94754409790039,8.138875961303711
38.834991455078125,-59.22119903564453,7.979367256164551
40.57103729248047,-56.75769805908203,7.86086368560791
41.91490173339844,-53.91992950439453,7.69500732421875
29.77525520324707,-35.28155517578125,5.201727390289307
30.971105575561523,-33.841278076171875,5.168779373168945
32.64799118041992,-32.91508102416992,5.223573684692383
34.492488861083984,-32.08736038208008,5.3079986572265625
36.40228271484375,-31.232398986816406,5.404297828674316
38.387603759765625,-30.34572982788086,5.513464450836182
49.62354278564453,-36.08610916137695,6.913296222686768
50.5484619140625,-33.74007034301758,6.8476409912109375
51.41724395751953,-31.409889221191406,6.7887725830078125
52.250282287597656,-29.10338020324707,6.738828182220459
35.96772384643555,-31.521947860717773,5.791592597961426
37.937660217285156,-30.643482208251953,5.905651092529297
39.9920539855957,-29.729656219482422,6.034521579742432
49.32318115234375,-33.676841735839844,7.23237943649292
50.19320297241211,-31.391254425048828,7.169102668762207
51.02654266357422,-29.128597259521484,7.115129470825195
51.8255500793457,-26.88418197631836,7.070118427276611
51.289398193359375,-24.042633056640625,6.8595709800720215
50.71178436279297,-21.331077575683594,6.662240982055664
54.03702926635742,-20.21546173095703,6.986675262451172
54.71815872192383,-17.999717712402344,6.975549221038818
55.37381362915039,-15.78045654296875,6.972620487213135
56.0052490234375,-13.553522109985352,6.977872371673584
55.427555084228516,-11.077577590942383,6.844877243041992
54.06201171875,-8.562368392944336,6.628388404846191
54.26227569580078,-6.371990203857422,6.616185188293457
58.299278259277344,-4.481076240539551,7.080731391906738
51.476226806640625,-1.881330966949463,6.237809181213379
59.330543518066406,0.21659183502197266,7.184842586517334
59.81818771362305,2.6236557960510254,7.250804901123047
60.2771110534668,5.0760817527771,7.325253486633301
60.739418029785156,7.5826239585876465,7.412493705749512
61.17353820800781,10.147126197814941,7.509194374084473
61.590179443359375,12.777581214904785,7.617239475250244
61.98931884765625,15.481700897216797,7.737335205078125
62.370872497558594,18.26793670654297,7.870267868041992
62.480010986328125,21.059776306152344,7.98441743850708
63.09273147583008,24.12982940673828,8.180091857910156
63.418434143066406,27.222606658935547,8.357463836669922
63.725799560546875,30.441884994506836,8.552350044250488
64.01289367675781,33.80174255371094,8.766170501708984
63.954429626464844,37.13025665283203,8.955351829528809
64.52154541015625,41.01076889038086,9.25815486907959
64.74015045166016,44.899864196777344,9.54083251953125
64.93244171142578,49.01023483276367,9.851587295532227
65.09600830078125,53.37031173706055,10.193714141845703
53.90763473510742,47.944881439208984,8.736457824707031
43.56732177734375,42.001739501953125,7.328416347503662
51.66368103027344,53.976219177246094,9.04799747467041
50.255592346191406,56.91619873046875,9.194711685180664
27.878190994262695,58.90222930908203,7.891505241394043
-37.599849700927734,-86.67718505859375,11.441446304321289
2.148552417755127,-65.67018127441406,7.956762790679932
4.938472747802734,-67.63455963134766,8.21219253540039
9.273630142211914,-81.6676025390625,9.953314781188965
12.618961334228516,-81.69615936279297,10.010538101196289
16.49683952331543,-84.21814727783203,10.392434120178223
16.98386001586914,-71.37307739257812,8.88444709777832
23.674152374267578,-84.29476928710938,10.602842330932617
26.07090950012207,-80.28744506835938,10.222366333007812
28.292564392089844,-76.51815032958984,9.87929630279541
30.349637985229492,-72.9313735961914,9.566017150878906
32.26430130004883,-69.51903533935547,9.28108024597168
33.90719223022461,-65.98025512695312,8.983367919921875
35.54615783691406,-62.82547378540039,8.741352081298828
37.294212341308594,-60.14214324951172,8.569692611694336
38.770599365234375,-57.25242614746094,8.37326431274414
40.153160095214844,-54.44732666015625,8.192493438720703
35.479305267333984,-44.269798278808594,6.870189189910889
30.143632888793945,-34.66151809692383,5.562671184539795
31.57468032836914,-33.48945236206055,5.573787689208984
33.38715744018555,-32.67622375488281,5.6572651863098145
35.25946807861328,-31.83834457397461,5.752982139587402
37.20115661621094,-30.97165870666504,5.8618903160095215
39.2229118347168,-30.071517944335938,5.985132217407227
48.974544525146484,-34.51512908935547,7.255563735961914
49.87638854980469,-32.232200622558594,7.191363334655762
50.722965240478516,-29.961641311645508,7.133993148803711
51.534385681152344,-27.711034774780273,7.085712432861328
52.3128662109375,-25.475746154785156,7.046230316162109
50.793190002441406,-22.257816314697266,6.715575695037842
53.77880859375,-21.033493041992188,6.9928717613220215
54.469722747802734,-18.817977905273438,6.97869873046875
55.13462829589844,-16.600492477416992,6.972748279571533
