48.89604568481445,-27.54543685913086,4.440290927886963
52.533145904541016,-26.873746871948242,4.668694019317627
56.57394790649414,-26.129005432128906,4.930464744567871
56.61391067504883,-23.436243057250977,4.84791898727417
56.90535354614258,-20.920894622802734,4.796975612640381
61.96308135986328,-19.993696212768555,5.1514081954956055
80.81156921386719,-22.534353256225586,6.637728214263916
88.18722534179688,-17.104612350463867,7.107390403747559
88.76563262939453,-13.542531967163086,7.1043901443481445
89.34449768066406,-9.977709770202637,7.11286735534668
95.4635238647461,-2.946187973022461,7.556657314300537
51.77520751953125,22.573749542236328,4.468868255615234
49.00829315185547,37.42964172363281,4.879062175750732
37.51741027832031,42.97923278808594,4.5138325691223145
-22.869693756103516,30.175718307495117,2.9957053661346436
-36.920814514160156,44.851985931396484,4.59634256362915
-39.291603088378906,44.003299713134766,4.667490005493164
-41.7652587890625,43.1515998840332,4.751405715942383
-41.09669876098633,39.18110656738281,4.49251651763916
-46.86274337768555,41.21463394165039,4.937714576721191
-49.57722473144531,40.18781661987305,5.049411773681641
-52.40968322753906,39.10245895385742,5.1736016273498535
-30.686370849609375,21.030359268188477,2.9433536529541016
-30.310583114624023,19.02991485595703,2.8316383361816406
-29.962060928344727,17.173065185546875,2.732374668121338
-29.63694953918457,15.43942928314209,2.6439831256866455
-29.332035064697266,13.812071800231934,2.5651695728302
-30.123701095581055,12.732728004455566,2.5875465869903564
-33.03978729248047,12.425836563110352,2.792862892150879
-35.8051643371582,11.84726333618164,2.9839487075805664
-38.98039627075195,11.181978225708008,3.208510637283325
-38.774810791015625,9.455090522766113,3.157750129699707
-38.458282470703125,7.7557196617126465,3.1040706634521484
-38.2150993347168,6.120664596557617,3.0621085166931152
-37.85506057739258,4.512051105499268,3.0162882804870605
-37.29082107543945,2.9315686225891113,2.9595468044281006
-37.05229949951172,1.4186919927597046,2.933720111846924
-43.37895965576172,-0.08289365470409393,3.432142496109009
-70.23246765136719,-2.958042621612549,5.561710834503174
-16.209157943725586,-1.3366190195083618,1.2868196964263916
-21.89205551147461,-2.6943018436431885,1.745164155960083
-38.18324661254883,-6.265401840209961,3.0614545345306396
-63.27739715576172,-13.01282787322998,5.111269950866699
-59.87245559692383,-14.842391967773438,4.880489349365234
-57.206085205078125,-16.6472110748291,4.713890552520752
-54.14466857910156,-18.145414352416992,4.51808500289917
-51.28569412231445,-19.512033462524414,4.341470241546631
-48.60359573364258,-20.763240814208984,4.181707859039307
-45.598487854003906,-21.685115814208984,3.9949374198913574
-43.233375549316406,-22.73311996459961,3.864680051803589
-40.98811340332031,-23.701431274414062,3.746127128601074
-37.0650520324707,-23.4686279296875,3.471003532409668
-34.64802169799805,-23.940635681152344,3.3321025371551514
-35.1941032409668,-26.468168258666992,3.484140157699585
-31.20236587524414,-25.491287231445312,3.1878459453582764
-28.00631332397461,-24.82143211364746,2.96087646484375
-25.232067108154297,-24.24082374572754,2.7683749198913574
-22.793790817260742,-23.7313175201416,2.603431224822998
-21.245399475097656,-23.976993560791016,2.534632682800293
-20.135852813720703,-24.652894973754883,2.5184695720672607
-19.82586669921875,-26.368322372436523,2.6101772785186768
-20.372024536132812,-29.490625381469727,2.835890054702759
-19.994050979614258,-31.58548927307129,2.9576480388641357
-18.496150970458984,-31.994873046875,2.9239869117736816
-17.02140235900879,-32.37992858886719,2.8943028450012207
-15.566476821899414,-32.74209213256836,2.868417978286743
-14.134950637817383,-33.098201751708984,2.847527027130127
-12.709882736206055,-33.41829299926758,2.828824281692505
-10.738503456115723,-32.0550651550293,2.67472243309021
-9.520716667175293,-32.730682373046875,2.6969797611236572
-8.397477149963379,-33.89086151123047,2.7625255584716797
-7.015646934509277,-34.1346321105957,2.7571794986724854
-5.6591339111328125,-34.51314926147461,2.767141342163086
-4.298403739929199,-34.95862579345703,2.7867496013641357
-2.8949031829833984,-35.15531539916992,2.7908976078033447
-1.484248399734497,-35.3363151550293,2.7982711791992188
-0.0638115406036377,-35.501853942871094,2.8089067935943604
1.3691504001617432,-35.65204620361328,2.8228647708892822
2.817458391189575,-35.786930084228516,2.8402180671691895
4.283980369567871,-35.90647506713867,2.8610639572143555
5.7718305587768555,-36.010555267333984,2.8855152130126953
6.6308465003967285,-32.86084747314453,2.652346134185791
8.82094955444336,-36.15622329711914,2.944575786590576
10.392635345458984,-36.21302795410156,2.980822801589966
7.750677585601807,-23.415348052978516,1.951472282409668
13.647488594055176,-36.275390625,3.0665009021759033
6.733522415161133,-15.925371170043945,1.368013858795166
17.081554412841797,-36.26456069946289,3.1716082096099854
14.749680519104004,-28.305021286010742,2.525308132171631
15.745884895324707,-27.46476173400879,2.5047948360443115
13.440042495727539,-21.40168571472168,1.999506950378418
10.52571964263916,-15.354795455932617,1.4729056358337402
13.813590049743652,-18.51015281677246,1.827378749847412
14.8993501663208,-18.376094818115234,1.8717697858810425
16.005775451660156,-18.195022583007812,1.9173210859298706
17.167200088500977,-18.002384185791016,1.9681605100631714
14.959005355834961,-14.475085258483887,1.646946907043457
19.688255310058594,-17.576053619384766,2.088143825531006
21.0679931640625,-17.338491439819336,2.1588048934936523
22.5437068939209,-17.08146095275879,2.2378416061401367
48.10919189453125,-33.49797058105469,4.638213157653809
21.11791229248047,-13.477900505065918,1.9821373224258423
47.641143798828125,-27.777523040771484,4.363278388977051
51.147247314453125,-27.12952995300293,4.5807952880859375
55.10500717163086,-26.449382781982422,4.836114883422852
51.83744812011719,-22.365388870239258,4.466827392578125
56.28945541381836,-21.647672653198242,4.771605968475342
60.01057052612305,-20.351459503173828,5.0136332511901855
65.56214904785156,-19.33474349975586,5.408134460449219
85.7342300415039,-21.58096694946289,6.994881629943848
67.41983032226562,-14.117538452148438,5.449942588806152
88.55211639404297,-14.857428550720215,7.104162216186523
89.13060760498047,-11.294952392578125,7.108399868011475
89.7107162475586,-7.722455978393555,7.124148368835449
50.91485595703125,26.292016983032227,4.5337724685668945
49.40108871459961,36.582183837890625,4.863598346710205
41.57614517211914,42.64838409423828,4.712423324584961
42.219871520996094,42.40775680541992,5.235404968261719
-23.66441535949707,30.28036880493164,3.3622360229492188
-37.273338317871094,43.93534469604492,5.0407609939575195
-39.627323150634766,43.07560348510742,5.1207709312438965
-41.35578918457031,41.4791145324707,5.124489784240723
-42.48151779174805,39.314998626708984,5.064037799835205
-47.15011978149414,40.24271011352539,5.423314094543457
-49.84884262084961,39.197017669677734,5.547996997833252
-30.60826301574707,22.13740348815918,3.3048617839813232
-30.567201614379883,20.288854598999023,3.2097625732421875
-30.200862884521484,18.342077255249023,3.091365337371826
-29.860408782958984,16.531164169311523,2.986074447631836
-29.542232513427734,14.837104797363281,2.8922696113586426
-29.32908058166504,13.28272533416748,2.8168423175811768
-31.382896423339844,12.719595909118652,2.9625906944274902
-33.920501708984375,12.185810089111328,3.153351068496704
-36.810401916503906,11.576912879943848,3.376009464263916
-39.06827926635742,10.58251667022705,3.541205883026123
-38.74319839477539,8.840564727783203,3.476715087890625
-38.42963790893555,7.158369541168213,3.419989585876465
-38.12601852416992,5.527609348297119,3.3704700469970703
-37.31676483154297,3.8873629570007324,3.2824602127075195
-36.80401611328125,2.3444876670837402,3.226461172103882
-38.43423843383789,0.9008344411849976,3.3634843826293945
-46.31923294067383,-0.7757896184921265,4.052977085113525
-66.5390625,-3.792125940322876,5.8308610916137695
-16.173952102661133,-1.5756229162216187,1.4217365980148315
-27.190753936767578,-3.7567248344421387,2.4014806747436523
-60.06943130493164,-10.774160385131836,5.339256286621094
-46.764827728271484,-10.342477798461914,4.190256118774414
-55.67371368408203,-14.6815767288208,5.037335395812988
-53.33179473876953,-16.381786346435547,4.8810882568359375
-50.592742919921875,-17.794179916381836,4.692086219787598
-48.01751708984375,-19.088838577270508,4.520774841308594
-45.586585998535156,-20.279293060302734,4.365140914916992
-42.853816986083984,-21.16500473022461,4.181563377380371
-40.666542053222656,-22.159664154052734,4.051792621612549
-38.59883499145508,-23.09058952331543,3.935091018676758
-35.4622802734375,-23.197898864746094,3.707412004470825
-31.752391815185547,-22.64306640625,3.4119701385498047
-33.237693786621094,-25.777576446533203,3.679960012435913
-30.064390182495117,-25.314477920532227,3.438525676727295
-27.019821166992188,-24.672433853149414,3.201176643371582
-24.365623474121094,-24.113630294799805,2.999154567718506
-22.024002075195312,-23.621488571166992,2.825532913208008
-20.533754348754883,-23.878318786621094,2.7552802562713623
-20.038358688354492,-25.290231704711914,2.8229589462280273
-19.720335006713867,-27.05439567565918,2.9290170669555664
-20.251867294311523,-30.267223358154297,3.1861307621002197
-18.828603744506836,-30.74431800842285,3.1541190147399902
-17.392282485961914,-31.14266014099121,3.12073016166687
-15.975543975830078,-31.51692008972168,3.091377019882202
-14.575439453125,-31.8684024810791,3.0658979415893555
-13.189295768737793,-32.1982307434082,3.0441582202911377
-11.820054054260254,-32.52274703979492,3.0274624824523926
-10.025153160095215,-31.468164443969727,2.889444589614868
-8.993964195251465,-32.72227096557617,2.968998670578003
-7.652407646179199,-32.971824645996094,2.961333990097046
-6.312445163726807,-33.203834533691406,2.9569897651672363
-5.02686071395874,-33.78904342651367,2.988694906234741
-3.6685028076171875,-33.99202346801758,2.991187334060669
-2.3043150901794434,-34.17528533935547,2.996739625930786
-0.932386040687561,-34.342201232910156,3.005662202835083
0.4497687816619873,-34.49293518066406,3.0179972648620605
1.8446167707443237,-34.62751770019531,3.0338118076324463
3.2548105716705322,-34.745967864990234,3.053187370300293
4.631911277770996,-34.46784591674805,3.042652130126953
6.06533145904541,-34.55331802368164,3.0692458152770996
7.020809173583984,-32.31338882446289,2.893014907836914
9.101422309875488,-35.0399169921875,3.1673202514648438
10.631630897521973,-35.0748405456543,3.20652437210083
8.158041000366211,-23.472909927368164,2.1741092205047607
13.79887580871582,-35.08934020996094,3.298762798309326
15.44421100616455,-35.06730651855469,3.3523569107055664
15.240068435668945,-31.14777183532715,3.0337815284729004
15.254254341125488,-28.242816925048828,2.808302879333496
13.356575012207031,-22.51633644104004,2.290440559387207
13.250978469848633,-20.421533584594727,2.129819631576538
13.336223602294922,-18.848907470703125,2.0200910568237305
14.090302467346191,-18.307899475097656,2.0211894512176514
15.184270858764648,-18.16971778869629,2.071655750274658
16.298336029052734,-17.982492446899414,2.1233019828796387
17.468950271606445,-17.782930374145508,2.180903911590576
18.70425033569336,-17.569419860839844,2.2451274394989014
20.013792037963867,-17.340057373046875,2.3167665004730225
21.40876579284668,-17.092605590820312,2.3967647552490234
22.902488708496094,-16.824382781982422,2.4862565994262695
46.951751708984375,-31.66830062866211,4.9547834396362305
21.434486389160156,-13.23659610748291,2.2040276527404785
49.01399612426758,-27.611888885498047,4.921802043914795
52.66640853881836,-26.94192123413086,5.175619125366211
56.72550582885742,-26.199020385742188,5.466588973999023
56.57786560058594,-23.421314239501953,5.357287406921387
57.07808303833008,-20.98440170288086,5.320469379425049
62.16511154174805,-20.058887481689453,5.7148661613464355
80.76703643798828,-22.52192497253418,7.335784435272217
85.42796325683594,-20.161165237426758,7.67929744720459
88.18809509277344,-17.10479164123535,7.859246253967285
88.7665023803711,-13.542655944824219,7.8559250831604
89.34536743164062,-9.977795600891113,7.865302562713623
75.25405883789062,19.24916648864746,6.79585075378418
37.46469497680664,42.91884231567383,4.9842681884765625
-22.861833572387695,30.16531753540039,3.3114309310913086
-36.4200439453125,44.24365234375,5.013588905334473
-38.75056076049805,43.397377014160156,5.090115547180176
-41.150508880615234,42.51644515991211,5.176648139953613
-41.458187103271484,39.52574157714844,5.011402130126953
-46.180641174316406,40.61471939086914,5.380523681640625
-48.83951187133789,39.58982467651367,5.500424385070801
-51.6109504699707,38.50651931762695,5.6336445808410645
-30.709850311279297,21.046449661254883,3.257174015045166
-30.33289337158203,19.04391860961914,3.133457660675049
-29.983339309692383,17.185251235961914,3.0235323905944824
-29.657316207885742,15.450037002563477,2.9256553649902344
-29.437705993652344,13.861841201782227,2.846714973449707
-30.521015167236328,12.900673866271973,2.8989782333374023
-32.94658279418945,12.39078140258789,3.0795624256134033
-35.697269439697266,11.811559677124023,3.2896299362182617
-38.854122161865234,11.145753860473633,3.536393642425537
-38.797813415527344,9.460697174072266,3.493828535079956
-38.480709075927734,7.760245323181152,3.4344022274017334
-38.2370491027832,6.124179840087891,3.387943983078003
-37.509544372558594,4.470861911773682,3.304888963699341
-36.991825103759766,2.908066987991333,3.2463512420654297
-36.82216262817383,1.4098814725875854,3.223881721496582
-43.058353424072266,-0.08228084444999695,3.7671241760253906
-66.9547119140625,-2.819993257522583,5.862973213195801
-16.217971801757812,-1.3373466730117798,1.4237046241760254
-21.860387802124023,-2.6904048919677734,1.9269649982452393
-38.20390701293945,-6.268792152404785,3.3871073722839355
-59.98847579956055,-12.336472511291504,5.358142852783203
-56.79481887817383,-14.079444885253906,5.119309425354004
-54.38896560668945,-15.827422142028809,4.955809593200684
-51.58383560180664,-17.28720474243164,4.759690284729004
-48.95058059692383,-18.623619079589844,4.5821027755737305
-46.468448638916016,-19.851118087768555,4.420893669128418
-44.11980438232422,-20.981901168823242,4.274248123168945
-41.45457077026367,-21.797779083251953,4.097631931304932
-39.351356506347656,-22.754972457885742,3.97695255279541
-37.22869110107422,-23.572240829467773,3.8550913333892822
-32.738033294677734,-22.620901107788086,3.4814393520355225
-31.021608352661133,-23.33019256591797,3.39591121673584
-31.307037353515625,-25.57679557800293,3.536860704421997
-28.093538284301758,-24.898744583129883,3.2842564582824707
-25.30553436279297,-24.311403274536133,3.0701088905334473
-22.85619354248047,-23.796287536621094,2.8866870403289795
-21.300371170043945,-24.039031982421875,2.8099820613861084
-20.150165557861328,-24.670429229736328,2.786837339401245
-19.840473175048828,-26.387754440307617,2.8883941173553467
-20.387630462646484,-29.513206481933594,3.1382551193237305
-19.364439010620117,-30.590871810913086,3.167504072189331
-17.920129776000977,-30.998464584350586,3.1325783729553223
-16.49652099609375,-31.381452560424805,3.1017565727233887
-15.09062385559082,-31.741209030151367,3.0748636722564697
-13.699644088745117,-32.07891082763672,3.0517566204071045
-12.32673454284668,-32.41088104248047,3.033742904663086
-10.757737159729004,-32.11248016357422,2.9629364013671875
-9.490145683288574,-32.6255989074707,2.972675323486328
-8.147436141967773,-32.881752014160156,2.963775634765625
-6.807143211364746,-33.120182037353516,2.95820951461792
-5.527528285980225,-33.71054458618164,2.988675117492676
-4.170716762542725,-33.92020034790039,2.989980936050415
-2.8087716102600098,-34.109527587890625,2.99429988861084
-1.4399819374084473,-34.28246307373047,3.0019731521606445
-0.06190025806427002,-34.43915939331055,3.0130422115325928
1.3279752731323242,-34.579715728759766,3.0275630950927734
2.732208013534546,-34.70412063598633,3.0456130504608154
4.1080780029296875,-34.43215560913086,3.0337889194488525
5.533505916595459,-34.5236701965332,3.0589826107025146
6.42513370513916,-31.841381072998047,2.8419106006622314
8.544368743896484,-35.02254104614258,3.1539440155029297
10.06289005279541,-35.06403350830078,3.191535711288452
7.761998176574707,-23.44955825805664,2.1610419750213623
13.202433586120605,-35.09242248535156,3.2802772521972656
6.744210243225098,-15.950648307800293,1.5151147842407227
16.506071090698242,-35.042762756347656,3.3889267444610596
14.748063087463379,-28.301916122436523,2.7921152114868164
15.720787048339844,-27.420976638793945,2.7653231620788574
13.42077350616455,-21.371000289916992,2.207831859588623
10.536883354187012,-15.371082305908203,1.6304285526275635
13.709187507629395,-18.370250701904297,2.0053956508636475
14.785770416259766,-18.23601531982422,2.053976058959961
15.880820274353027,-18.052978515625,2.103572368621826
17.02965545654297,-17.85814666748047,2.158902168273926
14.976611137390137,-14.492121696472168,1.8232941627502441
19.52097511291504,-17.42671775817871,2.2893967628479004
20.88298225402832,-17.186233520507812,2.3661863803863525
22.338560104370117,-16.9260196685791,2.4520280361175537
45.776268005371094,-31.87356948852539,4.880105018615723
21.141075134277344,-13.492683410644531,2.194199562072754
47.75407028198242,-27.843368530273438,4.836236000061035
51.2745475769043,-27.197053909301758,5.077930450439453
55.249629974365234,-26.518796920776367,5.3616862297058105
51.89502716064453,-22.390233993530273,4.944788455963135
56.254180908203125,-21.634111404418945,5.273011684417725
60.20100402832031,-20.416034698486328,5.5615386962890625
65.78661346435547,-19.400938034057617,6.000648498535156
81.46538543701172,-20.50640106201172,7.349630832672119
67.47241973876953,-14.12855052947998,6.031107425689697
88.552978515625,-14.857559204101562,7.85567569732666
89.1314697265625,-11.295061111450195,7.860359191894531
89.71159362792969,-7.72253942489624,7.877773284912109
50.84531021118164,26.256101608276367,5.006480693817139
49.26882553100586,36.48423385620117,5.363642692565918
41.49787139892578,42.568092346191406,5.201064586639404
38.13379669189453,42.398902893066406,4.989044189453125
42.13992691040039,42.32741928100586,5.726063251495361
-23.596343994140625,30.19327163696289,3.6737239360809326
-36.771175384521484,43.34343719482422,5.449223041534424
-39.085113525390625,42.486183166503906,5.53453254699707
-40.74436950683594,40.865875244140625,5.532372951507568
-42.40751647949219,39.24649429321289,5.539477825164795
-46.467376708984375,39.659996032714844,5.85678768157959
-49.110694885253906,38.61659622192383,5.989438533782959
-30.97064971923828,22.39950180053711,3.66432785987854
-30.590301513671875,20.304197311401367,3.5199031829833984
-30.222841262817383,18.35542869567871,3.3899691104888916
-29.969066619873047,16.591327667236328,3.2840309143066406
-29.649072647094727,14.890771865844727,3.1807947158813477
-29.34847068786621,13.291507720947266,3.08872389793396
-31.297834396362305,12.68511962890625,3.237593650817871
-33.822662353515625,12.15065860748291,3.445457935333252
-36.696746826171875,11.541163444519043,3.6879916191101074
-39.09178161621094,10.588881492614746,3.88277006149292
-38.766082763671875,8.845786094665527,3.812018871307373
-38.31455993652344,7.136931419372559,3.7363860607147217
-37.56267547607422,5.445931434631348,3.6387722492218018
-37.04481506347656,3.8590359687805176,3.570692539215088
-36.540348052978516,2.3276898860931396,3.5102100372314453
-38.18191146850586,0.8949192762374878,3.6614925861358643
-45.953304290771484,-0.7696618437767029,4.406145095825195
-63.36994171142578,-3.6115126609802246,6.085115909576416
-16.18275260925293,-1.5764812231063843,1.5587794780731201
-27.1660099029541,-3.7533044815063477,2.629136562347412
-59.48164367675781,-10.66872501373291,5.793478965759277
-55.82463455200195,-12.346120834350586,5.481213092803955
-52.98958969116211,-13.973753929138184,5.253766059875488
-50.86130905151367,-15.622934341430664,5.100904941558838
-48.335838317871094,-17.00039291381836,4.912205219268799
-45.9503288269043,-18.26704978942871,4.740576267242432
-43.68882369995117,-19.435062408447266,4.584169864654541
-41.53749465942383,-20.51488494873047,4.441389083862305
-39.074520111083984,-21.292152404785156,4.266118049621582
-37.1296272277832,-22.211679458618164,4.14792013168335
-35.26251220703125,-23.06720542907715,4.039676666259766
-31.413267135620117,-22.401227951049805,3.69888973236084
-29.719377517700195,-23.048938751220703,3.6056370735168457
-30.162891387939453,-25.397418975830078,3.780266523361206
-27.102224349975586,-24.747678756713867,3.51853084564209
-24.43523406982422,-24.182514190673828,3.2958459854125977
-22.083253860473633,-23.685049057006836,3.104536294937134
-20.586078643798828,-23.93914794921875,3.026913642883301
-20.052820205688477,-25.308481216430664,3.095616340637207
-19.7351016998291,-27.074647903442383,3.212006092071533
-19.662668228149414,-29.386634826660156,3.3897690773010254
-18.255348205566406,-29.808269500732422,3.3510382175445557
-16.868186950683594,-30.2042179107666,3.316633701324463
-15.498534202575684,-30.575862884521484,3.286370277404785
-14.143717765808105,-30.924463272094727,3.2600862979888916
-12.801316261291504,-31.251087188720703,3.2376489639282227
-11.468960762023926,-31.55671501159668,3.218942642211914
-10.043013572692871,-31.524234771728516,3.171882390975952
-8.733100891113281,-31.773176193237305,3.159050464630127
-7.4310102462768555,-32.017887115478516,3.1511316299438477
-6.197866916656494,-32.60112380981445,3.1814403533935547
-4.881669044494629,-32.81312561035156,3.1804070472717285
-3.5622806549072266,-33.00772476196289,3.1828136444091797
-2.2375643253326416,-33.18516159057617,3.1886749267578125
-0.9053164720535278,-33.345062255859375,3.197958469390869
0.4366599917411804,-33.4874153137207,3.210702657699585
1.4899868965148926,-27.970298767089844,2.6853058338165283
2.6280770301818848,-28.055458068847656,2.701442241668701
4.494332313537598,-33.444053649902344,3.2350924015045166
5.883647441864014,-33.5182991027832,3.2625184059143066
6.816410541534424,-31.37265396118164,3.077862024307251
8.827352523803711,-33.98475646972656,3.366219997406006
10.30758285522461,-34.005767822265625,3.406597137451172
8.17638874053955,-23.52569580078125,2.38773512840271
13.360108375549316,-33.97357177734375,3.499826431274414
14.945390701293945,-33.9347038269043,3.55484938621521
15.216776847839355,-31.100168228149414,3.319323778152466
15.279166221618652,-28.28892707824707,3.0823497772216797
13.599342346191406,-22.925594329833984,2.5554709434509277
13.232648849487305,-20.393285751342773,2.330618143081665
13.240446090698242,-18.71352767944336,2.1977081298828125
13.983625411987305,-18.169292449951172,2.1980419158935547
15.06825065612793,-18.03089141845703,2.2527642250061035
16.17072868347168,-17.841691970825195,2.3084871768951416
17.32849884033203,-17.63994598388672,2.3706085681915283
18.54946517944336,-17.424026489257812,2.43984055519104
19.842933654785156,-17.1920223236084,2.517028570175171
21.219738006591797,-16.94169044494629,2.6031734943389893
22.692792892456055,-16.67034149169922,2.6994829177856445
39.428314208984375,-26.593854904174805,4.559432029724121
21.458160400390625,-13.25121784210205,2.4178314208984375
49.1326904296875,-27.67875862121582,5.406346797943115
52.80055236816406,-27.010540008544922,5.685861587524414
56.87813186645508,-26.269508361816406,6.006378173828125
56.541812896728516,-23.406391143798828,5.866752624511719
57.252140045166016,-21.048385620117188,5.847926139831543
62.36875534057617,-20.124605178833008,6.282835960388184
78.22271728515625,-21.812442779541016,7.785287857055664
83.70262145996094,-19.753990173339844,8.244987487792969
84.70169830322266,-16.428569793701172,8.271655082702637
88.76736450195312,-13.542791366577148,8.608567237854004
89.34623718261719,-9.977898597717285,8.618843078613281
51.402584075927734,8.826602935791016,5.000074863433838
75.03897857666016,19.194149017333984,7.425577163696289
37.41205596923828,42.85853958129883,5.454063415527344
-22.853954315185547,30.154935836791992,3.62740159034729
-35.9319953918457,43.6507568359375,5.420241832733154
-38.22346496582031,42.807064056396484,5.501850128173828
-40.566463470458984,41.91304016113281,5.592040538787842
-41.38676071166992,39.457637786865234,5.4820075035095215
-45.517120361328125,40.03118896484375,5.811244964599609
-48.122406005859375,39.00853729248047,5.938837051391602
-48.90260314941406,36.485836029052734,5.849370956420898
-30.733396530151367,21.062583923339844,3.571932792663574
-30.355268478393555,19.057966232299805,3.436159372329712
-30.004682540893555,17.197494506835938,3.31553316116333
-29.764808654785156,15.506051063537598,3.2175393104553223
-29.457374572753906,13.871105194091797,3.1215016841888428
-30.440053939819336,12.866456031799316,3.1682605743408203
-32.564056396484375,12.246916770935059,3.33538818359375
-35.58985900878906,11.776021957397461,3.5939137935638428
-38.72847366333008,11.109709739685059,3.8626315593719482
-38.82087707519531,9.466320037841797,3.8307952880859375
-38.50319290161133,7.764776229858398,3.7656006813049316
-37.757713317871094,6.047410011291504,3.665954113006592
-37.234336853027344,4.43806266784668,3.594911575317383
-36.72518539428711,2.887103319168091,3.5316944122314453
-36.59454345703125,1.4011646509170532,3.510875940322876
-42.74198913574219,-0.08167660236358643,4.097667694091797
-63.69650650024414,-2.682766914367676,6.1119771003723145
-16.226808547973633,-1.3380756378173828,1.5609389543533325
-21.82876968383789,-2.6865131855010986,2.1085047721862793
-38.22462463378906,-6.272191047668457,3.7135872840881348
-56.92156219482422,-11.705768585205078,5.5712504386901855
-54.0142707824707,-13.390146255493164,5.335074424743652
-51.832767486572266,-15.0835542678833,5.175321578979492
-49.251068115234375,-16.50542640686035,4.979778289794922
-46.81587219238281,-17.81145477294922,4.802082538604736
-44.510292053222656,-19.014598846435547,4.640252590179443
-42.31975173950195,-20.125864028930664,4.492610931396484
-39.81405258178711,-20.93515968322754,4.312472820281982
-37.838165283203125,-21.87997055053711,4.190350532531738
-35.943363189697266,-22.75839614868164,4.078541278839111
-32.8692626953125,-22.711584091186523,3.830235719680786
-29.76923179626465,-22.38831901550293,3.5709919929504395
-30.98758888244629,-25.315813064575195,3.8361260890960693
-28.181440353393555,-24.976654052734375,3.6101346015930176
-25.379539489746094,-24.38250160217285,3.374049186706543
-22.919029235839844,-23.861709594726562,3.1719138622283936
-21.35570526123047,-24.101482391357422,3.087162494659424
-20.164522171020508,-24.68799591064453,3.055976629257202
-19.85512351989746,-26.407245635986328,3.167426824569702
-20.187963485717773,-29.22417449951172,3.4052014350891113
-18.772438049316406,-29.655658721923828,3.3648252487182617
-17.378149032592773,-30.06092643737793,3.328845500946045
-16.002351760864258,-30.441394805908203,3.297071933746338
-14.642374992370605,-30.798362731933594,3.269336462020874
-13.295676231384277,-31.13298988342285,3.2454919815063477
-11.959867477416992,-31.446266174316406,3.2254202365875244
-10.632648468017578,-31.739091873168945,3.209017038345337
-9.21456241607666,-31.67816925048828,3.1628472805023193
-7.911532402038574,-31.929664611816406,3.153653860092163
-6.624309539794922,-32.2305793762207,3.154522180557251
-5.367889404296875,-32.736907958984375,3.1803860664367676
-4.049941062927246,-32.93788528442383,3.1815240383148193
-2.7274351119995117,-33.12163162231445,3.186108112335205
-1.39822518825531,-33.288246154785156,3.1941468715667725
-0.060094475746154785,-33.43682098388672,3.2055823802948
1.2891511917114258,-33.568572998046875,3.2205810546875
2.1828019618988037,-27.725622177124023,2.6662726402282715
3.986407995223999,-33.41231155395508,3.2259469032287598
5.368296146392822,-33.492897033691406,3.251934766769409
6.231527805328369,-30.881935119628906,3.020315170288086
8.288138389587402,-33.97229766845703,3.3524363040924072
9.757597923278809,-34.000205993652344,3.3911640644073486
7.77357292175293,-23.484525680541992,2.3715906143188477
12.784894943237305,-33.98260498046875,3.4808349609375
6.754948139190674,-15.976043701171875,1.6628990173339844
15.967330932617188,-33.89902114868164,3.5923612117767334
14.77203369140625,-28.347915649414062,3.064558744430542
13.204885482788086,-23.032621383666992,2.5452842712402344
13.401530265808105,-21.340362548828125,2.415863275527954
10.548089981079102,-15.387426376342773,1.788515329360962
13.606196403503418,-18.23224449157715,2.1809959411621094
14.67375659942627,-18.097862243652344,2.2336854934692383
15.757622718811035,-17.912931442260742,2.2872016429901123
16.894100189208984,-17.71599769592285,2.346884250640869
14.994284629821777,-14.50922679901123,2.000316619873047
19.356279373168945,-17.279693603515625,2.4875433444976807
20.700931549072266,-17.036415100097656,2.57025146484375
22.136825561523438,-16.773160934448242,2.66265606880188
39.201786041259766,-27.295820236206055,4.579558849334717
21.16431999206543,-13.507519721984863,2.4070377349853516
47.86771011352539,-27.909622192382812,5.312134742736816
51.402671813964844,-27.265012741088867,5.578275203704834
55.319847106933594,-26.55249786376953,5.882772922515869
56.735595703125,-24.47870445251465,5.92388916015625
56.218894958496094,-21.620534896850586,5.774518013000488
60.39289474487305,-20.481122970581055,6.113733291625977
66.01295471191406,-19.46768569946289,6.5981035232543945
81.83782958984375,-20.60016441345215,8.090511322021484
67.52515411376953,-14.139589309692383,6.614022731781006
84.28556060791016,-14.14156723022461,8.193373680114746
89.13233947753906,-11.295177459716797,8.61342716217041
89.71247100830078,-7.722609519958496,8.632512092590332
52.20868682861328,21.846834182739258,5.425776481628418
50.77585220336914,26.220239639282227,5.478584289550781
50.470977783203125,31.434919357299805,5.700396537780762
49.1370735168457,36.38666915893555,5.861738681793213
41.42259979248047,42.49087905883789,5.688963890075684
38.080162048339844,42.339271545410156,5.459280490875244
42.06012725830078,42.24726867675781,6.215645790100098
-47.10908126831055,65.54544067382812,8.416032791137695
-23.528560638427734,30.10654067993164,3.9839203357696533
-36.281585693359375,42.76634216308594,5.8474555015563965
-37.0136604309082,40.234493255615234,5.700129508972168
-40.865150451660156,40.98701858520508,6.034623146057129
-42.328887939453125,39.17374038696289,6.013347625732422
-45.80307388305664,39.09302520751953,6.278554916381836
-48.392948150634766,38.05221939086914,6.418673515319824
-31.012611389160156,22.42984390258789,3.9905755519866943
-30.613468170166016,20.319570541381836,3.831002950668335
-30.3336181640625,18.42271614074707,3.700305461883545
-29.99018096923828,16.60301971435547,3.5740976333618164
-29.6693058013916,14.90093994140625,3.461667776107788
-29.367916107177734,13.300313949584961,3.361398458480835
-30.9378604888916,12.539227485656738,3.480581521987915
-33.72522735595703,12.115653991699219,3.7363479137420654
-36.5836181640625,11.505581855773926,3.9985475540161133
-39.1153450012207,10.595260620117188,4.2252912521362305
-38.350093841552734,8.750860214233398,4.101311683654785
-37.80910873413086,7.042778968811035,4.009936332702637
-37.28533172607422,5.405721664428711,3.928164005279541
-36.7763786315918,3.831071615219116,3.8552029132843018
-36.2800178527832,2.311108350753784,3.790367603302002
-37.9324836730957,0.8890715837478638,3.95607852935791
-45.59252166748047,-0.7636163830757141,4.7543253898620605
-60.340084075927734,-3.4388375282287598,6.301509380340576
-16.191577911376953,-1.5773404836654663,1.696190595626831
-27.141273498535156,-3.7498891353607178,2.8567397594451904
-49.45259475708008,-8.869905471801758,5.23840856552124
-53.14714813232422,-11.753972053527832,5.675234794616699
-50.54866409301758,-13.330065727233887,5.450585842132568
-40.31013488769531,-12.38197135925293,4.396704196929932
-46.2685546875,-16.273296356201172,5.113828182220459
-44.05089569091797,-17.511951446533203,4.942543029785156
-41.94005584716797,-18.657121658325195,4.785999298095703
-39.92462158203125,-19.718307495117188,4.642719268798828
-37.60018539428711,-20.488771438598633,4.464599609375
-35.766056060791016,-21.39597511291504,4.345444679260254
-34.000099182128906,-22.241390228271484,4.236106872558594
-31.53554344177246,-22.488428115844727,4.038422584533691
-28.18907928466797,-21.86211585998535,3.719430446624756
-26.7904052734375,-22.557754516601562,3.651590585708618
-27.18526840209961,-24.823505401611328,3.838338851928711
-24.505346298217773,-24.25190544128418,3.5947153568267822
-22.142932891845703,-23.74905776977539,3.38549542427063
-20.63872718811035,-24.00037956237793,3.300372838973999
-20.067325592041016,-25.326784133911133,3.36910343170166
-19.749914169311523,-27.094970703125,3.4958701133728027
-19.07428741455078,-28.507265090942383,3.5762600898742676
-17.71512222290039,-28.926166534423828,3.5366086959838867
-16.37399673461914,-29.319311141967773,3.501361131668091
-15.048487663269043,-29.688003540039062,3.4703407287597656
-13.736207008361816,-30.033458709716797,3.4433841705322266
-12.434950828552246,-30.35670280456543,3.4203622341156006
-11.142563819885254,-30.65864372253418,3.4011640548706055
-9.861366271972656,-30.954029083251953,3.387214422225952
-8.580072402954102,-31.216426849365234,3.3754565715789795
-7.301454067230225,-31.459665298461914,3.367295980453491
-6.023548603057861,-31.684247970581055,3.3626978397369385
-4.74442195892334,-31.890588760375977,3.36163592338562
-3.4620518684387207,-32.079017639160156,3.3641092777252197
-2.1744885444641113,-32.24979019165039,3.3701298236846924
-0.8797365427017212,-32.4030876159668,3.3797218799591064
0.42428314685821533,-32.53898620605469,3.3929338455200195
1.4428410530090332,-27.085220336914062,2.8280179500579834
2.5517258644104004,-27.2403564453125,2.85262131690979
4.364489555358887,-32.47783279418945,3.4167096614837646
5.712265491485596,-32.54195785522461,3.444833517074585
6.623281478881836,-30.483779907226562,3.252516746520996
8.565107345581055,-32.97510528564453,3.5522055625915527
9.997784614562988,-32.98373794555664,3.593531370162964
8.195545196533203,-23.580812454223633,2.6028897762298584
12.953834533691406,-32.94045639038086,3.6905288696289062
14.483877182006836,-32.88681411743164,3.746731996536255
15.187352180480957,-31.0400390625,3.602980613708496
15.304191589355469,-28.335264205932617,3.3577311038970947
15.438298225402832,-26.025671005249023,3.155042886734009
13.214343070983887,-20.36507797241211,2.5311808586120605
13.14587688446045,-18.579872131347656,2.3730685710906982
13.878384590148926,-18.032550811767578,2.372512102127075
14.953810691833496,-17.893949508666992,2.431410074234009
16.044897079467773,-17.702865600585938,2.4910824298858643
17.1900577545166,-17.499025344848633,2.5575835704803467
18.396991729736328,-17.28079605102539,2.631662368774414
19.674701690673828,-17.046268463134766,2.714210271835327
21.033733367919922,-16.793184280395508,2.8062899112701416
22.48658561706543,-16.51885414123535,2.9091713428497314
38.877403259277344,-26.222265243530273,4.88936710357666
21.481929779052734,-13.265891075134277,2.6324503421783447
48.63700866699219,-27.399526596069336,5.820409774780273
51.91722869873047,-26.558666229248047,6.080267429351807
55.450775146484375,-25.610275268554688,6.368370532989502
56.5057487487793,-23.39145851135254,6.376376628875732
57.42753219604492,-21.11286735534668,6.379453659057617
62.57407760620117,-20.190853118896484,6.855457305908203
69.3576889038086,-19.34041404724121,7.507401466369629
78.62252807617188,-18.55506706237793,8.422696113586426
83.97462463378906,-16.287546157836914,8.918701171875
83.99769592285156,-12.815099716186523,8.859277725219727
89.2859878540039,-9.971173286437988,9.36718463897705
74.93428039550781,19.167369842529297,8.064494132995605
37.35948181152344,42.798309326171875,5.923284530639648
50.36050796508789,74.07098388671875,9.338876724243164
-48.2769775390625,69.3176040649414,8.807437896728516
-22.84607696533203,30.144533157348633,3.9436562061309814
-35.45610809326172,43.072635650634766,5.816764831542969
-37.70970916748047,42.231689453125,5.903166770935059
-39.99790954589844,41.325592041015625,5.996438980102539
-41.310829162597656,39.38525390625,5.951075077056885
-44.871421813964844,39.46330261230469,6.2304158210754395
-47.42496109008789,38.44318389892578,6.365230560302734
-30.63322639465332,22.85519027709961,3.9849510192871094
-30.75701904296875,21.078773498535156,3.8876760005950928
-30.46683692932129,19.128023147583008,3.7507660388946533
-30.114179611206055,17.26026153564453,3.618997097015381
-29.785354614257812,15.516759872436523,3.501683473587036
-29.477102279663086,13.880399703979492,3.397095203399658
-30.359403610229492,12.832364082336426,3.4365427494049072
-32.4724235534668,12.212457656860352,3.6172289848327637
-35.4829216003418,11.740642547607422,3.8968536853790283
-38.60343551635742,11.073843955993652,4.187280654907227
-38.8440055847168,9.471961975097656,4.168703079223633
-38.00669860839844,7.664646148681641,4.042507171630859
-37.47686767578125,6.002425670623779,3.957289934158325
-36.962711334228516,4.405684947967529,3.881160259246826
-36.461952209472656,2.866410493850708,3.8134000301361084
-36.369361877441406,1.3925433158874512,3.7947936058044434
-42.42975616455078,-0.08108098804950714,4.423903465270996
-51.54572677612305,-2.1709961891174316,5.379129409790039
-16.23567008972168,-1.338805913925171,1.6985424757003784
-21.797191619873047,-2.6826255321502686,2.289808988571167
-38.24539566040039,-6.275599479675293,4.040942668914795
-54.1488037109375,-11.135557174682617,5.763918876647949
-51.48944854736328,-12.764244079589844,5.5309977531433105
-40.74897384643555,-11.858138084411621,4.424892425537109
-47.11689758300781,-15.790206909179688,5.18112850189209
-44.85661315917969,-17.066038131713867,5.003984451293945
-42.70773696899414,-18.24455451965332,4.842180252075195
-40.6583137512207,-19.335731506347656,4.6941609382629395
-38.69783020019531,-20.34821891784668,4.558582782745361
-36.43490219116211,-21.068531036376953,4.388246536254883
-34.6446418762207,-21.93607521057129,4.275388717651367
-32.91815948486328,-22.745351791381836,4.171807289123535
-29.25074005126953,-21.99838638305664,3.816026449203491
-27.771127700805664,-22.688085556030273,3.73897385597229
-28.270055770874023,-25.05518341064453,3.938582420349121
-25.454097747802734,-24.454133987426758,3.6802611351013184
-22.982315063476562,-23.92759895324707,3.4591712951660156
-21.411420822143555,-24.16436004638672,3.36623477935791
-20.17892074584961,-24.705631256103516,3.325932741165161
-19.86981773376465,-26.426786422729492,3.4473156929016113
-19.581178665161133,-28.345800399780273,3.592052936553955
-18.214704513549805,-28.774581909179688,3.550724506378174
-16.8671932220459,-29.17707633972168,3.513873815536499
-15.53621768951416,-29.554649353027344,3.4813122749328613
-14.21933364868164,-29.908544540405273,3.4528727531433105
-12.914270401000977,-30.239877700805664,3.428412437438965
-11.618833541870117,-30.54958724975586,3.40781307220459
-10.330963134765625,-30.838520050048828,3.390977144241333
-9.052728652954102,-31.121807098388672,3.3793764114379883
-7.773365020751953,-31.3720645904541,3.369892120361328
-6.495427131652832,-31.603473663330078,3.3639817237854004
-5.216958522796631,-31.816509246826172,3.361617088317871
-3.9360389709472656,-32.011512756347656,3.362785577774048
-2.6506187915802,-32.18878936767578,3.3674917221069336
-1.3587536811828613,-32.3485221862793,3.375761032104492
-0.05839681625366211,-32.49082946777344,3.3876304626464844
1.1069777011871338,-28.824968338012695,3.0076239109039307
2.123049259185791,-26.966644287109375,2.8203511238098145
3.8715500831604004,-32.449668884277344,3.407327651977539
5.212409973144531,-32.52037048339844,3.4339816570281982
6.0489630699157715,-29.977216720581055,3.1885430812835693
8.042887687683105,-32.9670295715332,3.538086175918579
9.465619087219238,-32.98283767700195,3.5777382850646973
7.785407066345215,-23.5202579498291,2.5831727981567383
12.398194313049316,-32.954742431640625,3.671114921569824
6.765739917755127,-16.00156021118164,1.8113912343978882
15.469152450561523,-32.84137725830078,3.785015821456909
14.796120643615723,-28.394134521484375,3.3383255004882812
15.670733451843262,-27.333681106567383,3.2850637435913086
13.482963562011719,-21.470029830932617,2.643360137939453
10.559334754943848,-15.40383243560791,1.947191834449768
13.52955150604248,-18.129535675048828,2.358600378036499
14.563246726989746,-17.961566925048828,2.410972833633423
15.63613510131836,-17.774822235107422,2.468291759490967
16.760478973388672,-17.575870513916016,2.5321898460388184
15.012028694152832,-14.526397705078125,2.1780378818511963
19.194074630737305,-17.1348934173584,2.6826820373535156
20.521753311157227,-16.888946533203125,2.771108388900757
21.93838119506836,-16.622802734375,2.869839668273926
23.44964599609375,-16.327756881713867,2.9792556762695312
21.18765640258789,-13.522412300109863,2.6206836700439453
47.4833984375,-27.685544967651367,5.730884552001953
50.678466796875,-26.880884170532227,5.981236934661865
54.11440658569336,-25.973909378051758,6.258459568023682
56.699058532714844,-24.462949752807617,6.4384355545043945
56.1836051940918,-21.606964111328125,6.276191711425781
60.58635330200195,-20.546724319458008,6.670349597930908
69.57079315185547,-20.516918182373047,7.562585830688477
76.49462890625,-19.255172729492188,8.224435806274414
67.57806396484375,-14.150665283203125,7.198785781860352
84.23751068115234,-14.133509635925293,8.905706405639648
83.59324645996094,-10.593239784240723,8.785472869873047
89.71333312988281,-7.7226972579956055,9.38846492767334
51.846126556396484,21.69511604309082,5.859878063201904
50.85616683959961,26.2617130279541,5.967714309692383
50.26422882080078,31.3061580657959,6.174128532409668
49.005802154541016,36.28947067260742,6.3579607009887695
41.42924118041992,42.49768829345703,6.188082218170166
38.02659606933594,42.27970504760742,5.928943634033203
41.98048782348633,42.167274475097656,6.704221725463867
-48.87873840332031,74.1187515258789,10.003632545471191
-45.934059143066406,63.910560607910156,8.867938995361328
-23.461048126220703,30.020156860351562,4.292868614196777
-35.80406951904297,42.203468322753906,6.235879421234131
-36.34470748901367,39.507328033447266,6.048521041870117
-40.29580307006836,40.41595458984375,6.430458068847656
-42.250431060791016,39.101131439208984,6.486281871795654
-45.15642547607422,38.54109573364258,6.68912410736084
-45.280235290527344,35.60463333129883,6.490187644958496
-31.037139892578125,22.447589874267578,4.315827369689941
-30.726594924926758,20.394672393798828,4.1552734375
-30.35580062866211,18.43619728088379,4.0016632080078125
-30.01136016845703,16.614742279052734,3.865077257156372
-29.689599990844727,14.911136627197266,3.743412733078003
-29.387422561645508,13.30914306640625,3.634908676147461
-30.854177474975586,12.5053071975708,3.751117706298828
-33.628170013427734,12.080794334411621,4.026067733764648
-36.14934158325195,11.36900806427002,4.269739151000977
-38.605567932128906,10.457179069519043,4.506555080413818
-38.05622100830078,8.68380355834961,4.398120403289795
-37.525779724121094,6.990002632141113,4.300867557525635
-37.01158905029297,5.3660359382629395,4.213807106018066
-36.51134490966797,3.8034610748291016,4.136102676391602
-36.052207946777344,2.296600341796875,4.070343971252441
-37.685874938964844,0.8832895755767822,4.247343063354492
-45.23676681518555,-0.7576620578765869,5.0976738929748535
-57.677757263183594,-3.28711199760437,6.509270668029785
-16.20042610168457,-1.5782020092010498,1.833991289138794
-27.19133758544922,-3.756803035736084,3.0928313732147217
-49.40583801269531,-8.861522674560547,5.655535697937012
-13.330227851867676,-2.9481041431427,1.5382497310638428
-48.319026947021484,-12.74209213256836,5.630369663238525
-39.42145919799805,-12.109002113342285,4.646553039550781
-44.36767578125,-15.604732513427734,5.299221992492676
-42.29931640625,-16.815629959106445,5.1287841796875
-40.323211669921875,-17.937864303588867,4.972604274749756
-38.42982864379883,-18.98004150390625,4.829310894012451
-36.61082458496094,-19.94965362548828,4.697720050811768
-34.49698257446289,-20.63677978515625,4.52928352355957
-32.82298278808594,-21.471378326416016,4.419264793395996
-31.20307159423828,-22.25133514404297,4.318113803863525
-28.126935958862305,-21.81391143798828,4.010540962219238
-26.656126022338867,-22.44468879699707,3.9263150691986084
-26.897001266479492,-24.560272216796875,4.103914260864258
-24.575992584228516,-24.32181739807129,3.895829200744629
-22.20305061340332,-23.813526153564453,3.668466806411743
-20.691736221313477,-24.062030792236328,3.575709342956543
-20.081878662109375,-25.345149993896484,3.643462657928467
-19.764774322509766,-27.1153621673584,3.7806568145751953
-18.51915740966797,-27.67760467529297,3.752209186553955
-17.205095291137695,-28.093374252319336,3.711805820465088
-15.907144546508789,-28.483373641967773,3.6758675575256348
-14.623126029968262,-28.848844528198242,3.6442198753356934
-13.350869178771973,-29.190935134887695,3.6167092323303223
-12.088376998901367,-29.510644912719727,3.5932018756866455
-10.833708763122559,-29.808841705322266,3.573591470718384
-9.589248657226562,-30.09984016418457,3.5593860149383545
-8.344114303588867,-30.357919692993164,3.547367811203003
-7.101113796234131,-30.596498489379883,3.539029121398926
-5.858497142791748,-30.816072463989258,3.5343265533447266
-4.61445951461792,-31.01702117919922,3.5332436561584473
-3.3671417236328125,-31.199668884277344,3.5357704162597656
-2.1147775650024414,-31.364215850830078,3.5419247150421143
-0.8555116057395935,-31.510839462280273,3.5517282485961914
0.412559449672699,-31.639589309692383,3.565229654312134
1.4349684715270996,-26.937341690063477,3.039414644241333
2.5126118659973145,-26.822824478149414,3.0354368686676025
4.235799789428711,-31.520174026489258,3.583397388458252
5.542550086975098,-31.575103759765625,3.6120569705963135
6.440486907958984,-29.6424503326416,3.417827606201172
8.317570686340332,-32.022125244140625,3.727750301361084
9.70557975769043,-32.01973342895508,3.769853115081787
8.215670585632324,-23.638721466064453,2.8197250366210938
12.56531810760498,-31.95250129699707,3.868558406829834
14.043070793151855,-31.88591766357422,3.925677537918091
15.157690048217773,-30.979412078857422,3.885958671569824
15.329343795776367,-28.381832122802734,3.6344971656799316
15.414670944213867,-25.985849380493164,3.404283046722412
13.29531192779541,-20.489858627319336,2.752079725265503
13.052492141723633,-18.4478816986084,2.5462422370910645
13.774538040161133,-17.897621154785156,2.544671058654785
14.840897560119629,-17.75884246826172,2.6076643466949463
15.920797348022461,-17.565940856933594,2.6711671352386475
17.053579330444336,-17.36009407043457,2.7419097423553467
18.246728897094727,-17.13966178894043,2.8206775188446045
19.509014129638672,-16.9027156829834,2.9084105491638184
20.850643157958984,-16.64700698852539,3.006221055984497
22.283737182617188,-16.369842529296875,3.1154370307922363
39.055057525634766,-26.342098236083984,5.307846546173096
38.93306350708008,-24.042621612548828,5.155735492706299
46.39641189575195,-26.137292861938477,6.000069618225098
