-46.634490966796875,-50.77622604370117,6.609445571899414
-45.699440002441406,-53.957313537597656,6.778891563415527
-44.713321685791016,-57.31113052368164,6.968771457672119
-56.05713653564453,-78.13053894042969,9.218846321105957
-51.36396026611328,-78.02652740478516,8.955680847167969
-19.979406356811523,-33.18021774291992,3.713144540786743
-19.189882278442383,-34.97569274902344,3.824648141860962
-18.259618759155273,-36.70377731323242,3.9301669597625732
-17.289724349975586,-38.56594467163086,4.0518598556518555
-16.199573516845703,-40.409297943115234,4.173731803894043
-14.86838150024414,-41.88718032836914,4.26119327545166
-12.827960014343262,-41.33635711669922,4.149341583251953
-11.726152420043945,-43.95133972167969,4.360986709594727
-10.164738655090332,-45.339759826660156,4.4546027183532715
-10.080755233764648,-55.284217834472656,5.387469291687012
-7.91616153717041,-56.10093688964844,5.4316558837890625
-6.505448341369629,-64.83848571777344,6.247253894805908
-4.158926486968994,-69.44430541992188,6.669529914855957
-1.4151766300201416,-72.06423950195312,6.910100936889648
1.464449167251587,-71.2626724243164,6.8333635330200195
4.281811714172363,-70.42082977294922,6.763684272766113
6.990018367767334,-69.0344467163086,6.652149677276611
9.075040817260742,-63.89256286621094,6.186839580535889
12.40080738067627,-67.65834045410156,6.594431400299072
15.008204460144043,-66.65921783447266,6.550568580627441
17.57169532775879,-65.62090301513672,6.512696266174316
19.948387145996094,-64.0746078491211,6.433630466461182
22.578868865966797,-63.42560958862305,6.4543867111206055
25.0281925201416,-62.26763916015625,6.433751106262207
27.427242279052734,-61.02918243408203,6.414546012878418
29.812265396118164,-59.78907012939453,6.405000686645508
27.237401962280273,-49.53609848022461,5.419560432434082
21.978479385375977,-36.42497253417969,4.07849645614624
9.50727367401123,-14.413809776306152,1.6553723812103271
22.588699340820312,-31.422908782958984,3.71010160446167
24.150869369506836,-30.89710807800293,3.759625196456909
24.05919647216797,-28.35423469543457,3.565020799636841
23.869234085083008,-25.941577911376953,3.379599094390869
23.691818237304688,-23.7581844329834,3.2166433334350586
23.442304611206055,-21.691028594970703,3.0618956089019775
23.299766540527344,-19.882747650146484,2.9364988803863525
23.222766876220703,-18.25706672668457,2.831998825073242
56.904212951660156,-41.14811706542969,6.732231140136719
17.689105987548828,-11.738787651062012,2.0352885723114014
61.26853942871094,-37.20303726196289,6.871856689453125
53.847434997558594,-29.804424285888672,5.90034818649292
52.89187240600586,-26.55811882019043,5.674063682556152
52.00575637817383,-23.5469970703125,5.473025798797607
24.140758514404297,-9.781780242919922,2.4971415996551514
53.014190673828125,-19.039730072021484,5.400293827056885
55.485801696777344,-17.44478988647461,5.57611608505249
58.094757080078125,-15.730586051940918,5.770089626312256
60.8790283203125,-13.8858003616333,5.986348628997803
66.3499755859375,-12.352903366088867,6.470254898071289
83.2784652709961,-12.066191673278809,8.06724739074707
84.91573333740234,-8.838129043579102,8.184821128845215
87.1749267578125,-5.5453290939331055,8.374320983886719
86.4389419555664,-2.0182180404663086,8.289130210876465
85.425048828125,1.4384889602661133,8.190827369689941
94.76248168945312,5.409170627593994,9.099629402160645
97.12657165527344,9.470670700073242,9.355646133422852
84.4033203125,41.69534683227539,9.025212287902832
51.05277633666992,27.825258255004883,5.574170112609863
81.71276092529297,48.89229202270508,9.129002571105957
48.25028610229492,37.42765808105469,5.854270935058594
44.14986801147461,79.07160949707031,8.682178497314453
-85.65657043457031,40.6491813659668,9.885530471801758
-35.05430221557617,14.940996170043945,3.9730443954467773
-37.20400619506836,14.119563102722168,4.1490020751953125
-39.5422477722168,13.215620040893555,4.346998691558838
-41.87592315673828,12.148773193359375,4.546180248260498
-43.52149200439453,10.751075744628906,4.674129009246826
-42.800907135009766,8.765281677246094,4.555213928222656
-42.076377868652344,6.86875057220459,4.445125102996826
-37.388465881347656,4.570324420928955,3.9272871017456055
-36.4069709777832,2.972046136856079,3.8085663318634033
-39.65250015258789,1.637467384338379,4.13785457611084
-72.60790252685547,-2.8398444652557373,7.576178550720215
-71.77232360839844,-5.701606750488281,7.5068464279174805
-77.72435760498047,-9.329007148742676,8.162016868591309
-80.63878631591797,-12.983386993408203,8.516002655029297
-79.38346099853516,-16.076812744140625,8.444873809814453
-46.72458267211914,-11.434307098388672,5.015445709228516
-50.245086669921875,-34.49528503417969,6.354538917541504
-59.434627532958984,-44.41978073120117,7.736356258392334
-58.52434158325195,-47.520172119140625,7.860198020935059
-55.17670440673828,-48.60706329345703,7.666851997375488
-50.140785217285156,-47.882354736328125,7.228750228881836
-47.19004821777344,-48.836700439453125,7.080689430236816
-46.283668518066406,-51.919639587402344,7.252028465270996
-45.762413024902344,-55.68606948852539,7.515069007873535
-44.745906829833984,-59.14141845703125,7.732363224029541
-51.31916046142578,-73.81482696533203,9.373496055603027
-20.282697677612305,-31.82964515686035,3.935209274291992
-19.452953338623047,-33.417991638183594,4.031635761260986
-18.63702392578125,-35.19636917114258,4.152435302734375
-17.636138916015625,-36.810054779052734,4.255727291107178
-15.63020133972168,-36.29741668701172,4.120480537414551
-13.742621421813965,-35.809783935546875,3.999173402786255
-13.97811508178711,-41.313270568847656,4.54736328125
-12.322958946228027,-41.894981384277344,4.5531816482543945
-11.345791816711426,-45.208168029785156,4.859760284423828
-9.482911109924316,-45.446834564208984,4.840527057647705
-9.200516700744629,-55.074947357177734,5.821908473968506
-7.71511173248291,-61.22880554199219,6.434438705444336
-5.541083812713623,-64.90719604492188,6.7920989990234375
-3.125331401824951,-69.43423461914062,7.246815204620361
-0.32982176542282104,-68.72622680664062,7.165748119354248
2.4061594009399414,-67.9754409790039,7.091822147369385
4.914116859436035,-64.90819549560547,6.786956787109375
7.658095359802246,-65.86698913574219,6.913818359375
10.29271125793457,-65.47370910644531,6.910390853881836
12.825288772583008,-64.55818176269531,6.862638473510742
15.314709663391113,-63.60219955444336,6.820953845977783
17.63475227355957,-62.1512451171875,6.7359395027160645
20.02837562561035,-61.121673583984375,6.706206321716309
22.55059814453125,-60.490570068359375,6.73099422454834
24.893247604370117,-59.371150970458984,6.712366104125977
27.187589645385742,-58.17216110229492,6.694988250732422
29.469228744506836,-56.96884536743164,6.6874470710754395
26.22271156311035,-46.05887985229492,5.52604341506958
22.420703887939453,-35.94139862060547,4.416746139526367
9.505393981933594,-13.956009864807129,1.760556936264038
22.984012603759766,-30.992149353027344,4.022994518280029
23.78440284729004,-29.515165328979492,3.9522030353546143
23.636518478393555,-27.03268051147461,3.744011402130127
23.471546173095703,-24.761823654174805,3.557316780090332
19.811405181884766,-19.286012649536133,2.88274884223938
20.929128646850586,-18.79700469970703,2.933056116104126
22.149625778198242,-18.340444564819336,2.998342514038086
23.4235782623291,-17.859088897705078,3.07112193107605
55.30364990234375,-38.75442123413086,7.041028022766113
57.370609283447266,-36.85795974731445,7.109780788421631
59.430992126464844,-34.891143798828125,7.185473918914795
53.501163482666016,-28.584266662597656,6.324484348297119
52.57168960571289,-25.427932739257812,6.088841915130615
23.938783645629883,-10.413798332214355,2.721895217895508
50.756080627441406,-19.694812774658203,5.6764726638793945
52.36468505859375,-17.93398666381836,5.771076679229736
54.76021957397461,-16.32802963256836,5.9579267501831055
59.997310638427734,-15.29419231414795,6.4556097984313965
62.92044448852539,-13.372685432434082,6.7068681716918945
68.74421691894531,-11.746320724487305,7.271431922912598
79.9233169555664,-10.372024536132812,8.403003692626953
70.34417724609375,-6.268120288848877,7.36342716217041
83.43915557861328,-4.065879821777344,8.710025787353516
85.07456970214844,2.695509672164917,8.874663352966309
84.09012603759766,6.052751064300537,8.790253639221191
91.56428527832031,10.301732063293457,9.607093811035156
93.79393768310547,14.38847541809082,9.893730163574219
96.58877563476562,18.816469192504883,10.26004695892334
74.47411346435547,27.44940185546875,8.275609970092773
85.09757232666016,39.38764190673828,9.776931762695312
64.90469360351562,33.26976776123047,7.604479789733887
82.93019104003906,46.80827713012695,9.928884506225586
71.42520904541016,44.18879699707031,8.757068634033203
73.57796478271484,49.71528625488281,9.258578300476074
60.20246887207031,52.24641418457031,8.311107635498047
39.14093017578125,46.91487503051758,6.370368957519531
40.88029479980469,75.83760833740234,8.982780456542969
-24.817018508911133,28.811336517333984,3.9647443294525146
-57.572296142578125,37.59375,7.169136047363281
-36.389896392822266,14.431790351867676,4.081643104553223
-38.65500259399414,13.559822082519531,4.271108150482178
-40.87778854370117,12.51959228515625,4.45749568939209
-43.67168045043945,11.47819995880127,4.708031177520752
-43.06375503540039,9.48685073852539,4.597661972045898
-42.314964294433594,7.553798198699951,4.481677055358887
-41.674739837646484,5.722973823547363,4.385957717895508
-37.10075378417969,3.583465814590454,3.8862762451171875
-38.393760681152344,2.1564364433288574,4.009397983551025
-41.99351501464844,0.6688331365585327,4.378968715667725
-72.92044830322266,-1.7691541910171509,7.605215549468994
-72.07909393310547,-4.651102066040039,7.530884265899658
-74.06852722167969,-7.7774457931518555,7.765139579772949
-81.10400390625,-11.826784133911133,8.545665740966797
-79.84626770019531,-14.941014289855957,8.469587326049805
-35.98236083984375,-8.241727828979492,3.8488214015960693
-90.11991119384766,-24.490528106689453,9.737045288085938
-73.70999908447266,-40.88612365722656,8.788436889648438
-60.9642219543457,-44.16868209838867,7.8492913246154785
-58.86384201049805,-46.36397171020508,7.812549114227295
-57.18595886230469,-48.889610290527344,7.844386100769043
-51.93537139892578,-48.14347457885742,7.383686065673828
-47.51410675048828,-47.73422622680664,7.022274971008301
-46.6234130859375,-50.764156341552734,7.18646240234375
-45.68830108642578,-53.94417953491211,7.370657444000244
-45.128021240234375,-57.84264373779297,7.649250030517578
-52.9133186340332,-73.74878692626953,9.463764190673828
-20.578218460083008,-31.260189056396484,3.902125597000122
-19.764522552490234,-32.82334899902344,3.9948339462280273
-18.9056453704834,-34.457645416259766,4.097925186157227
-18.039541244506836,-36.261390686035156,4.222774505615234
-16.35616683959961,-36.483577728271484,4.168704032897949
-14.426800727844238,-35.987144470214844,4.042442798614502
-14.73582649230957,-41.51374435424805,4.59298849105835
-12.716568946838379,-40.9774284362793,4.473475456237793
-11.721563339233398,-43.93414306640625,4.7409796714782715
-10.079261779785156,-44.95851135253906,4.80390739440918
-10.09047794342041,-55.33756637573242,5.864851951599121
-8.493195533752441,-60.19023895263672,6.3378448486328125
-6.511669158935547,-64.90064239501953,6.800776958465576
-4.166155815124512,-69.56533813476562,7.2661566734313965
-1.354851245880127,-68.99263763427734,7.1948370933532715
1.4026834964752197,-68.25755310058594,7.1183061599731445
3.8488879203796387,-63.300472259521484,6.612150192260742
6.700752258300781,-66.1774673461914,6.935206413269043
9.023764610290527,-63.53160095214844,6.690546989440918
11.89541244506836,-64.90092468261719,6.87955379486084
14.400447845458984,-63.95986557006836,6.835647106170654
16.864099502563477,-62.978336334228516,6.7977166175842285
19.14884376525879,-61.50651550292969,6.716520309448242
21.67744255065918,-60.89341354370117,6.739284515380859
24.032039642333984,-59.78931427001953,6.718594551086426
26.338045120239258,-58.605613708496094,6.699164390563965
28.63006591796875,-57.41812515258789,6.689591407775879
27.263370513916016,-49.58331298828125,5.899716854095459
21.812456130981445,-36.14981460571289,4.402101039886475
9.513921737670898,-14.423884391784668,1.8015753030776978
22.416818618774414,-31.183809280395508,4.004258632659912
23.863672256469727,-30.529701232910156,4.040197849273682
23.700151443481445,-27.931076049804688,3.8193135261535645
23.531286239624023,-25.574291229248047,3.6234800815582275
19.38047981262207,-19.43476104736328,2.861687183380127
20.562055587768555,-19.02593994140625,2.9208526611328125
21.693143844604492,-18.511743545532227,2.9734036922454834
22.946529388427734,-18.039894104003906,3.043332815170288
54.53858947753906,-39.437530517578125,7.0173468589782715
17.705472946166992,-11.749653816223145,2.215546131134033
58.67095947265625,-35.625732421875,7.156702518463135
53.863094329833984,-29.81308937072754,6.418848514556885
52.90666198730469,-26.565534591674805,6.172609806060791
52.0197868347168,-23.553354263305664,5.953851222991943
51.05014419555664,-20.685400009155273,5.74304723739624
51.50984191894531,-18.499439239501953,5.706485748291016
53.861534118652344,-16.93412208557129,5.886838912963867
56.33675765991211,-15.254562377929688,6.085422515869141
60.99189758300781,-13.911547660827637,6.5225830078125
66.48296356201172,-12.377660751342773,7.0508952140808105
79.16388702392578,-11.470027923583984,8.340134620666504
81.22229766845703,-8.453704833984375,8.514307975769043
83.28593444824219,-5.29794979095459,8.701276779174805
84.73579406738281,-1.97846519947052,8.837302207946777
85.44316101074219,1.4387918710708618,8.909908294677734
84.4513931274414,4.820588111877441,8.819571495056152
83.96308135986328,8.187101364135742,8.795848846435547
93.02286529541016,12.860734939575195,9.791191101074219
95.8091812133789,17.193376541137695,10.149023056030273
65.18692016601562,32.202396392822266,7.580735683441162
51.06345748901367,27.831083297729492,6.063512325286865
74.06322479248047,44.31525421142578,8.998900413513184
67.20443725585938,43.97093200683594,8.373562812805176
48.26089096069336,37.435874938964844,6.368268966674805
44.1302604675293,79.03652954101562,9.438201904296875
-54.986000061035156,57.1535530090332,8.936030387878418
-58.570621490478516,56.17719650268555,9.144156455993652
-62.11790084838867,54.9627799987793,9.345433235168457
-48.7785530090332,39.78367614746094,7.092216491699219
-51.64548110961914,38.77421569824219,7.27652645111084
-54.65439224243164,37.698097229003906,7.480882167816162
-30.73616600036621,16.129568099975586,3.9110260009765625
-32.53864288330078,15.441526412963867,4.058112144470215
-34.472904205322266,14.693184852600098,4.222261428833008
-36.56008529663086,13.875189781188965,4.406017780303955
-38.825782775878906,12.97616958618164,4.612473011016846
-41.10018539428711,11.923721313476562,4.821823596954346
-43.04396057128906,10.633111953735352,4.995678901672363
-42.34310531616211,8.671526908874512,4.869940757751465
-41.63996505737305,6.797507286071777,4.753803253173828
-37.38017272949219,4.569310665130615,4.243085861206055
-36.92698287963867,3.014495849609375,4.174513816833496
-38.54563903808594,1.591761827468872,4.346755027770996
-42.163475036621094,0.04597485065460205,4.750687599182129
-72.59265899658203,-2.839246988296509,8.185481071472168
-71.75738525390625,-5.700423240661621,8.110587120056152
-74.38542938232422,-8.92824935913086,8.441380500793457
-79.8824462890625,-12.861611366271973,9.116509437561035
-25.40558624267578,-5.145163536071777,2.9206349849700928
-46.67675018310547,-11.422601699829102,5.414393901824951
-71.63996124267578,-45.05987548828125,9.535805702209473
-65.40034484863281,-44.899986267089844,8.938319206237793
-59.421695709228516,-44.41013717651367,8.358479499816895
-57.80645751953125,-46.9372673034668,8.389932632446289
-53.500606536865234,-47.130531311035156,8.0335111618042
-48.702205657958984,-46.50857925415039,7.587625503540039
-47.178985595703125,-48.825260162353516,7.649954795837402
-46.713401794433594,-52.401695251464844,7.909673690795898
-45.751136779785156,-55.67234420776367,8.119163513183594
-44.73456573486328,-59.126407623291016,8.353856086730957
-20.80940818786621,-29.931175231933594,4.107399940490723
-18.856468200683594,-29.591453552246094,3.953554630279541
-19.24371337890625,-33.05854415893555,4.309925079345703
-18.42238426208496,-34.79102325439453,4.435651779174805
-17.4853458404541,-36.495323181152344,4.559630393981934
-15.50078010559082,-35.996849060058594,4.415928840637207
-13.693293571472168,-35.68124771118164,4.306197643280029
-13.855600357055664,-40.9511833190918,4.871039390563965
-12.318321228027344,-41.87921905517578,4.918547630310059
-11.273148536682129,-44.91868591308594,5.218069076538086
-9.636640548706055,-46.18354797363281,5.315709590911865
-9.209610939025879,-55.129451751708984,6.297676086425781
-7.711180210113525,-61.197654724121094,6.949843406677246
-5.53797721862793,-64.87076568603516,7.335763931274414
-2.996462821960449,-66.57131958007812,7.5083794593811035
-0.3163578510284424,-65.92290496826172,7.427806854248047
2.308974027633667,-65.2302017211914,7.354272365570068
4.845526218414307,-64.00239562988281,7.231976509094238
7.351465225219727,-63.22958755493164,7.1722517013549805
9.887260437011719,-62.89450454711914,7.173537254333496
12.323412895202637,-62.03192138671875,7.125906944274902
14.718917846679688,-61.127864837646484,7.084309101104736
16.945947647094727,-59.723602294921875,6.994868755340576
19.249353408813477,-58.74427795410156,6.965182781219482
21.684450149536133,-58.167152404785156,6.9944562911987305
23.918136596679688,-57.045494079589844,6.969590663909912
26.14804458618164,-55.947906494140625,6.958305835723877
28.352611541748047,-54.81025314331055,6.952965259552002
26.246198654174805,-46.100128173828125,5.977069854736328
22.251752853393555,-35.670570373535156,4.736997127532959
9.514312744140625,-13.969099044799805,1.904331088066101
22.80935287475586,-30.756620407104492,4.3144121170043945
23.422208786010742,-29.065696716308594,4.205909252166748
23.295148849487305,-26.64227867126465,3.9875307083129883
18.47199058532715,-19.487445831298828,3.0253772735595703
19.5906925201416,-19.071149826049805,3.080538034439087
20.751039505004883,-18.637054443359375,3.1426384449005127
21.956987380981445,-18.180932998657227,3.211982488632202
23.214967727661133,-17.700027465820312,3.289250612258911
53.085548400878906,-37.20006561279297,7.303709030151367
55.04804229736328,-35.365814208984375,7.372139930725098
57.00041580200195,-33.46418762207031,7.447420120239258
53.51652526855469,-28.59246826171875,6.836519718170166
52.58622741699219,-25.434974670410156,6.581732749938965
23.92098617553711,-10.406063079833984,2.939230442047119
54.23605728149414,-21.04513168334961,6.554861545562744
50.90139389038086,-17.432838439941406,6.062241077423096
60.848663330078125,-18.143444061279297,7.154284954071045
60.0115966796875,-15.297840118408203,6.977920055389404
63.040836334228516,-13.398274421691895,7.261648178100586
68.8868408203125,-11.770695686340332,7.874178409576416
72.29692077636719,-9.382301330566406,8.214215278625488
70.40447235107422,-6.273495674133301,7.964112758636475
79.8897476196289,-3.8929238319396973,9.012093544006348
83.02617645263672,2.6306071281433105,9.359498977661133
84.10775756835938,6.054012298583984,9.501185417175293
86.72006225585938,9.756690979003906,9.832649230957031
89.2040786743164,13.684367179870605,10.16845989227295
91.04531860351562,17.736543655395508,10.45118522644043
92.87629699707031,21.999486923217773,10.754207611083984
94.00760650634766,26.29730987548828,10.998737335205078
74.466552734375,27.446619033813477,8.942134857177734
86.18746948242188,35.76161193847656,10.513768196105957
85.11519622802734,39.39580535888672,10.567632675170898
63.88337707519531,32.74626159667969,8.088476181030273
63.09816360473633,35.61447525024414,8.163749694824219
62.2752571105957,38.5279541015625,8.251021385192871
60.89509201049805,41.14567565917969,8.280637741088867
60.18366622924805,52.2300910949707,8.978596687316895
39.107112884521484,46.87432098388672,6.878190040588379
40.84194564819336,75.76652526855469,9.69814682006836
5.535777568817139,59.62342071533203,6.746840953826904
3.469991683959961,66.16290283203125,7.465019226074219
0.8507681488990784,69.63633728027344,7.846721649169922
-1.9302972555160522,69.00723266601562,7.778293132781982
-24.789188385009766,28.779033660888672,4.279697895050049
-57.29448318481445,56.60884475708008,9.075050354003906
-60.792030334472656,55.41914367675781,9.268647193908691
-47.80556869506836,40.18562316894531,7.036656856536865
-50.571388244628906,39.15427780151367,7.206247329711914
-53.525760650634766,38.10367202758789,7.402965068817139
-56.634254455566406,36.981224060058594,7.621100425720215
-30.10036277770996,16.36995506286621,3.8606040477752686
-31.85879898071289,15.702142715454102,4.0019378662109375
-33.742164611816406,14.97705364227295,4.159518241882324
-35.770118713378906,14.18599796295166,4.335705757141113
-37.96662521362305,13.318354606628418,4.53338098526001
-40.13504409790039,12.29211139678955,4.729471683502197
-42.83443069458008,11.25814437866211,4.99019718170166
-42.59889602661133,9.384443283081055,4.91483211517334
-41.87250900268555,7.4748077392578125,4.792483329772949
-37.1829948425293,5.106130599975586,4.228837490081787
-37.092613220214844,3.5826797485351562,4.198785781860352
-37.35442352294922,2.098057746887207,4.215467929840088
-40.7550163269043,0.6491115689277649,4.592573165893555
-72.90506744384766,-1.7687876224517822,8.216846466064453
-72.06404876708984,-4.650127410888672,8.136555671691895
-71.03501892089844,-7.458916664123535,8.04772663116455
-80.34069061279297,-11.715474128723145,9.147956848144531
-25.401037216186523,-4.7530999183654785,2.911684274673462
-35.97501754760742,-8.240047454833984,4.158380508422852
-90.08782196044922,-24.4818058013916,10.518593788146973
-73.61304473876953,-40.832340240478516,9.484735488891602
-67.64581298828125,-44.97981262207031,9.152996063232422
-61.12874221801758,-44.287879943847656,8.505231857299805
-58.602909088134766,-46.15843963623047,8.405206680297852
-55.409873962402344,-47.37118911743164,8.21375846862793
-50.41429901123047,-46.73345947265625,7.745490074157715
-47.5030632019043,-47.72312927246094,7.586862564086914
-46.61231994628906,-50.75209045410156,7.764204978942871
-46.112335205078125,-54.444786071777344,8.039027214050293
-45.116703033447266,-57.82813262939453,8.264092445373535
-50.09877014160156,-69.82596588134766,9.683030128479004
-19.5992431640625,-29.77304458618164,4.0162248611450195
-19.553844451904297,-32.473472595214844,4.271002769470215
-18.698984146118164,-34.08097457885742,4.380014419555664
-17.841432571411133,-35.8631706237793,4.5132293701171875
-16.219148635864258,-36.1779670715332,4.467173099517822
-14.309566497802734,-35.69474411010742,4.332973003387451
-14.605392456054688,-41.14628601074219,4.919480323791504
-12.615836143493652,-40.65283966064453,4.795968532562256
-11.716971397399902,-43.916927337646484,5.121335506439209
-9.995063781738281,-44.58297348022461,5.14798641204834
-10.100529670715332,-55.39273452758789,6.344170570373535
-8.501500129699707,-60.24909591674805,6.85569429397583
-6.438323497772217,-64.16960906982422,7.2664794921875
-4.000518798828125,-66.79935455322266,7.539953708648682
-1.2993817329406738,-66.16753387451172,7.4567179679870605
1.345839023590088,-65.49107360839844,7.380620956420898
3.7751624584198,-62.08795166015625,7.008550643920898
6.431637763977051,-63.519813537597656,7.193559646606445
8.977028846740723,-63.202430725097656,7.192678928375244
11.428814888000488,-62.355224609375,7.142784118652344
13.83906364440918,-61.466468811035156,7.098973274230957
16.210163116455078,-60.536312103271484,7.0611090660095215
18.4029541015625,-59.11064529418945,6.9754815101623535
20.843820571899414,-58.55172348022461,7.002748489379883
23.110610961914062,-57.49687957763672,6.982072353363037
25.33039093017578,-56.36343002319336,6.962480545043945
27.53622055053711,-55.22438430786133,6.952912330627441
27.289447784423828,-49.6307373046875,6.3816304206848145
21.648630142211914,-35.87831497192383,4.721408367156982
9.520596504211426,-14.434005737304688,1.9482396841049194
22.247243881225586,-30.947914123535156,4.294471740722656
23.4923095703125,-30.05458641052246,4.298093795776367
23.351072311401367,-27.519683837890625,4.066548824310303
18.067607879638672,-19.636259078979492,3.00653338432312
19.17264747619629,-19.226348876953125,3.059321403503418
20.31761360168457,-18.79976463317871,3.1188974380493164
21.506027221679688,-18.35207748413086,3.1854939460754395
22.743995666503906,-17.880661010742188,3.259751319885254
52.35822296142578,-37.86088180541992,7.280126571655273
17.72191047668457,-11.760555267333984,2.3964531421661377
56.28068923950195,-34.174346923828125,7.418811798095703
53.87879180908203,-29.82176399230957,6.938551902770996
52.92149353027344,-26.57298469543457,6.672304153442383
52.033851623535156,-23.559711456298828,6.435770034790039
52.87641525268555,-21.425395965576172,6.428249359130859
50.28615951538086,-18.059961318969727,6.0202155113220215
52.327110290527344,-16.451684951782227,6.180380821228027
60.31576919555664,-16.331987380981445,7.040687561035156
61.10540008544922,-13.937431335449219,7.061746597290039
66.6167221069336,-12.402557373046875,7.634880542755127
72.63227081298828,-10.523661613464355,8.269147872924805
77.3157730102539,-8.047103881835938,8.758453369140625
79.1965103149414,-5.037817001342773,8.941338539123535
81.07259368896484,-1.8929307460784912,9.137178421020508
82.34164428710938,1.3865623474121094,9.27899169921875
84.19389343261719,4.805891990661621,9.501816749572754
84.39278411865234,8.229000091552734,9.553884506225586
87.87935638427734,12.149625778198242,9.995809555053711
90.36659240722656,16.216678619384766,10.34451675415039
92.20154571533203,20.39996337890625,10.639861106872559
93.34253692626953,24.6241455078125,10.87697982788086
86.57756042480469,34.42702865600586,10.497889518737793
85.51809692382812,38.05218505859375,10.546402931213379
64.1643295288086,31.697242736816406,8.063616752624512
51.074161529541016,27.8369140625,6.553911209106445
62.583656311035156,37.44650650024414,8.217368125915527
61.735416412353516,40.39259719848633,8.312500953674316
44.110633850097656,79.00138854980469,10.19486141204834
6.186861515045166,57.375450134277344,6.502138137817383
4.299779891967773,63.85609436035156,7.211147785186768
1.8905245065689087,69.8674087524414,7.875051498413086
-0.9091588258743286,69.24010467529297,7.802163124084473
-54.9282112121582,72.92943572998047,11.056294441223145
-52.46528625488281,64.12703704833984,10.033496856689453
-38.01093673706055,42.82710266113281,6.934353828430176
-40.38284683227539,41.974754333496094,7.053513050079346
-42.8777961730957,41.12561798095703,7.194690227508545
-45.492374420166016,40.25225830078125,7.355924129486084
-48.159542083740234,39.27881622314453,7.525780200958252
-50.973262786865234,38.26954650878906,7.71881103515625
-53.923316955566406,37.19383239746094,7.932690143585205
-57.02851867675781,36.043373107910156,8.169716835021973
-30.270248413085938,15.885061264038086,4.139739990234375
-32.027137756347656,15.198787689208984,4.292978286743164
-33.909427642822266,14.453022956848145,4.463791370391846
-35.936927795410156,13.638692855834961,4.654747009277344
-38.133567810058594,12.744817733764648,4.868968963623047
-40.351287841796875,11.706454277038574,5.087928771972656
-42.575923919677734,10.517491340637207,5.310830116271973
-41.8941535949707,8.579582214355469,5.1785759925842285
-41.21171569824219,6.727592468261719,5.056704044342041
-37.37187194824219,4.568294048309326,4.559332847595215
-36.91891098022461,3.0138356685638428,4.485666751861572
-37.496986389160156,1.5484592914581299,4.5446696281433105
-40.912967681884766,0.044613420963287354,4.954469203948975
-72.57738494873047,-2.8386433124542236,8.795671463012695
-71.742431640625,-5.699233055114746,8.7152099609375
-71.3160171508789,-8.559833526611328,8.698188781738281
-82.55215454101562,-13.29145336151123,10.125617027282715
-25.38044548034668,-5.140072822570801,3.1359081268310547
-41.640560150146484,-10.19015884399414,5.191366672515869
-68.31658935546875,-42.96955871582031,9.773365020751953
-62.4857177734375,-42.89900207519531,9.178521156311035
-58.30462646484375,-43.57524490356445,8.814570426940918
-56.219234466552734,-45.648494720458984,8.76966667175293
-51.92048645019531,-45.73854446411133,8.37917709350586
-48.0336799621582,-45.87015151977539,8.043021202087402
-47.585960388183594,-49.24641799926758,8.292875289916992
-46.702171325683594,-52.38908386230469,8.499045372009277
-45.73984146118164,-55.65860366821289,8.724089622497559
-44.72320556640625,-59.11138153076172,8.976205825805664
-20.572216033935547,-29.590017318725586,4.364196300506592
-18.567020416259766,-29.13722801208496,4.183940410614014
-16.71396255493164,-28.712711334228516,4.0232439041137695
-18.169925689697266,-34.31425094604492,4.7019805908203125
-17.2957820892334,-36.09965133666992,4.847428798675537
-15.373236656188965,-35.70066833496094,4.707061767578125
-14.057777404785156,-36.63097381591797,4.751365661621094
-13.7349853515625,-40.5947265625,5.189682483673096
-12.313685417175293,-41.86341857910156,5.284318447113037
-11.17832088470459,-44.54086685180664,5.561062812805176
-9.700026512145996,-46.487327575683594,5.750751495361328
-9.218767166137695,-55.184173583984375,6.775278091430664
-7.7072553634643555,-61.166439056396484,7.4656805992126465
-5.496038913726807,-64.3795394897461,7.824565887451172
-2.8731133937835693,-63.83119201660156,7.737631320953369
-0.3034707307815552,-63.23637008666992,7.657862663269043
2.219189405441284,-62.69356155395508,7.596784591674805
4.671243190765381,-61.700218200683594,7.493131637573242
7.124645233154297,-61.278717041015625,7.470694541931152
9.511841773986816,-60.50649642944336,7.417176723480225
11.858503341674805,-59.69169616699219,7.369788646697998
14.166749954223633,-58.834712982177734,7.328379154205322
16.438650131225586,-57.93570327758789,7.292827129364014
18.67606544494629,-56.99473571777344,7.263026237487793
20.8740291595459,-55.99325180053711,7.236501216888428
23.047229766845703,-54.96832275390625,7.21795654296875
25.191274642944336,-53.90077590942383,7.204945087432861
27.307647705078125,-52.79017639160156,7.197429656982422
22.669858932495117,-39.818477630615234,5.548643112182617
22.085020065307617,-35.40330123901367,5.053042411804199
9.523262977600098,-13.98223876953125,2.0486462116241455
22.63698387145996,-30.52420997619629,4.601965427398682
23.096603393554688,-28.661643981933594,4.457551956176758
22.962875366210938,-26.262248992919922,4.224555492401123
18.31981086730957,-19.326889038085938,3.2248008251190186
19.428327560424805,-18.91309928894043,3.2834343910217285
20.575626373291016,-18.479509353637695,3.349064588546753
21.767316818237305,-18.023881912231445,3.4223251342773438
23.009639739990234,-17.543487548828125,3.5039265155792236
51.03477478027344,-35.76298904418945,7.546572208404541
52.902313232421875,-33.987281799316406,7.6145243644714355
54.75682830810547,-32.146995544433594,7.689214706420898
53.53193283081055,-28.600709915161133,7.3498101234436035
52.600799560546875,-25.442018508911133,7.075813293457031
23.903179168701172,-10.39831256866455,3.156648635864258
54.31654357910156,-21.076377868652344,7.055431365966797
50.683536529541016,-17.35822105407715,6.487635612487793
60.863548278808594,-18.14788055419922,7.691100597381592
60.02592086791992,-15.301490783691406,7.5014543533325195
63.16191101074219,-13.42401123046875,7.8196024894714355
69.03036499023438,-11.795207023620605,8.480568885803223
72.1415023803711,-9.362130165100098,8.809423446655273
70.4649887084961,-6.2788920402526855,8.566960334777832
76.11575317382812,-3.7090203762054443,9.228373527526855
79.50918579101562,2.5191752910614014,9.633204460144043
80.59378051757812,5.801072597503662,9.784971237182617
80.73342895507812,9.083166122436523,9.838312149047852
84.47799682617188,12.959357261657715,10.349759101867676
86.09486389160156,16.77214813232422,10.62187671661377
87.68804931640625,20.770551681518555,10.912642478942871
88.60660552978516,24.786462783813477,11.141969680786133
90.79090881347656,29.37803077697754,11.55580997467041
74.4642562866211,27.445770263671875,9.610450744628906
86.1387939453125,35.741416931152344,11.293512344360352
85.13287353515625,39.40397644042969,11.360146522521973
62.891902923583984,32.2380256652832,8.558340072631836
62.109901428222656,35.05665969848633,8.636737823486328
61.289615631103516,37.918155670166016,8.727605819702148
57.6850471496582,38.97671127319336,8.430644989013672
60.168304443359375,52.21676254272461,9.647475242614746
39.073265075683594,46.833770751953125,7.3860859870910645
40.845924377441406,75.7739028930664,10.424304008483887
7.508620738983154,56.224220275878906,6.869068622589111
5.393733501434326,58.09341812133789,7.065234661102295
3.398345947265625,64.79613494873047,7.857443332672119
0.8416427373886108,68.88961029052734,8.34299373626709
-1.9135490655899048,68.40892028808594,8.287400245666504
-53.323570251464844,67.18566131591797,10.387126922607422
-24.761390686035156,28.746747970581055,4.594536304473877
-39.482975006103516,42.277156829833984,7.005119323730469
-41.94639587402344,41.444419860839844,7.140799045562744
-44.526817321777344,40.59145736694336,7.296377182006836
-47.18860626220703,39.66699981689453,7.46519136428833
-49.91942596435547,38.6495246887207,7.6452226638793945
-52.81715393066406,37.59922409057617,7.851158142089844
-55.862701416015625,36.4774055480957,8.07934856414795
-30.422700881958008,16.54525375366211,4.193698883056641
-31.364797592163086,15.458671569824219,4.2344746589660645
-33.198699951171875,14.735830307006836,4.398526668548584
-35.17000198364258,13.947997093200684,4.581711769104004
-37.301116943359375,13.0849027633667,4.786940574645996
-39.66520690917969,12.148218154907227,5.023594856262207
-42.027198791503906,11.045977592468262,5.262246608734131
-42.14311218261719,9.284031867980957,5.225802421569824
-41.43839645385742,7.397317409515381,5.0974225997924805
-37.54295349121094,5.155556678771973,4.589030742645264
-37.0844612121582,3.5818893909454346,4.511741638183594
-36.31308364868164,2.039557933807373,4.404360294342041
-39.58535385131836,0.6304817199707031,4.794302463531494
-43.390106201171875,-1.0526971817016602,5.255987167358398
-72.0489730834961,-4.649158000946045,8.743106842041016
-71.2228775024414,-7.478639602661133,8.672341346740723
-81.98478698730469,-11.955219268798828,10.03316593170166
-25.42026710510254,-4.75670051574707,3.131763458251953
-35.9676628112793,-8.238364219665527,4.468391418457031
-90.05570220947266,-24.473073959350586,11.30105209350586
-73.51615905761719,-40.77860641479492,10.180501937866211
-70.66798400878906,-42.998748779296875,10.017383575439453
-64.56201934814453,-42.9293098449707,9.388916969299316
-58.994667053222656,-42.741737365722656,8.822050094604492
-56.990966796875,-44.888797760009766,8.785195350646973
-53.73772048950195,-45.94163513183594,8.561504364013672
-48.97718811035156,-45.40127182006836,8.087326049804688
-47.912925720214844,-48.13484573364258,8.224495887756348
-47.04519271850586,-51.22337341308594,8.422237396240234
-46.10105895996094,-54.431495666503906,8.638006210327148
-45.105369567871094,-57.813602447509766,8.879775047302246
-21.356035232543945,-29.765310287475586,4.436297416687012
-19.28842544555664,-29.300874710083008,4.2480669021606445
-17.38188362121582,-28.866445541381836,4.080471992492676
-15.71049976348877,-28.634132385253906,3.955155611038208
-17.6343936920166,-35.4470100402832,4.794399738311768
-16.08415985107422,-35.87687301635742,4.761230945587158
-14.1940279006958,-35.406524658203125,4.619350433349609
-14.477002143859863,-40.784603118896484,5.2408366203308105
-12.50296401977539,-40.289127349853516,5.108452796936035
-11.712382316589355,-43.89967346191406,5.502100944519043
-9.912121772766113,-44.21297836303711,5.486984729766846
-10.11063289642334,-55.448123931884766,6.825352668762207
-8.509817123413086,-60.30818176269531,7.375527858734131
-5.700053691864014,-56.81135177612305,6.914264678955078
-3.8352174758911133,-64.03913879394531,7.768880844116211
-1.2462241649627686,-63.4613151550293,7.686498641967773
1.2933156490325928,-62.93546676635742,7.622936248779297
3.7859888076782227,-62.266204833984375,7.554204940795898
6.232496738433838,-61.553001403808594,7.492035865783691
8.635303497314453,-60.79657745361328,7.436215400695801
10.996683120727539,-59.99745178222656,7.386580944061279
13.318877220153809,-59.15601348876953,7.3429789543151855
15.603978157043457,-58.27251052856445,7.305277347564697
17.853885650634766,-57.347042083740234,7.273365020751953
20.063941955566406,-56.3609733581543,7.244756698608398
22.24835968017578,-55.351661682128906,7.224157333374023
24.40300178527832,-54.29988479614258,7.209108829498291
26.529430389404297,-53.20524215698242,7.19956636428833
27.315628051757812,-49.678367614746094,6.8653740882873535
21.486948013305664,-35.61036682128906,5.036539077758789
9.527290344238281,-14.444153785705566,2.095383882522583
22.079904556274414,-30.715133666992188,4.580857276916504
23.13165855407715,-29.593204498291016,4.548552989959717
23.011497497558594,-27.119489669799805,4.307051658630371
17.919675827026367,-19.475481033325195,3.2048771381378174
19.014833450317383,-19.068098068237305,3.261005163192749
20.147153854370117,-18.64203453063965,3.323977470397949
21.321779251098633,-18.194843292236328,3.394343614578247
22.544639587402344,-17.723926544189453,3.4727771282196045
23.822481155395508,-17.226335525512695,3.5600602626800537
17.7384033203125,-11.771500587463379,2.5780370235443115
54.07360076904297,-32.83416748046875,7.660837173461914
53.89453125,-29.830490112304688,7.459537029266357
52.93635940551758,-26.58045196533203,7.173213481903076
52.04794692993164,-23.56610870361328,6.91885232925415
52.9533805847168,-21.456584930419922,6.918954372406006
56.77607727050781,-20.39078140258789,7.305418014526367
61.060726165771484,-19.197561264038086,7.751158714294434
60.330291748046875,-16.335912704467773,7.568948268890381
61.21950912475586,-13.963468551635742,7.603938579559326
66.75126647949219,-12.42760944366455,8.222325325012207
72.02745056152344,-10.43602466583252,8.813434600830078
71.74996185302734,-7.4678053855896,8.735690116882324
70.88079071044922,-4.508842945098877,8.600848197937012
77.19208526611328,-1.8023319244384766,9.35033130645752
78.88706970214844,1.3283870220184326,9.55439567565918
80.56696319580078,4.59885311126709,9.772356033325195
67.28358459472656,6.5607123374938965,8.186532974243164
83.26667785644531,11.511909484863281,10.17930793762207
85.50049591064453,15.343438148498535,10.519302368164062
87.10273742675781,19.271831512451172,10.803030014038086
88.03572082519531,23.224184036254883,11.02563762664795
90.22743225097656,27.723892211914062,11.430481910705566
91.74266052246094,32.27655792236328,11.777308464050293
86.52862548828125,34.407569885253906,11.276451110839844
85.53580474853516,38.0600700378418,11.337318420410156
63.1714973449707,31.20677947998047,8.532443046569824
51.084896087646484,27.84276580810547,7.045435905456543
61.59711837768555,36.856204986572266,8.692567825317383
59.585540771484375,38.9859619140625,8.62291431427002
64.1763916015625,45.77388000488281,9.545884132385254
44.09100341796875,78.9662094116211,10.952262878417969
6.038512706756592,55.9997444152832,6.8207502365112305
4.186783313751221,62.17788314819336,7.546647548675537
1.8701753616333008,69.11553192138672,8.372795104980469
-0.8994587063789368,68.50180053710938,8.296123504638672
-53.419036865234375,70.9256591796875,11.502069473266602
-51.033687591552734,62.37722396850586,10.440058708190918
-37.55755615234375,42.31626892089844,7.329265117645264
-39.90724182128906,41.48039245605469,7.456351280212402
-42.36280059814453,40.63168716430664,7.603794574737549
-44.90755081176758,39.73478317260742,7.767542839050293
-43.76979446411133,35.69852066040039,7.316596984863281
-50.31706619262695,37.77687454223633,8.150583267211914
-53.21013641357422,36.701908111572266,8.373442649841309
-56.25201416015625,35.552616119384766,8.620231628417969
-29.817337036132812,15.647397994995117,4.362061023712158
-31.53049659729004,14.963098526000977,4.521026611328125
-33.363006591796875,14.220122337341309,4.6980156898498535
-35.33346939086914,13.40967082977295,4.8956170082092285
-37.464263916015625,12.521129608154297,5.116966247558594
-39.627769470214844,11.496554374694824,5.345016956329346
-42.1170539855957,10.40414047241211,5.619814395904541
-41.453758239746094,8.489397048950195,5.481340408325195
-40.79135513305664,6.658973693847656,5.354028701782227
-37.363555908203125,4.56727933883667,4.876077175140381
-36.910831451416016,3.013176202774048,4.797309398651123
-36.43177795410156,1.5044549703598022,4.7233710289001465
-39.73220443725586,0.043322741985321045,5.146885871887207
-43.555198669433594,-1.7035181522369385,5.646423816680908
-71.80526733398438,-5.704205513000488,9.330906867980957
-70.98319244384766,-8.519865989685059,9.261107444763184
-82.53514862060547,-13.288711547851562,10.829238891601562
-25.355304718017578,-5.134979248046875,3.351186513900757
-41.58429718017578,-10.176389694213867,5.545751094818115
-65.21564483642578,-41.019126892089844,9.980114936828613
-59.7742919921875,-41.03749084472656,9.39230728149414
-56.721778869628906,-42.39229202270508,9.173049926757812
-54.71391677856445,-44.426212310791016,9.12981128692627
-53.95567321777344,-47.5313720703125,9.314624786376953
-48.448246002197266,-46.26602554321289,8.67795181274414
-47.57476806640625,-49.23481750488281,8.868878364562988
-46.690921783447266,-52.37645721435547,9.089314460754395
-45.728538513183594,-55.64483642578125,9.329930305480957
-44.71182632446289,-59.096351623535156,9.59949016571045
-20.33991813659668,-29.255884170532227,4.615706443786621
-18.365924835205078,-28.821651458740234,4.427126884460449
-16.53981590270996,-28.413555145263672,4.258860111236572
-17.972919464111328,-33.942222595214844,4.975220680236816
-17.085054397583008,-35.659812927246094,5.122162342071533
-15.247535705566406,-35.40874481201172,4.994014263153076
-14.0530424118042,-36.618648529052734,5.080869197845459
-13.616223335266113,-40.24372482299805,5.503450393676758
-12.309033393859863,-41.847633361816406,5.650552749633789
-11.084904670715332,-44.168609619140625,5.899003982543945
-9.695834159851074,-46.46720504760742,6.148969650268555
-9.227945327758789,-55.239112854003906,7.254795551300049
-7.112055778503418,-56.442787170410156,7.369372367858887
-4.821065425872803,-56.473262786865234,7.342113018035889
-2.763274669647217,-61.390872955322266,7.960582256317139
-0.2919747233390808,-60.84278106689453,7.881619930267334
2.132643461227417,-60.24857711791992,7.809442520141602
4.519941329956055,-59.70189666748047,7.755871772766113
6.861703872680664,-59.017208099365234,7.696545124053955
9.163223266601562,-58.28888702392578,7.643431186676025
11.426551818847656,-57.517433166503906,7.59637451171875
13.653518676757812,-56.70328140258789,7.555238246917725
15.845907211303711,-55.84663009643555,7.519908428192139
18.005294799804688,-54.947696685791016,7.490283012390137
20.126697540283203,-53.9886360168457,7.463818550109863
22.224143981933594,-53.0052490234375,7.445376396179199
24.293190002441406,-51.97917556762695,7.432432651519775
26.335094451904297,-50.91006851196289,7.424954414367676
26.293434143066406,-46.183082580566406,6.884157657623291
21.920448303222656,-35.139488220214844,5.365006923675537
9.532246589660645,-13.995429992675781,2.19352388381958
22.466873168945312,-30.29483413696289,4.885771751403809
22.753469467163086,-28.2358341217041,4.697442531585693
22.63930892944336,-25.892194747924805,4.455367088317871
18.169803619384766,-19.16864776611328,3.421354293823242
19.26832389831543,-18.757328033447266,3.4833920001983643
20.40280532836914,-18.32430076599121,3.5524349212646484
21.58052635192871,-17.86921501159668,3.6294777393341064
22.807523727416992,-17.389387130737305,3.7152581214904785
24.09068489074707,-16.8817195892334,3.8106436729431152
50.913787841796875,-32.70973587036133,7.839150428771973
52.67915725708008,-30.927234649658203,7.913127422332764
53.54737091064453,-28.60895347595215,7.86442756652832
52.61540222167969,-25.44907569885254,7.571166038513184
23.885360717773438,-10.390562057495117,3.374180793762207
54.3974723815918,-21.10776710510254,7.558505535125732
50.763397216796875,-17.38557243347168,6.950819492340088
60.878475189208984,-18.15233039855957,8.22926139831543
60.04027557373047,-15.305146217346191,8.026297569274902
63.283714294433594,-13.4498929977417,8.380833625793457
67.84933471679688,-11.59341049194336,8.916534423828125
69.50537872314453,-9.020025253295898,9.07917594909668
70.52571868896484,-6.284307479858398,9.17205810546875
70.58187103271484,-3.4393632411956787,9.153976440429688
75.76545715332031,2.4005541801452637,9.819531440734863
77.27629852294922,5.562290191650391,10.036214828491211
78.76173400878906,8.861312866210938,10.267106056213379
80.21937561035156,12.306062698364258,10.513124465942383
81.64651489257812,15.905562400817871,10.77525520324707
83.03997039794922,19.66956901550293,11.054584503173828
83.7833251953125,23.43721580505371,11.269880294799805
85.71055603027344,27.734130859375,11.66966438293457
74.4670181274414,27.44679069519043,10.280773162841797
83.11468505859375,34.486629486083984,11.656644821166992
85.093994140625,39.385990142822266,12.146507263183594
61.9288215637207,31.744365692138672,9.01474666595459
61.15021896362305,34.51499557495117,9.096049308776855
59.66250991821289,36.911521911621094,9.088151931762695
56.67558288574219,38.29462814331055,8.860522270202637
61.81699752807617,45.489559173583984,9.942204475402832
60.1563606262207,52.20640182495117,10.317947387695312
39.03942108154297,46.793209075927734,7.894123077392578
40.86189270019531,75.80350494384766,11.155329704284668
7.501463413238525,56.17070770263672,7.340913772583008
5.266988277435303,56.72834014892578,7.380156517028809
3.009209632873535,57.37654495239258,7.442732810974121
0.7558029294013977,61.860816955566406,8.014004707336426
-1.8924458026885986,67.65431213378906,8.76732063293457
-51.944854736328125,65.44850158691406,10.823917388916016
-24.73356056213379,28.714454650878906,4.909297466278076
-39.0211181640625,41.782615661621094,7.405791759490967
-41.44633483886719,40.950340270996094,7.547519207000732
-43.980690002441406,40.09359359741211,7.709274768829346
-44.184234619140625,37.14150619506836,7.477165222167969
-49.282840728759766,38.15663528442383,8.073868751525879
-52.12568283081055,37.10698699951172,8.288505554199219
-55.11037063598633,35.98616027832031,8.526165962219238
-30.413938522338867,16.540489196777344,4.484747409820557
-30.884950637817383,15.222164154052734,4.4603590965271
-32.67141342163086,14.501791000366211,4.630416393280029
-34.588539123535156,13.717394828796387,4.820070266723633
-36.65727996826172,12.859044075012207,5.032250881195068
-38.90291976928711,11.914732933044434,5.270510673522949
-41.248291015625,10.841262817382812,5.524747371673584
-41.69609451293945,9.185558319091797,5.530796527862549
-41.012351989746094,7.321261882781982,5.396698474884033
-37.5345458984375,5.1544084548950195,4.907832622528076
-37.076297760009766,3.581104278564453,4.825189590454102
-36.63233184814453,2.057488203048706,4.752804756164551
