-30.599681854248047,15.775856971740723,-6.513939380645752
-33.470436096191406,15.58720874786377,-6.986011981964111
-35.20054244995117,14.702466011047363,-7.217921257019043
-34.964447021484375,12.980192184448242,-7.056802272796631
-34.735015869140625,11.329465866088867,-6.912979602813721
-34.511192321777344,9.741257667541504,-6.785012245178223
-34.29202651977539,8.207590103149414,-6.671659469604492
-34.076656341552734,6.721371650695801,-6.571878433227539
-13.243938446044922,2.0634591579437256,-2.5361218452453613
-39.30533218383789,4.515421390533447,-7.485883712768555
-18.882843017578125,1.4036386013031006,-3.58268666267395
-10.435623168945312,0.35511428117752075,-1.9756689071655273
-24.276634216308594,-0.14969617128372192,-4.5934739112854
-35.01477813720703,-1.62400484085083,-6.632274627685547
-56.58650207519531,-4.908599376678467,-10.746950149536133
-75.50142669677734,-29.093324661254883,-15.309534072875977
-73.0019760131836,-31.553977966308594,-15.047798156738281
-52.26629638671875,-25.129291534423828,-10.972962379455566
-63.59662628173828,-33.78667068481445,-13.625858306884766
-61.862159729003906,-36.12378692626953,-13.554445266723633
-61.296669006347656,-39.177642822265625,-13.764532089233398
-60.706756591796875,-42.32889938354492,-14.002891540527344
-60.089332580566406,-45.59228515625,-14.271749496459961
-59.44091796875,-48.98423385620117,-14.573702812194824
-58.75752258300781,-52.52345275878906,-14.911828994750977
-66.17655181884766,-64.12025451660156,-17.434816360473633
-44.03643035888672,-84.64299774169922,-18.053115844726562
-35.823631286621094,48.32171630859375,-11.381465911865234
-36.5106201171875,45.322689056396484,-11.011923789978027
-40.37020492553711,46.185916900634766,-11.606608390808105
-42.769554138183594,45.13541030883789,-11.76522445678711
-45.25886917114258,44.072959899902344,-11.952916145324707
-26.179489135742188,23.520191192626953,-6.658921718597412
-25.928165435791016,21.476280212402344,-6.370234966278076
-25.694276809692383,19.596956253051758,-6.114260196685791
-25.16811180114746,17.642822265625,-5.815568923950195
-26.594860076904297,17.09207534790039,-5.981633186340332
-28.122480392456055,16.51646614074707,-6.17088508605957
-29.768463134765625,15.9107084274292,-6.386544704437256
-32.52932357788086,15.74032211303711,-6.837573051452637
-35.17711639404297,15.309483528137207,-7.2588934898376465
-35.050785064697266,13.60726261138916,-7.114189624786377
-34.75625228881836,11.909699440002441,-6.951611042022705
-34.593238830566406,10.320898056030273,-6.8304972648620605
-34.31049346923828,8.752172470092773,-6.699778079986572
-34.094207763671875,7.2519073486328125,-6.595287799835205
-13.274484634399414,2.270418643951416,-2.548140525817871
-13.192026138305664,1.714166283607483,-2.5170490741729736
-43.294010162353516,3.86483097076416,-8.224245071411133
-18.8039493560791,0.919338047504425,-3.5621519088745117
-24.0214786529541,0.20827504992485046,-4.545279026031494
-78.62751007080078,-2.478527307510376,-14.884515762329102
-45.90432357788086,-3.29667592048645,-8.70793628692627
-29.765644073486328,-0.6251863241195679,-5.377305030822754
-40.5156364440918,-2.4819529056549072,-7.331447601318359
-67.40763854980469,-6.856227397918701,-12.237640380859375
-93.21936798095703,-13.283625602722168,-17.00688934326172
-94.03997802734375,-17.280275344848633,-17.269393920898438
-94.20403289794922,-21.254756927490234,-17.442352294921875
-93.71611022949219,-25.140459060668945,-17.52499771118164
-90.24622344970703,-36.32164764404297,-17.57044219970703
-67.56179809570312,-30.39987564086914,-13.381053924560547
-64.76899719238281,-32.33208084106445,-13.074806213378906
-62.364501953125,-34.327938079833984,-12.857620239257812
-61.81383514404297,-37.33620834350586,-13.0430269241333
-61.240726470947266,-40.43398666381836,-13.254396438598633
-57.86161422729492,-41.63432693481445,-12.874916076660156
-54.70668029785156,-42.801822662353516,-12.545669555664062
-59.35627365112305,-50.411537170410156,-14.06535530090332
-55.301483154296875,-76.55021667480469,-17.05657386779785
-42.478145599365234,-84.6932373046875,-17.11305046081543
-17.9400577545166,33.46835708618164,-6.8585591316223145
-33.997989654541016,48.37528610229492,-10.679258346557617
-36.196739196777344,47.34053421020508,-10.763392448425293
-35.75033950805664,43.05556106567383,-10.107769012451172
-40.76533126831055,45.2647705078125,-11.002264976501465
-43.16049575805664,44.21528244018555,-11.159917831420898
-26.448989868164062,25.002277374267578,-6.573646068572998
-26.179492950439453,22.82748794555664,-6.273500919342041
-25.930072784423828,20.83704376220703,-6.008130073547363
-25.697628021240234,19.003206253051758,-5.772587776184082
-25.33472442626953,17.204790115356445,-5.531220436096191
-26.766183853149414,16.646310806274414,-5.6930317878723145
-28.396438598632812,16.11564064025879,-5.897212028503418
-31.01675033569336,15.99089527130127,-6.302779197692871
-33.47807312011719,15.590767860412598,-6.6701765060424805
-35.298728942871094,14.743480682373047,-6.909248352050781
-35.059791564941406,13.015585899353027,-6.754599094390869
-34.82779312133789,11.359724044799805,-6.616569995880127
-34.60166549682617,9.766793251037598,-6.493767738342285
-34.38042068481445,8.228744506835938,-6.3850016593933105
-34.10158920288086,6.726289749145508,-6.277924537658691
-13.277118682861328,2.0686285495758057,-2.4269771575927734
-39.3238525390625,4.517551422119141,-7.149188041687012
-18.93630027770996,1.4076124429702759,-3.4296159744262695
-10.460989952087402,0.35597819089889526,-1.8905043601989746
-24.330081939697266,-0.15002618730068207,-4.394459247589111
-35.098873138427734,-1.6279045343399048,-6.346194267272949
-56.721397399902344,-4.920300006866455,-10.28320026397705
-92.17286682128906,-11.742144584655762,-16.78233528137207
-93.13893127441406,-15.690032005310059,-17.059297561645508
-94.11422729492188,-19.77198600769043,-17.3695011138916
-94.43885803222656,-23.83827781677246,-17.59208106994629
-94.11695861816406,-27.823183059692383,-17.726165771484375
-75.70062255859375,-29.170085906982422,-14.65261459350586
-68.66189575195312,-29.67805290222168,-13.510238647460938
-52.436187744140625,-25.210969924926758,-10.508539199829102
-63.260536193847656,-33.608123779296875,-12.938131332397461
-62.019630432128906,-36.215736389160156,-12.971638679504395
-61.45512390136719,-39.2789306640625,-13.173212051391602
-59.089393615722656,-41.2011833190918,-13.010652542114258
-55.844215393066406,-42.371360778808594,-12.660969734191895
-59.6036376953125,-49.118309020996094,-13.949742317199707
-58.92211151123047,-52.67055892944336,-14.274295806884766
-66.31910705566406,-64.25834655761719,-16.678647994995117
-43.958824157714844,-84.4937973022461,-17.202634811401367
-33.197689056396484,48.75840759277344,-10.6539306640625
-35.40342712402344,47.75491714477539,-10.737001419067383
-36.063995361328125,44.76826477050781,-10.383095741271973
-37.454769134521484,42.85049057006836,-10.279231071472168
-42.26618194580078,44.60420608520508,-11.098580360412598
-26.035871505737305,25.353652954101562,-6.563739776611328
-26.276470184326172,23.607324600219727,-6.379973411560059
-26.020036697387695,21.552371978759766,-6.102397441864014
-25.781646728515625,19.66358757019043,-5.856352806091309
-25.558557510375977,17.91653060913086,-5.637505054473877
-26.226543426513672,16.855369567871094,-5.630825996398926
-27.72085952758789,16.280597686767578,-5.806435585021973
-30.174543380737305,16.12777328491211,-6.179584980010986
-32.536590576171875,15.743839263916016,-6.528420925140381
-35.185455322265625,15.313117027282715,-6.930782318115234
-35.08378982543945,13.620075225830078,-6.7974066734313965
-34.84978103637695,11.941747665405273,-6.653672218322754
-34.68453598022461,10.348136901855469,-6.537413597106934
-34.399471282958984,8.77486515045166,-6.412012100219727
-34.18124008178711,7.270417213439941,-6.311751365661621
-13.30789852142334,2.276132822036743,-2.438508987426758
-13.22482681274414,1.7184282541275024,-2.4086809158325195
-43.31643295288086,3.866833448410034,-7.854704856872559
-18.841848373413086,0.9211883544921875,-3.407186508178711
-24.087793350219727,0.20884981751441956,-4.350777626037598
-78.8166732788086,-2.4844868183135986,-14.242534637451172
-46.01863479614258,-3.304884433746338,-8.333057403564453
-92.32809448242188,-10.372448921203613,-16.78072738647461
-93.1743392944336,-14.277891159057617,-17.02511215209961
-94.05876922607422,-18.30767822265625,-17.307226181030273
-94.2888412475586,-22.317873001098633,-17.50052261352539
-29.836772918701172,-0.6266814470291138,-5.134411811828613
-40.60708236694336,-2.487555503845215,-6.999354362487793
-67.56977844238281,-6.872717380523682,-11.685042381286621
-87.42860412597656,-12.458483695983887,-15.193634033203125
-87.31974792480469,-16.045433044433594,-15.274482727050781
-87.41363525390625,-19.72270393371582,-15.41715145111084
-87.71704864501953,-23.53116798400879,-15.624897956848145
-87.22188568115234,-27.19826889038086,-15.718770027160645
-90.46643829345703,-36.410274505615234,-16.77762794494629
-63.81892776489258,-28.71575355529785,-12.0400390625
-61.20074462890625,-30.55084800720215,-11.768312454223633
-60.93022155761719,-33.53844451904297,-11.965898513793945
-61.14019775390625,-36.9293212890625,-12.28878402709961
-58.924842834472656,-38.90496063232422,-12.148072242736816
-55.70460891723633,-40.08226776123047,-11.806859016418457
-52.717552185058594,-41.245567321777344,-11.51590633392334
-59.52006149291992,-50.55064010620117,-13.434974670410156
-55.459800720214844,-76.76932525634766,-16.29380989074707
-42.55561447143555,-84.84771728515625,-16.33082389831543
-17.989171981811523,33.55997085571289,-6.551027774810791
-31.488859176635742,48.86648941040039,-10.00156307220459
-33.6184196472168,47.835205078125,-10.058996200561523
-35.7962532043457,46.81674575805664,-10.139269828796387
-36.219749450683594,43.62088394165039,-9.75461196899414
-40.296607971191406,44.744300842285156,-10.359743118286133
-42.65720748901367,43.69969177246094,-10.50646686553955
-26.550025939941406,25.09779167175293,-6.285669803619385
-26.274913787841797,22.91068458557129,-5.997626304626465
-26.02057456970215,20.909778594970703,-5.743039608001709
-25.783790588378906,19.06692886352539,-5.517136573791504
-25.068140029907227,17.02375602722168,-5.213341236114502
-26.39767074584961,16.417129516601562,-5.3482561111450195
-28.81470489501953,16.3530216217041,-5.70015287399292
-31.023422241210938,15.994335174560547,-6.005026817321777
-33.48569107055664,15.594317436218262,-6.355146884918213
-35.39716339111328,14.784590721130371,-6.599780082702637
-35.155364990234375,13.051068305969238,-6.451655387878418
-34.92079544067383,11.390057563781738,-6.319466590881348
-34.69234085083008,9.792389869689941,-6.201869964599609
-34.46900177001953,8.249944686889648,-6.097724914550781
-34.188133239746094,6.743361473083496,-5.995233535766602
-13.310364723205566,2.073807954788208,-2.3176138401031494
-39.342342376708984,4.519676208496094,-6.813183784484863
-18.989896774291992,1.4115948677062988,-3.276139497756958
-10.486404418945312,0.35684314370155334,-1.8051815032958984
-24.383602142333984,-0.15035641193389893,-4.195164680480957
-35.18311309814453,-1.6318118572235107,-6.059597492218018
-56.85653305053711,-4.932023525238037,-9.818634986877441
-87.31633758544922,-11.123456001281738,-15.143779754638672
-87.3365478515625,-14.712603569030762,-15.237558364868164
-87.35505676269531,-18.352012634277344,-15.357108116149902
-87.58003234863281,-22.10700225830078,-15.540355682373047
-87.00575256347656,-25.720979690551758,-15.609332084655762
-85.37779998779297,-29.017087936401367,-15.514028549194336
-90.7208480834961,-34.95790481567383,-16.726776123046875
-90.02574920654297,-38.91225814819336,-16.873430252075195
-52.60667037963867,-25.292940139770508,-10.042489051818848
-60.8123779296875,-32.307498931884766,-11.847317695617676
-61.05453109741211,-35.65217590332031,-12.163904190063477
-60.18132019042969,-38.46480178833008,-12.288095474243164
-56.86430740356445,-39.649696350097656,-11.926660537719727
-53.79576873779297,-40.817115783691406,-11.617863655090332
-50.93667984008789,-41.9760627746582,-11.355690002441406
-59.08712387084961,-52.81806564331055,-13.635108947753906
-66.46182250976562,-64.39665222167969,-15.921491622924805
-56.89409255981445,-76.34262084960938,-16.38060760498047
-43.931060791015625,-84.44046783447266,-16.376083374023438
-30.711055755615234,49.24898147583008,-9.985494613647461
-32.82790756225586,48.2153205871582,-10.035399436950684
-34.99418640136719,47.20288848876953,-10.109341621398926
-35.62944793701172,44.22882843017578,-9.771278381347656
-38.095977783203125,43.58406066894531,-9.959142684936523
-41.77597427368164,44.0869026184082,-10.449378967285156
-26.27799415588379,25.589431762695312,-6.310457706451416
-26.373878479003906,23.69482421875,-6.099793434143066
-26.112281799316406,21.628780364990234,-5.833467483520508
-25.869352340698242,19.730485916137695,-5.597465991973877
-25.642242431640625,17.975191116333008,-5.387608051300049
-25.869348526000977,16.62580680847168,-5.29061222076416
-28.054346084594727,16.47646713256836,-5.597479820251465
-30.180908203125,16.131175994873047,-5.8876261711120605
-32.32614517211914,15.642010688781738,-6.178446292877197
-35.193782806396484,15.316737174987793,-6.6035051345825195
-35.18021011352539,13.657503128051758,-6.4926886558532715
-34.94352722167969,11.97387409210205,-6.3550310134887695
-34.776039123535156,10.375439643859863,-6.243664741516113
-34.48863983154297,8.797613143920898,-6.123615264892578
-34.268455505371094,7.2889723777771,-6.027621269226074
-13.341381072998047,2.281860589981079,-2.328653335571289
-13.2576904296875,1.722697377204895,-2.3000996112823486
-43.33879852294922,3.868830680847168,-7.485888481140137
-18.879779815673828,0.9230450391769409,-3.2520596981048584
-24.154273986816406,0.20942626893520355,-4.155786991119385
-79.00617980957031,-2.4904634952545166,-13.599392890930176
-46.13317108154297,-3.3131103515625,-7.957439422607422
-86.4927978515625,-9.716891288757324,-14.97429370880127
-87.38072204589844,-13.390114784240723,-15.208925247192383
-87.3245620727539,-16.99695587158203,-15.305730819702148
-87.472412109375,-20.704477310180664,-15.46505069732666
-29.908039093017578,-0.6281782388687134,-4.891049861907959
-40.698673248291016,-2.49316668510437,-6.666718482971191
-67.73223114013672,-6.889242172241211,-11.131376266479492
-81.6358871459961,-11.633027076721191,-13.48232364654541
-81.50554656982422,-14.977046012878418,-13.549298286437988
-81.54247283935547,-18.39802360534668,-13.66735553741455
-81.75152587890625,-21.93084144592285,-13.838998794555664
-81.19596862792969,-25.319215774536133,-13.906030654907227
-79.13745880126953,-28.21258544921875,-13.736639022827148
-83.02700805664062,-33.41610336303711,-14.633155822753906
-82.3842544555664,-37.069339752197266,-14.770601272583008
-59.136661529541016,-29.520471572875977,-10.806615829467773
-59.21506118774414,-32.594356536865234,-11.051474571228027
-59.36872863769531,-35.85934066772461,-11.340059280395508
-56.75419616699219,-37.47180938720703,-11.119425773620605
-53.70819091796875,-38.645729064941406,-10.818306922912598
-51.004981994628906,-39.90565490722656,-10.588415145874023
-50.45082092285156,-42.84809875488281,-10.822235107421875
-55.618560791015625,-76.98909759521484,-15.528863906860352
-42.645896911621094,-85.0277328491211,-15.552634239196777
-18.038408279418945,33.65182876586914,-6.2426934242248535
-29.17232894897461,49.53482437133789,-9.399099349975586
-31.14412498474121,48.33150100708008,-9.400747299194336
-33.2482795715332,47.308536529541016,-9.454143524169922
-35.387149810791016,46.28170394897461,-9.525552749633789
-36.22899627685547,43.632022857666016,-9.272489547729492
-39.839805603027344,44.23710632324219,-9.733596801757812
-42.166900634765625,43.19739532470703,-9.869872093200684
-26.651548385620117,25.193758010864258,-5.9963154792785645
-26.37076187133789,22.994264602661133,-5.720530033111572
-26.1114501953125,20.982797622680664,-5.476857662200928
-25.87028694152832,19.13089370727539,-5.2607011795043945
-25.730016708374023,17.47324562072754,-5.0852227210998535
-26.821422576904297,16.680675506591797,-5.164210796356201
-28.820571899414062,16.356351852416992,-5.418144226074219
-31.030086517333984,15.99776554107666,-5.707998752593994
-33.4932975769043,15.597858428955078,-6.040873050689697
-35.49586868286133,14.825823783874512,-6.289475917816162
-35.251190185546875,13.086645126342773,-6.1479291915893555
-35.01402282714844,11.420469284057617,-6.021624565124512
-34.78322982788086,9.81804370880127,-5.9092793464660645
-34.55778884887695,8.271199226379395,-5.809791564941406
-34.27486801147461,6.760468006134033,-5.71191930770874
-13.343682289123535,2.0789992809295654,-2.208017587661743
-13.746282577514648,1.5791822671890259,-2.262303113937378
-47.173770904541016,3.506614923477173,-7.734204292297363
-10.511870384216309,0.3577098548412323,-1.719687819480896
-24.437204360961914,-0.15068459510803223,-3.9955644607543945
-35.267520904541016,-1.6357264518737793,-5.772449016571045
-56.99192428588867,-4.943767547607422,-9.35318660736084
-81.68478393554688,-10.406041145324707,-13.463421821594238
-81.53434753417969,-13.735172271728516,-13.518719673156738
-81.50907897949219,-17.12386131286621,-13.617669105529785
-81.65383911132812,-20.611106872558594,-13.769176483154297
-81.03370666503906,-23.95549774169922,-13.815845489501953
-82.47138977050781,-28.029296875,-14.241597175598145
-81.8364028930664,-31.53441619873047,-14.339274406433105
-82.62370300292969,-35.71283721923828,-14.716914176940918
-59.12070846557617,-28.424842834472656,-10.725455284118652
-59.17998504638672,-31.44027328491211,-10.956664085388184
-59.303016662597656,-34.6293830871582,-11.228128433227539
-57.939815521240234,-37.032142639160156,-11.242826461791992
-54.806365966796875,-38.21476745605469,-10.92409610748291
-51.897525787353516,-39.376834869384766,-10.651243209838867
-50.65876388549805,-41.74702835083008,-10.732794761657715
-59.252586364746094,-52.96598815917969,-12.994175910949707
-66.70408630371094,-64.63137817382812,-15.185866355895996
-56.90522384643555,-76.3575668334961,-15.570068359375
-43.92915344238281,-84.436767578125,-15.562044143676758
-30.37535858154297,48.71067428588867,-9.385812759399414
-32.467323303222656,47.68570327758789,-9.432211875915527
-34.59526824951172,46.664825439453125,-9.49771499633789
-35.20645523071289,43.703758239746094,-9.17572021484375
-37.90426254272461,43.364715576171875,-9.41686725616455
-41.298397064208984,43.582881927490234,-9.816861152648926
-26.623157501220703,25.925537109375,-6.075803756713867
-26.47173309326172,23.782745361328125,-5.818337917327881
-26.20492172241211,21.705522537231445,-5.563401222229004
-25.957401275634766,19.797637939453125,-5.337558269500732
-25.72623634338379,18.034072875976562,-5.136788368225098
-26.129356384277344,16.792917251586914,-5.078375339508057
-28.059959411621094,16.47976303100586,-5.320529937744141
-30.187259674072266,16.134565353393555,-5.59637975692749
-32.29206466674805,15.625517845153809,-5.865387439727783
-35.202091217041016,15.320350646972656,-6.277006149291992
-35.276893615722656,13.695042610168457,-6.187169075012207
-35.03751754760742,12.006078720092773,-6.055635452270508
-34.86776351928711,10.402806282043457,-5.949206829071045
-34.5780143737793,8.82040786743164,-5.834551811218262
-34.355865478515625,7.307567119598389,-5.742853164672852
-13.374935150146484,2.287599802017212,-2.2185609340667725
-13.290624618530273,1.7269773483276367,-2.191288948059082
-43.36113357543945,3.8708267211914062,-7.117747783660889
-18.917760848999023,0.9249013662338257,-3.0967557430267334
-24.220935821533203,0.21000462770462036,-3.9602768421173096
-72.57664489746094,-2.2877774238586426,-11.872208595275879
-46.247947692871094,-3.32135009765625,-7.58102560043335
-80.97282409667969,-9.096758842468262,-13.32236099243164
-81.58577728271484,-12.502107620239258,-13.49500560760498
-81.49890899658203,-15.863042831420898,-13.575160026550293
-81.58023834228516,-19.309818267822266,-13.706945419311523
-29.979450225830078,-0.629676878452301,-4.647191524505615
-40.79043197631836,-2.4987876415252686,-6.333484172821045
-67.89501953125,-6.905798435211182,-10.576544761657715
-75.80895233154297,-10.802694320678711,-11.86743450164795
-76.43020629882812,-14.044428825378418,-12.04334831237793
-76.42337799072266,-17.243026733398438,-12.141697883605957
-76.55892944335938,-20.53786277770996,-12.284489631652832
-75.96216583251953,-23.68717384338379,-12.331575393676758
-77.40737915039062,-27.595802307128906,-12.736017227172852
-77.8508071899414,-31.33283042907715,-13.005721092224121
-78.617431640625,-35.37443161010742,-13.360588073730469
-69.36628723144531,-34.627010345458984,-12.015283584594727
-62.837379455566406,-34.58821487426758,-11.116263389587402
-57.70144271850586,-34.852272033691406,-10.447129249572754
-54.74309539794922,-36.14398193359375,-10.166379928588867
-51.854774475097656,-37.31211853027344,-9.900571823120117
-51.142669677734375,-40.01338195800781,-10.063623428344727
-50.590023040771484,-42.96633529663086,-10.286471366882324
-55.777793884277344,-77.20953369140625,-14.761615753173828
-42.7515983581543,-85.23847198486328,-14.778547286987305
-18.087778091430664,33.74394226074219,-5.9335103034973145
-29.640737533569336,50.33015441894531,-9.052252769470215
-30.807750701904297,47.80951690673828,-8.814530372619629
-32.88717269897461,46.79471969604492,-8.864045143127441
-34.98838424682617,45.76015853881836,-8.927322387695312
-36.234336853027344,43.63846969604492,-8.790491104125977
-39.34625244140625,43.689048767089844,-9.111967086791992
-41.689002990722656,42.70783615112305,-9.249404907226562
-26.75356674194336,25.290199279785156,-5.705536365509033
-26.467044830322266,23.078214645385742,-5.442166328430176
-26.202713012695312,21.05613899230957,-5.209539890289307
-26.04366111755371,19.259111404418945,-5.019927978515625
-25.813215255737305,17.529747009277344,-4.835760116577148
-26.826608657836914,16.68390464782715,-4.895991802215576
-28.826414108276367,16.359678268432617,-5.136781692504883
-31.03671646118164,16.001190185546875,-5.411643981933594
-33.50088119506836,15.601391792297363,-5.727309703826904
-35.59485626220703,14.867164611816406,-5.978282451629639
-35.34727478027344,13.12231731414795,-5.843372344970703
-35.10749435424805,11.450950622558594,-5.723007678985596
-34.87434768676758,9.84376335144043,-5.615952968597412
-34.646785736083984,8.29249382019043,-5.521160125732422
-34.3618049621582,6.777614116668701,-5.427939414978027
-13.3770751953125,2.084203004837036,-2.0981693267822266
-13.752717018127441,1.579921007156372,-2.145392894744873
-47.2954216003418,3.5156619548797607,-7.349993705749512
-10.537388801574707,0.35857781767845154,-1.6340125799179077
-24.49089813232422,-0.15101660788059235,-3.795632839202881
-35.35210037231445,-1.6396501064300537,-5.484700679779053
-57.12759017944336,-4.955536842346191,-8.886789321899414
-75.89791870117188,-9.668840408325195,-11.857604026794434
-75.7000732421875,-12.752340316772461,-11.897177696228027
-76.40956115722656,-16.052528381347656,-12.100335121154785
-76.4919662475586,-19.308149337768555,-12.226435661315918
-75.84207916259766,-22.420732498168945,-12.256733894348145
-77.13909149169922,-26.217021942138672,-12.626486778259277
-78.15769958496094,-30.11687469482422,-12.980920791625977
-70.00698852539062,-30.25945281982422,-11.819692611694336
-59.33533477783203,-28.52804183959961,-10.20333480834961
-63.33182144165039,-33.64598846435547,-11.1141996383667
-57.83128356933594,-33.769996643066406,-10.378774642944336
-57.80077362060547,-36.94324493408203,-10.631261825561523
-52.89723205566406,-36.883575439453125,-9.994017601013184
-51.33981704711914,-38.95368194580078,-9.98758602142334
-50.797386169433594,-41.86125946044922,-10.201224327087402
-50.226165771484375,-44.89728927612305,-10.44056510925293
-56.91633605957031,-76.37247467041016,-14.761412620544434
-43.945037841796875,-84.46730041503906,-14.756263732910156
-30.047819137573242,48.18540954589844,-8.800676345825195
-32.11550521850586,47.168983459472656,-8.843708038330078
-34.21781539916992,46.155696868896484,-8.904457092285156
-36.03697204589844,44.73470687866211,-8.902641296386719
-37.90732955932617,43.36821746826172,-8.92676830291748
-40.83283233642578,43.091575622558594,-9.200291633605957
-26.865787506103516,26.161815643310547,-5.811609268188477
-26.570045471191406,23.871076583862305,-5.535560131072998
-26.29796600341797,21.782590866088867,-5.292151927947998
-26.132640838623047,19.931297302246094,-5.093515872955322
-25.896596908569336,18.153501510620117,-4.9012980461120605
-26.134321212768555,16.79611587524414,-4.814597129821777
-28.065555572509766,16.483051300048828,-5.044221878051758
-30.193592071533203,16.137950897216797,-5.305800437927246
-32.299224853515625,15.62898063659668,-5.56090784072876
-35.210365295410156,15.323956489562988,-5.95123815536499
-35.37384033203125,13.732680320739746,-5.880799770355225
-35.131752014160156,12.038371086120605,-5.7554450035095215
-34.95972442626953,10.430240631103516,-5.653997421264648
-34.66761016845703,8.843268394470215,-5.544775485992432
-34.4434814453125,7.326202392578125,-5.457409381866455
-13.40856647491455,2.293351650238037,-2.1082146167755127
-13.32363224029541,1.7312662601470947,-2.082235097885132
-43.383453369140625,3.8728139400482178,-6.7502336502075195
-18.955785751342773,0.9267619252204895,-2.941246509552002
-24.287778854370117,0.21058404445648193,-3.76422119140625
-66.52459716796875,-2.0970163345336914,-10.314996719360352
-46.36298370361328,-3.3296146392822266,-7.203763961791992
-75.8630599975586,-8.522701263427734,-11.831107139587402
-75.75718688964844,-11.608942031860352,-11.877772331237793
-76.41490936279297,-14.873490333557129,-12.064905166625977
-76.44489288330078,-18.09429168701172,-12.174660682678223
-30.0510196685791,-0.6311792135238647,-4.402799129486084
-40.882362365722656,-2.504420042037964,-5.999608039855957
-64.99248504638672,-6.610574722290039,-9.569117546081543
-71.30477905273438,-10.1608304977417,-10.550127983093262
-71.96956634521484,-13.224738121032715,-10.71849250793457
-71.92327880859375,-16.227663040161133,-10.80003833770752
-71.99520111083984,-19.313566207885742,-10.918612480163574
-71.46582794189453,-22.285057067871094,-10.965343475341797
-72.66133880615234,-25.903839111328125,-11.299448013305664
-74.18391418457031,-29.85700225830078,-11.713425636291504
-73.57891082763672,-33.10731506347656,-11.81850814819336
-69.33663177490234,-34.61220169067383,-11.351438522338867
-62.99574661254883,-34.67539596557617,-10.533061981201172
-62.44862747192383,-37.719627380371094,-10.686506271362305
-57.21048355102539,-37.77303695678711,-10.041888236999512
-51.805442810058594,-37.276611328125,-9.34865951538086
-51.280738830566406,-40.12141036987305,-9.537351608276367
-50.72964096069336,-43.08489990234375,-9.749129295349121
-50.14859390258789,-46.1845703125,-9.986235618591309
-42.87792205810547,-85.49032592773438,-14.009279251098633
-18.137292861938477,33.83632278442383,-5.623434543609619
-29.953100204467773,50.86058044433594,-8.645939826965332
-30.479429244995117,47.29997253417969,-8.24229907989502
-32.53471755981445,46.293235778808594,-8.288103103637695
-34.62675094604492,45.28718185424805,-8.350478172302246
-36.239681243896484,43.64490509033203,-8.309593200683594
-38.89996337890625,43.19350814819336,-8.514528274536133
-39.268951416015625,40.22864532470703,-8.234633445739746
-26.856103897094727,25.38712501525879,-5.4132795333862305
-26.65234375,23.23979949951172,-5.179699897766113
-26.382038116455078,21.20024871826172,-4.957518100738525
-26.131149291992188,19.323806762695312,-4.760543346405029
-25.896739959716797,17.586469650268555,-4.585326194763184
-26.831804275512695,16.68712615966797,-4.628362655639648
-28.83226203918457,16.362991333007812,-4.8560357093811035
-31.043357849121094,16.00460433959961,-5.115931510925293
-33.508453369140625,15.604915618896484,-5.4144158363342285
-35.69413757324219,14.908637046813965,-5.6661553382873535
-35.44363784790039,13.15808391571045,-5.537944316864014
-34.80558776855469,11.352479934692383,-5.362607002258301
-34.498268127441406,9.737615585327148,-5.250698089599609
-34.208282470703125,8.187542915344238,-5.152300834655762
-33.933631896972656,6.693163871765137,-5.066310405731201
-13.41054916381836,2.0894155502319336,-1.9880564212799072
-13.75914192199707,1.5806587934494019,-2.0286736488342285
-47.41120529174805,3.5242693424224854,-6.963881015777588
-10.562967300415039,0.3594475984573364,-1.5481430292129517
-24.544687271118164,-0.15134839713573456,-3.595337152481079
-35.43687057495117,-1.643580436706543,-5.196317195892334
-57.26355743408203,-4.967331886291504,-8.419374465942383
-71.39186096191406,-9.094772338867188,-10.541879653930664
-71.19196319580078,-11.992883682250977,-10.575016021728516
-71.92676544189453,-15.11073112487793,-10.765710830688477
-71.95464324951172,-18.162811279296875,-10.870397567749023
-72.10332489013672,-21.3154354095459,-11.01342487335205
-71.65491485595703,-24.353118896484375,-11.08552360534668
-73.35125732421875,-28.26479148864746,-11.514461517333984
-69.62671661376953,-30.095083236694336,-11.110746383666992
-59.48236083984375,-28.598726272583008,-9.667622566223145
-63.33138656616211,-33.64575958251953,-10.504560470581055
-62.65300750732422,-36.58558654785156,-10.627422332763672
-59.7421875,-38.184104919433594,-10.385675430297852
-51.99312210083008,-36.253177642822266,-9.284436225891113
-51.477378845214844,-39.058048248291016,-9.465104103088379
-50.936405181884766,-41.97583770751953,-9.668113708496094
-50.366859436035156,-45.02305221557617,-9.895583152770996
-56.92744064331055,-76.38736724853516,-13.954536437988281
-43.97504425048828,-84.52495574951172,-13.956465721130371
-41.493072509765625,72.90792083740234,-12.287824630737305
-29.728694915771484,47.67362976074219,-8.229656219482422
-31.77211570739746,46.66462707519531,-8.26929759979248
-31.534255981445312,42.535888671875,-7.756046772003174
-35.93266677856445,44.605228424072266,-8.3900146484375
-37.912986755371094,43.374698638916016,-8.438429832458496
-40.378822326660156,42.61244583129883,-8.599007606506348
-26.970678329467773,26.26396369934082,-5.514310359954834
-26.668832778930664,23.959819793701172,-5.251409530639648
-26.479408264160156,21.932886123657227,-5.036413192749023
-26.22171974182129,19.99924087524414,-4.830568313598633
-25.98152732849121,18.21303939819336,-4.647675037384033
-26.139299392700195,16.79930305480957,-4.551403045654297
-28.071138381958008,16.486330032348633,-4.768515110015869
-30.19991111755371,16.141328811645508,-5.015847206115723
-32.30636215209961,15.632437705993652,-5.257074356079102
-35.218631744384766,15.327556610107422,-5.626155376434326
-35.471065521240234,13.770423889160156,-5.573539733886719
-35.01994323730469,12.000054359436035,-5.4224677085876465
-34.60959243774414,10.325779914855957,-5.290378093719482
-34.3134651184082,8.752930641174316,-5.187131404876709
-34.03337097167969,7.238968372344971,-5.096677780151367
-13.442281723022461,2.2991175651550293,-1.9975959062576294
-13.356719970703125,1.7355663776397705,-1.9729195833206177
-43.40570831298828,3.874803066253662,-6.383284091949463
-18.993871688842773,0.9286224842071533,-2.785517930984497
-24.354820251464844,0.2111654281616211,-3.5675907135009766
-66.67807006835938,-2.10185170173645,-9.771751403808594
-46.47829818725586,-3.337895154953003,-6.8256025314331055
-64.73955535888672,-7.273059368133545,-9.542603492736816
-71.25248718261719,-10.918619155883789,-10.558783531188965
-71.94622802734375,-14.003673553466797,-10.736347198486328
-71.93052673339844,-17.025726318359375,-10.827400207519531
-30.12275505065918,-0.6326875686645508,-4.157829761505127
-40.9744873046875,-2.5100624561309814,-5.665042877197266
-65.13927459716797,-6.625504016876221,-9.035544395446777
-67.39228820800781,-9.60330581665039,-9.394027709960938
-68.00616455078125,-12.496443748474121,-9.541921615600586
-67.93394470214844,-15.327574729919434,-9.61048412322998
-67.96050262451172,-18.23120880126953,-9.710086822509766
-68.08912658691406,-21.232105255126953,-9.842479705810547
-68.32506561279297,-24.35793685913086,-10.010052680969238
-68.65338134765625,-27.631113052368164,-10.212650299072266
-69.13204956054688,-31.106430053710938,-10.461435317993164
-69.30705261230469,-34.59743881225586,-10.689765930175781
-63.154537200927734,-34.762794494628906,-9.948344230651855
-62.608333587646484,-37.81610107421875,-10.093637466430664
-57.19279098510742,-37.7613525390625,-9.457660675048828
-52.41618347167969,-37.71604919433594,-8.911328315734863
-51.8880729675293,-40.59654235839844,-9.091680526733398
-50.86968231201172,-43.203834533691406,-9.21013355255127
-50.2904167175293,-46.31517028808594,-9.434762954711914
-22.895263671875,-24.766324996948242,-4.654405117034912
-21.32851791381836,-25.016996383666992,-4.536701202392578
-43.037296295166016,-85.80811309814453,-13.24737548828125
-42.57063293457031,79.41828155517578,-12.43488883972168
-30.2713623046875,51.400978088378906,-8.23199462890625
-30.15879249572754,46.8023796081543,-7.683480262756348
-31.763580322265625,45.19597625732422,-7.623256206512451
-32.69922637939453,42.76624298095703,-7.429165363311768
-36.24750518798828,43.65434265136719,-7.83026123046875
-38.63716506958008,42.901695251464844,-7.9674506187438965
-38.89085388183594,39.8412971496582,-7.683254241943359
-27.049055099487305,25.56954002380371,-5.136559009552002
-26.749881744384766,23.32485008239746,-4.8977155685424805
-26.474430084228516,21.27448844909668,-4.686895370483398
-26.219013214111328,19.38878059387207,-4.50004768371582
-25.980600357055664,17.643415451049805,-4.333881855010986
-26.83696937561035,16.69034194946289,-4.3612775802612305
-28.83808708190918,16.366300582885742,-4.575854301452637
-31.049945831298828,16.00801658630371,-4.82080602645874
-33.5160026550293,15.608434677124023,-5.102137565612793
-35.270294189453125,14.731602668762207,-5.274768829345703
-34.92838668823242,12.966800689697266,-5.1415205001831055
-34.60797882080078,11.288026809692383,-5.023493766784668
-34.30646896362305,9.683472633361816,-4.919244766235352
-34.02164077758789,8.142874717712402,-4.8275604248046875
-33.75156021118164,6.657246112823486,-4.7474260330200195
-13.444109916687012,2.0946474075317383,-1.8776590824127197
-13.765551567077637,1.5813963413238525,-1.9121284484863281
-47.52727127075195,3.5328941345214844,-6.57681941986084
-10.588605880737305,0.36032047867774963,-1.4620634317398071
-24.598583221435547,-0.15168026089668274,-3.3946480751037598
-35.52184295654297,-1.647523045539856,-4.907250881195068
-57.39983367919922,-4.979152202606201,-7.950876235961914
-67.47750854492188,-8.596114158630371,-9.387094497680664
-67.2769775390625,-11.33337116241455,-9.414979934692383
-67.9492416381836,-14.275114059448242,-9.581634521484375
-67.93902587890625,-17.14918327331543,-9.669597625732422
-68.02945709228516,-20.11111068725586,-9.789641380310059
-68.22502136230469,-23.18741226196289,-9.943899154663086
-68.50885772705078,-26.398847579956055,-10.1317720413208
-68.94000244140625,-29.798254013061523,-10.364334106445312
-48.01807403564453,-23.08677101135254,-7.352567195892334
-63.490234375,-33.73014831542969,-9.921300888061523
-62.81235122680664,-36.67863845825195,-10.037687301635742
-59.72307586669922,-38.1718864440918,-9.781344413757324
-53.235389709472656,-37.119346618652344,-8.955976486206055
-52.08597183227539,-39.519798278808594,-9.022616386413574
-51.57646560668945,-42.50327682495117,-9.222908973693848
-50.507991790771484,-45.14921569824219,-9.348875045776367
-50.29985046386719,-48.73687744140625,-9.665221214294434
-23.539020538330078,-24.716718673706055,-4.710206508636475
-21.832143783569336,-24.851289749145508,-4.564892292022705
-22.461090087890625,-27.739694595336914,-4.9256062507629395
-56.938499450683594,-76.4022216796875,-13.149295806884766
-44.01726531982422,-84.60608673095703,-13.16118049621582
-19.156625747680664,33.660308837890625,-5.3446736335754395
-29.405200958251953,47.154876708984375,-7.668894290924072
-31.43679428100586,46.172122955322266,-7.708378791809082
-31.848527908325195,42.959800720214844,-7.379889488220215
-35.53645324707031,44.113399505615234,-7.817176818847656
-37.67365646362305,43.100894927978516,-7.899763107299805
-38.86516571044922,41.01505661010742,-7.797547340393066
-27.166397094726562,26.45454978942871,-5.232804298400879
-26.85735511779785,24.129199981689453,-4.98239278793335
-26.57362174987793,22.010921478271484,-4.761748790740967
-26.311187744140625,20.067474365234375,-4.566465377807617
-26.06681251525879,18.272823333740234,-4.393003940582275
-26.144241333007812,16.802488327026367,-4.288743019104004
-27.853342056274414,16.35841178894043,-4.457620620727539
-30.206220626831055,16.14470100402832,-4.726479530334473
-32.31349563598633,15.635885238647461,-4.953848838806152
-34.626712799072266,15.069940567016602,-5.2113871574401855
-35.05197525024414,13.607718467712402,-5.188860893249512
-34.72395324707031,11.89863109588623,-5.065395832061768
-34.41573715209961,10.267939567565918,-4.95621395111084
-34.12499237060547,8.704846382141113,-4.860019207000732
-33.849674224853516,7.199897766113281,-4.775726318359375
-13.476081848144531,2.304898977279663,-1.8866935968399048
-13.38988971710205,1.7398755550384521,-1.8633280992507935
-43.42793655395508,3.8767895698547363,-6.016850471496582
-19.03201675415039,0.9304869174957275,-2.629539966583252
-24.42207145690918,0.21174824237823486,-3.3703525066375732
-30.590925216674805,-0.9642992615699768,-4.223618507385254
-46.593894958496094,-3.3461990356445312,-6.446476936340332
-64.88536834716797,-7.289439678192139,-9.010452270507812
-67.33984375,-10.319052696228027,-9.401317596435547
-67.97784423828125,-13.231263160705566,-9.556928634643555
-67.93123626708984,-16.079111099243164,-9.633475303649902
-30.19466781616211,-0.6341956257820129,-3.9122586250305176
-41.06681823730469,-2.515719413757324,-5.329736709594727
-64.88188934326172,-6.5993146896362305,-8.44813060760498
-63.89444351196289,-9.104866981506348,-8.360454559326172
-64.46418762207031,-11.845589637756348,-8.490455627441406
-64.37167358398438,-14.523837089538574,-8.548271179199219
-64.36186218261719,-17.26582908630371,-8.632179260253906
-64.43714141845703,-20.09331512451172,-8.743555068969727
-64.6014404296875,-23.030458450317383,-8.884310722351074
-64.83682250976562,-26.09505271911621,-9.053640365600586
-65.20061492919922,-29.337453842163086,-9.26165771484375
-59.596675872802734,-29.750106811523438,-8.628555297851562
-59.23463439941406,-32.605133056640625,-8.758843421936035
-47.198970794677734,-28.508678436279297,-7.142876625061035
-57.175140380859375,-37.74970245361328,-8.875129699707031
-52.55497360229492,-37.8159294128418,-8.387174606323242
-52.02825164794922,-40.70622634887695,-8.557381629943848
-51.510154724121094,-43.74777603149414,-8.754366874694824
-50.927024841308594,-46.90145492553711,-8.968487739562988
-24.325443267822266,-24.279521942138672,-4.452125549316406
-22.578128814697266,-24.42326545715332,-4.308554649353027
-20.94436264038086,-24.566404342651367,-4.181882381439209
-22.200830459594727,-28.265583038330078,-4.655887603759766
-35.833946228027344,-71.44599151611328,-10.353915214538574
-41.56267166137695,77.53787231445312,-11.396203994750977
-30.556974411010742,51.885948181152344,-7.800250053405762
-29.818593978881836,46.27439880371094,-7.131103038787842
-31.266807556152344,44.489158630371094,-7.044001579284668
-32.74226760864258,42.82254409790039,-6.982909679412842
-35.9193000793457,43.259056091308594,-7.2836833000183105
-38.78093719482422,43.06135559082031,-7.506844997406006
-39.586524963378906,40.553985595703125,-7.341252326965332
-27.153030395507812,25.66781997680664,-4.840203285217285
-26.84790802001953,23.41031265258789,-4.614315986633301
-26.567256927490234,21.349079132080078,-4.4149980545043945
-26.307268142700195,19.454036712646484,-4.238395690917969
-26.06481170654297,17.700605392456055,-4.081384658813477
-26.842119216918945,16.693552017211914,-4.094697952270508
-28.843914031982422,16.36960220336914,-4.296205997467041
-31.056564331054688,16.011417388916016,-4.526237964630127
-32.94357681274414,15.341851234436035,-4.707559108734131
-34.98130416870117,14.610905647277832,-4.9108381271362305
-34.727054595947266,12.892064094543457,-4.798506259918213
-34.41304397583008,11.224445343017578,-4.688974380493164
-34.117218017578125,9.630054473876953,-4.5922040939331055
-33.83744430541992,8.09878921508789,-4.507079124450684
-33.571842193603516,6.621803283691406,-4.43265962600708
-13.477761268615723,2.0998892784118652,-1.7669627666473389
-13.771958351135254,1.58213210105896,-1.7957438230514526
-47.643638610839844,3.5415446758270264,-6.18874979019165
-10.614310264587402,0.36119478940963745,-1.375766396522522
-24.652591705322266,-0.15201511979103088,-3.1935410499572754
-35.60702133178711,-1.6514726877212524,-4.617466926574707
-57.53644943237305,-4.991002082824707,-7.481217861175537
-63.97766876220703,-8.150264739990234,-8.354597091674805
-63.77772903442383,-10.743894577026367,-8.378129959106445
-64.39628601074219,-13.528690338134766,-8.523946762084961
-64.35572814941406,-16.244686126708984,-8.598082542419434
-64.3991928100586,-19.037914276123047,-8.699115753173828
-64.53008270263672,-21.931623458862305,-8.828773498535156
-64.72884368896484,-24.942279815673828,-8.9858980178833
-65.0538101196289,-28.118511199951172,-9.180533409118652
-48.077552795410156,-23.115373611450195,-6.910371780395508
-59.288448333740234,-31.49789047241211,-8.696746826171875
-62.972137451171875,-36.771942138671875,-9.446308135986328
-59.704017639160156,-38.159706115722656,-9.178779602050781
-53.21982955932617,-37.108497619628906,-8.404486656188965
-52.225616455078125,-39.62574768066406,-8.492205619812012
-51.71772766113281,-42.61967086791992,-8.681219100952148
-51.14604568481445,-45.719539642333984,-8.886615753173828
-50.54206848144531,-48.97157669067383,-9.116397857666016
-23.209087371826172,-24.370296478271484,-4.35947847366333
-21.535463333129883,-24.513578414916992,-4.226816654205322
-20.076723098754883,-24.794971466064453,-4.1328229904174805
-22.075334548950195,-29.621505737304688,-4.785514831542969
-47.59653091430664,-69.53135681152344,-10.915205955505371
-44.070804595947266,-84.70902252197266,-12.369379043579102
-19.123775482177734,33.60258483886719,-5.008420467376709
-30.086017608642578,48.24665069580078,-7.365434169769287
-31.109220504760742,45.69100570678711,-7.160430431365967
-31.853046417236328,42.96590805053711,-6.928458213806152
-33.94363784790039,42.13615036010742,-7.009052276611328
-37.78023910522461,43.222835540771484,-7.436458587646484
-39.088172912597656,41.250396728515625,-7.361526012420654
-27.272790908813477,26.558164596557617,-4.93125057220459
-26.957483291625977,24.219161987304688,-4.694390773773193
-26.668291091918945,22.08934211730957,-4.4857587814331055
-26.401065826416016,20.136030197143555,-4.301166534423828
-26.1524600982666,18.33286476135254,-4.1372456550598145
-26.149187088012695,16.805665969848633,-4.0265889167785645
-27.858861923217773,16.361652374267578,-4.185183048248291
-30.212520599365234,16.1480655670166,-4.437654972076416
-32.320613861083984,15.639328002929688,-4.651183605194092
-34.207542419433594,14.887513160705566,-4.832693099975586
-34.848079681396484,13.52856731414795,-4.842430591583252
-34.526737213134766,11.8310546875,-4.727863788604736
-34.224464416503906,10.2108736038208,-4.626522541046143
-33.938995361328125,8.657407760620117,-4.537215709686279
-33.668365478515625,7.161332130432129,-4.458942890167236
-13.509976387023926,2.310697317123413,-1.7754861116409302
-13.423149108886719,1.7441985607147217,-1.7534430027008057
-43.45015335083008,3.8787691593170166,-5.650884628295898
-19.07022476196289,0.9323557615280151,-2.4732959270477295
-24.489534378051758,0.21233204007148743,-3.1724753379821777
-30.53268814086914,-0.962463915348053,-3.957145929336548
-46.709815979003906,-3.3545210361480713,-6.06633996963501
-64.80884552001953,-7.280836582183838,-8.448114395141602
-63.84214782714844,-9.783069610595703,-8.366601943969727
-64.43211364746094,-12.541119575500488,-8.503125190734863
-64.36103820800781,-15.234053611755371,-8.56765079498291
-30.266765594482422,-0.6357118487358093,-3.666041135787964
-41.16740417480469,-2.521880865097046,-4.9946184158325195
-61.69135665893555,-6.274794578552246,-7.509231090545654
-60.74824523925781,-8.656539916992188,-7.430786609649658
-61.27947235107422,-11.260383605957031,-7.545042514801025
-61.170921325683594,-13.801671028137207,-7.593861103057861
-61.13175582885742,-16.399316787719727,-7.664658546447754
-61.16365432739258,-19.07254981994629,-7.7585272789001465
-60.65167999267578,-21.622371673583984,-7.797554969787598
-61.429264068603516,-24.72359848022461,-8.01883316040039
-61.699424743652344,-27.762065887451172,-8.193178176879883
-59.74506378173828,-29.824174880981445,-8.086348533630371
-56.23139190673828,-30.9520263671875,-7.772917747497559
-47.24052429199219,-28.533769607543945,-6.683276653289795
-57.15755081176758,-37.73808288574219,-8.294215202331543
-52.6942024230957,-37.91610336303711,-7.861382961273193
-52.168888092041016,-40.81625747680664,-8.021347999572754
-51.652503967285156,-43.868682861328125,-8.206494331359863
-51.07122039794922,-47.03422927856445,-8.407782554626465
-23.982900619506836,-23.9376277923584,-4.103386878967285
-22.270296096801758,-24.09028434753418,-3.9728658199310303
-20.667102813720703,-24.241191864013672,-3.857609987258911
-19.157655715942383,-24.391080856323242,-3.755863904953003
-21.907590866088867,-30.325241088867188,-4.530351638793945
-21.702594757080078,-32.73579025268555,-4.756278038024902
-35.919254302978516,-71.6160659790039,-9.702224731445312
-16.502906799316406,-61.056663513183594,-7.659138202667236
-40.60335922241211,75.74822998046875,-10.407657623291016
-30.747346878051758,52.20920181274414,-7.337364673614502
-29.501977920532227,45.7830924987793,-6.595609664916992
-30.786361694335938,43.80552673339844,-6.48378849029541
-32.7469367980957,42.82866668701172,-6.528786659240723
-34.86878967285156,41.993892669677734,-6.609891414642334
-38.78675842285156,43.06781005859375,-7.018704414367676
-39.75337600708008,40.72489929199219,-6.891773223876953
-27.25758171081543,25.766653060913086,-4.542206287384033
-26.946441650390625,23.496246337890625,-4.329448223114014
-26.66053581237793,21.42404556274414,-4.141778469085693
-26.395925521850586,19.51960563659668,-3.9755473136901855
-26.149389266967773,17.758037567138672,-3.8277945518493652
-26.8472843170166,16.696754455566406,-3.8285984992980957
-28.849721908569336,16.372900009155273,-4.017045021057129
-31.06315040588379,16.014814376831055,-4.232174396514893
-32.56072235107422,15.163552284240723,-4.349637508392334
-34.55741882324219,14.433857917785645,-4.535184860229492
-34.52845001220703,12.818328857421875,-4.460148811340332
-34.22071075439453,11.161710739135742,-4.358911514282227
-33.930450439453125,9.577337265014648,-4.269443988800049
-33.65562438964844,8.055268287658691,-4.1907267570495605
-33.3944091796875,6.586802959442139,-4.121899604797363
-13.511507987976074,2.1051478385925293,-1.6559520959854126
-13.778358459472656,1.5828665494918823,-1.6795018911361694
-49.4597282409668,3.6765406131744385,-6.005983352661133
-10.640084266662598,0.36207202076911926,-1.2892354726791382
-24.70671844482422,-0.1523473560810089,-2.991981267929077
