56.86528015136719,36.72916793823242,12.808697700500488
55.60153579711914,39.165321350097656,12.868316650390625
54.3259162902832,41.62979507446289,12.94997501373291
46.151397705078125,38.404258728027344,11.36023998260498
57.81333923339844,52.178497314453125,14.735294342041016
44.56798553466797,43.597843170166016,11.796584129333496
53.8812141418457,57.121028900146484,14.85750961303711
51.80467224121094,59.54001998901367,14.932914733886719
49.288734436035156,61.470314025878906,14.908007621765137
45.96849822998047,62.301326751708984,14.649513244628906
32.231834411621094,47.5718879699707,10.872553825378418
40.90848922729492,65.93510437011719,14.681708335876465
37.78817367553711,66.75043487548828,14.513252258300781
34.69878387451172,67.48048400878906,14.357073783874512
31.829147338867188,68.53804779052734,14.29826545715332
29.295576095581055,70.35047912597656,14.419020652770996
26.865478515625,72.60437774658203,14.64780330657959
24.677732467651367,75.93445587158203,15.10726547241211
22.63589096069336,80.52297973632812,15.826295852661133
19.62957763671875,82.40263366699219,16.02770233154297
13.663230895996094,69.6628646850586,13.43205738067627
8.79373550415039,56.83999252319336,10.88265609741211
6.44218635559082,56.61017608642578,10.780360221862793
4.092180252075195,55.858062744140625,10.597238540649414
1.8171005249023438,55.13034439086914,10.4368896484375
-0.4015316963195801,55.5068473815918,10.502737045288086
-2.975778818130493,62.71337890625,11.879363059997559
-6.011003494262695,68.44538116455078,13.000411033630371
-8.641552925109863,67.26063537597656,12.831000328063965
-11.3817138671875,67.12600708007812,12.882210731506348
-52.17055892944336,68.60697174072266,16.307998657226562
-52.15822982788086,63.1547966003418,15.497930526733398
-51.878753662109375,57.911590576171875,14.711214065551758
-51.675193786621094,53.2184944152832,14.035436630249023
-56.99308395385742,54.16136169433594,14.876382827758789
-60.65198516845703,53.16874313354492,15.26115894317627
-64.40902709960938,52.03874206542969,15.667421340942383
-68.35258483886719,50.82591247558594,16.116615295410156
-83.5833740234375,16.715686798095703,16.127981185913086
42.17049789428711,-80.60868835449219,17.213048934936523
47.577293395996094,-82.67738342285156,18.048660278320312
60.621219635009766,-68.68921661376953,17.334320068359375
67.4077377319336,-70.45916748046875,18.449987411499023
63.70973587036133,-61.45011901855469,16.74809455871582
63.34307098388672,-56.36418533325195,16.043046951293945
64.29656219482422,-52.74093246459961,15.73480224609375
68.73523712158203,-51.90671157836914,16.297189712524414
80.53825378417969,-55.88535690307617,18.547988891601562
81.30750274658203,-51.70780563354492,18.231651306152344
81.9515380859375,-47.60547637939453,17.93242835998535
52.740421295166016,-27.865673065185547,11.286270141601562
51.691402435302734,-24.70841407775879,10.840453147888184
51.781429290771484,-22.242219924926758,10.663188934326172
52.23359680175781,-19.991252899169922,10.582244873046875
55.752506256103516,-18.807222366333008,11.132983207702637
59.82041549682617,-17.536645889282227,11.79496955871582
64.33151245117188,-16.083166122436523,12.546801567077637
67.83087158203125,-14.089465141296387,13.10823917388916
68.99183654785156,-11.46120834350586,13.23285961151123
82.58824157714844,-10.33059310913086,15.74831771850586
82.15507507324219,-6.9385600090026855,15.599918365478516
81.6429443359375,-3.6007676124572754,15.462696075439453
80.38983917236328,2.918485164642334,15.220602989196777
79.6523208618164,6.1029157638549805,15.11520767211914
78.8427963256836,9.239103317260742,15.019936561584473
77.96248626708984,12.328351974487305,14.934593200683594
77.01245880126953,15.372015953063965,14.858987808227539
75.9936294555664,18.37128448486328,14.792961120605469
74.51563262939453,21.21595573425293,14.65945053100586
73.36715698242188,24.114612579345703,14.612436294555664
72.53052520751953,27.11393165588379,14.651065826416016
71.24200439453125,29.94647789001465,14.622173309326172
69.88665008544922,32.73971176147461,14.602370262145996
68.46449279785156,35.49448776245117,14.591593742370605
66.66081237792969,38.0320930480957,14.521322250366211
62.07621383666992,38.802120208740234,13.851251602172852
47.875125885009766,32.67119598388672,10.966747283935547
54.79853820800781,40.716064453125,12.917222023010254
53.513118743896484,43.20294189453125,13.013134956359863
58.50763702392578,51.250755310058594,14.716842651367188
45.054046630859375,42.783897399902344,11.755919456481934
54.62908172607422,56.21906661987305,14.832100868225098
52.580116271972656,58.65094757080078,14.903946876525879
50.32045364379883,60.8838005065918,14.945178031921387
36.3734245300293,47.7962760925293,11.364447593688965
32.97037887573242,47.140438079833984,10.884551048278809
42.01603698730469,65.5297622680664,14.7286376953125
38.93091583251953,66.44981384277344,14.571874618530273
35.84978485107422,67.2466049194336,14.418895721435547
32.87583923339844,68.1275634765625,14.312827110290527
30.211627960205078,69.62149810791016,14.359896659851074
27.865123748779297,72.00546264648438,14.608750343322754
25.450145721435547,74.53108215332031,14.901538848876953
23.68291473388672,79.69031524658203,15.729984283447266
20.75118637084961,81.71388244628906,15.951839447021484
14.758057594299316,69.74986267089844,13.4895658493042
11.79814624786377,69.42670440673828,13.324569702148438
7.331067085266113,56.8947639465332,10.854070663452148
4.950500965118408,56.13271713256836,10.662109375
2.6490414142608643,55.39640426635742,10.493541717529297
0.4286620616912842,56.38981628417969,10.669837951660156
-1.9845468997955322,60.89116668701172,11.527345657348633
-5.0121870040893555,68.76425170898438,13.045415878295898
-7.660648822784424,67.53915405273438,12.861023902893066
-10.335601806640625,66.96973419189453,12.821361541748047
-50.83924865722656,68.95586395263672,16.209857940673828
-52.225276947021484,65.1817398071289,15.803460121154785
-51.95033264160156,59.751861572265625,14.981243133544922
-51.75193786621094,54.90425491333008,14.275957107543945
-53.04856872558594,51.93208694458008,14.046346664428711
-59.307525634765625,53.56674575805664,15.121175765991211
-63.00141906738281,52.46510696411133,15.512661933898926
-66.87335968017578,51.28395080566406,15.945481300354004
-87.93852996826172,38.548370361328125,18.167295455932617
38.6937255859375,-78.76046752929688,17.360204696655273
40.788387298583984,-75.22814178466797,16.929393768310547
46.38873291015625,-77.91485595703125,17.93921661376953
32.39787292480469,-49.75352096557617,11.745716094970703
62.76438522338867,-69.02587127685547,18.45677947998047
66.5045166015625,-67.4818115234375,18.743688583374023
62.269615173339844,-58.30283737182617,16.87586212158203
61.957401275634766,-53.50548553466797,16.195173263549805
66.22117614746094,-52.69580078125,16.742408752441406
70.22187042236328,-51.41144943237305,17.21739959716797
78.06270599365234,-52.46919250488281,18.60762596130371
78.80569458007812,-48.49003219604492,18.305253982543945
79.42816162109375,-44.577049255371094,18.019006729125977
52.41796875,-26.70824432373047,11.638497352600098
51.39594268798828,-23.63702964782715,11.191544532775879
52.0810432434082,-21.461429595947266,11.143836975097656
53.426692962646484,-19.544269561767578,11.254552841186523
57.220462799072266,-18.361587524414062,11.888619422912598
61.39947509765625,-17.01463508605957,12.604578971862793
65.54890441894531,-15.358094215393066,13.318901062011719
66.69145202636719,-12.823769569396973,13.435436248779297
67.79759979248047,-10.23167896270752,13.564449310302734
80.01606750488281,-8.805269241333008,15.92534351348877
69.39610290527344,-4.825313568115234,13.761968612670898
79.0832748413086,-2.313009262084961,15.651942253112793
78.50215911865234,0.8590449094772339,15.531213760375977
77.84690856933594,3.9833319187164307,15.420804023742676
77.11905670166016,7.061062812805176,15.32048225402832
76.31999206542969,10.093353271484375,15.230046272277832
75.45081329345703,13.081336975097656,15.149316787719727
74.51262664794922,16.026046752929688,15.078123092651367
73.50621795654297,18.928466796875,15.016327857971191
72.05415344238281,21.67577362060547,14.885692596435547
68.6209716796875,23.688243865966797,14.361560821533203
70.08387756347656,27.39102554321289,14.886173248291016
68.81005096435547,30.13303565979004,14.860916137695312
67.4699478149414,32.836814880371094,14.844635963439941
59.383296966552734,31.912975311279297,13.336932182312012
49.109073638916016,28.992284774780273,11.282105445861816
56.92436218261719,36.76732635498047,13.4063081741333
55.659584045410156,39.20619583129883,13.468772888183594
54.38299560546875,41.673526763916016,13.554340362548828
46.2020378112793,38.44640350341797,11.89096736907959
56.215763092041016,50.73664093017578,14.981056213378906
44.621856689453125,43.650543212890625,12.349071502685547
52.38028335571289,55.529869079589844,15.101848602294922
50.35450744628906,57.87331008911133,15.176346778869629
48.25492858886719,60.18101119995117,15.2604398727417
45.766143798828125,62.027076721191406,15.249666213989258
32.26050567626953,47.61420822143555,11.378137588500977
40.31070327758789,64.97162628173828,15.126450538635254
37.223724365234375,65.75332641601562,14.947956085205078
34.1491584777832,66.41157531738281,14.773538589477539
31.298274993896484,67.39492797851562,14.7005033493042
28.66812515258789,68.84371185302734,14.753217697143555
26.701034545898438,72.15995788574219,15.221564292907715
24.598251342773438,75.68988800048828,15.744832992553711
21.939590454101562,78.04600524902344,16.038488388061523
19.018314361572266,79.83666229248047,16.236223220825195
13.620712280273438,69.44620513916016,14.000481605529785
8.887388229370117,57.44532012939453,11.49975872039795
6.443600654602051,56.62258529663086,11.27409553527832
4.093070030212402,55.87010192871094,11.082549095153809
1.8174688816070557,55.14203643798828,10.914816856384277
-0.40606796741485596,56.134788513183594,11.105583190917969
-2.93394136428833,61.83177947998047,12.246101379394531
-6.012217044830322,68.45941162109375,13.59562873840332
-8.685932159423828,67.60604858398438,13.484617233276367
-16.2746639251709,95.98294830322266,19.25956916809082
-20.243486404418945,95.8493423461914,19.380414962768555
-51.71718978881836,68.0107421875,16.902984619140625
-51.083518981933594,61.85350799560547,15.87030029296875
-50.9454231262207,56.86972427368164,15.104883193969727
-50.89244079589844,52.412357330322266,14.45274543762207
-54.1953239440918,51.502593994140625,14.790751457214355
-60.05056381225586,52.64148712158203,15.798389434814453
-63.75349807739258,51.50912857055664,16.21467399597168
-67.63716125488281,50.29396057128906,16.674684524536133
-83.53557586669922,16.706125259399414,16.853294372558594
40.8393669128418,-86.34144592285156,18.895549774169922
40.59212112426758,-77.59170532226562,17.323850631713867
44.02638626098633,-76.50679016113281,17.462705612182617
32.51659393310547,-51.593894958496094,12.064964294433594
60.65150451660156,-68.72352600097656,18.133302688598633
67.56697845458984,-70.62564849853516,19.336334228515625
64.83353424072266,-62.534053802490234,17.82020378112793
62.07506561279297,-55.23589324951172,16.438352584838867
64.79825592041016,-53.15243911743164,16.580211639404297
68.7186050415039,-51.89411544799805,17.03572654724121
77.75679779052734,-53.95530700683594,18.723468780517578
78.5456771850586,-49.951446533203125,18.41498374938965
79.21205139160156,-46.014137268066406,18.122846603393555
52.817237854003906,-27.90627670288086,11.81778335571289
51.763710021972656,-24.742971420288086,11.350310325622559
51.23438262939453,-22.007230758666992,11.03132438659668
51.77470016479492,-19.81562614440918,10.967276573181152
55.733924865722656,-18.800941467285156,11.636434555053711
59.799285888671875,-17.530454635620117,12.328116416931152
64.30733489990234,-16.077129364013672,13.113640785217285
66.27381896972656,-13.766043663024902,13.39097785949707
67.39342498779297,-11.195670127868652,13.515336990356445
80.15383911132812,-10.026079177856445,15.980613708496094
79.75556945800781,-6.735907554626465,15.834423065185547
79.2787857055664,-3.4964962005615234,15.699169158935547
78.09733581542969,2.8352608680725098,15.460386276245117
77.39616394042969,5.930052280426025,15.35636043548584
76.62323760986328,8.978976249694824,15.262298583984375
75.77982330322266,11.98320484161377,15.178004264831543
74.86700439453125,14.94377326965332,15.103307723999023
73.88568878173828,17.8616886138916,15.038060188293457
72.4563980102539,20.629661560058594,14.903913497924805
71.34601593017578,23.450294494628906,14.857428550720215
70.53741455078125,26.36884307861328,14.897781372070312
69.2880859375,29.125141143798828,14.869199752807617
67.97241973876953,31.84296226501465,14.849613189697266
66.59056091308594,34.522979736328125,14.838953018188477
64.83650207519531,36.99125289916992,14.767538070678711
62.09654998779297,38.81482696533203,14.487197875976562
47.92290115356445,32.70378875732422,11.477941513061523
54.855960845947266,40.75873947143555,13.520021438598633
53.56960678100586,43.24854278564453,13.620513916015625
56.89287567138672,49.83627700805664,14.962810516357422
45.08273696899414,42.811134338378906,12.299469947814941
53.10987091064453,54.6556510925293,15.076738357543945
51.110984802246094,57.012203216552734,15.14772891998291
49.0388298034668,59.3331413269043,15.228261947631836
36.43296432495117,47.87453842163086,11.901789665222168
32.99973678588867,47.18241500854492,11.390702247619629
41.441951751708984,64.63439178466797,15.189412117004395
38.35356140136719,65.46435546875,15.00997543334961
35.2890739440918,66.19483184814453,14.840174674987793
32.328678131103516,66.9936752319336,14.715991973876953
29.74396324157715,68.54376220703125,14.781866073608398
27.25442886352539,70.42733001708984,14.939718246459961
25.494365692138672,74.6606216430664,15.607690811157227
22.187240600585938,74.65752410888672,15.408122062683105
20.10796356201172,79.18096923828125,16.161771774291992
14.771920204162598,69.81531524658203,14.117527961730957
11.69799518585205,68.83738708496094,13.813519477844238
7.332686901092529,56.90732192993164,11.351202964782715
4.9515700340271,56.1448860168457,11.15040111541748
2.64962100982666,55.408226013183594,10.974078178405762
0.42332959175109863,55.688880920410156,11.017393112182617
-1.95648992061615,60.03001022338867,11.882197380065918
-5.013209819793701,68.77839660644531,13.642704010009766
-7.703786373138428,67.91946411132812,13.52283763885498
-10.318055152893066,66.85607147216797,13.382898330688477
-18.764841079711914,95.86116027832031,19.324382781982422
-40.19256591796875,64.83448028564453,15.091076850891113
-50.428531646728516,68.39878845214844,16.811620712280273
-51.220340728759766,63.92749786376953,16.205678939819336
-50.998863220214844,58.657474517822266,15.377060890197754
-50.84795379638672,53.94520568847656,14.66578483581543
-53.06059646606445,51.94384765625,14.689772605895996
-58.724769592285156,53.04038619995117,15.654900550842285
-62.36650848388672,51.93635940551758,16.056119918823242
-66.18080139160156,50.752845764160156,16.499465942382812
-60.250728607177734,35.59992218017578,13.844752311706543
-87.9652099609375,38.5600700378418,19.00094985961914
35.14023971557617,-79.44117736816406,17.936429977416992
38.144195556640625,-77.64189147949219,17.862001419067383
39.51343536376953,-72.87667083740234,17.11736297607422
43.31652069091797,-72.7547836303711,17.48365020751953
31.011707305908203,-47.6247673034668,11.734809875488281
62.72547149658203,-68.98307037353516,19.251907348632812
66.65763854980469,-67.63716125488281,19.608341217041016
64.06634521484375,-59.98509979248047,18.122034072875977
62.41429901123047,-53.90006637573242,17.02801513671875
66.20536041259766,-52.683204650878906,17.470338821411133
70.20462036132812,-51.398807525634766,17.965866088867188
75.46405792236328,-50.722572326660156,18.774784088134766
76.22357177734375,-46.901206970214844,18.479686737060547
53.584320068359375,-30.072839736938477,12.687655448913574
52.49351501464844,-26.746742248535156,12.164935111999512
51.467159271240234,-23.669775009155273,11.697111129760742
51.52927780151367,-21.234066009521484,11.507908821105957
53.409393310546875,-19.537944793701172,11.742891311645508
57.200904846191406,-18.355321884155273,12.404241561889648
61.37723159790039,-17.008480072021484,13.150993347167969
64.0810546875,-15.014163970947266,13.590003967285156
65.18519592285156,-12.53414249420166,13.706231117248535
66.40681457519531,-10.021798133850098,13.867170333862305
77.72537231445312,-8.553194999694824,16.145883560180664
69.62079620361328,-4.840927600860596,14.410249710083008
76.85707092285156,-2.2478995323181152,15.876496315002441
76.30886840820312,0.8350353240966797,15.757460594177246
75.68696594238281,3.8728127479553223,15.648547172546387
74.99285888671875,6.866391658782959,15.549549102783203
74.2278823852539,9.816669464111328,15.460281372070312
73.39321899414062,12.72459888458252,15.380561828613281
72.48992156982422,15.591008186340332,15.3102445602417
71.51875305175781,18.416675567626953,15.249197959899902
70.11259460449219,21.091697692871094,15.117964744567871
67.32676696777344,23.241487503051758,14.706862449645996
68.2049560546875,26.656667709350586,15.12057113647461
66.96829986572266,29.326513290405273,15.095598220825195
65.66600036621094,31.95884895324707,15.079504013061523
59.445011138916016,31.94613265991211,13.93458080291748
49.16041946411133,29.022607803344727,11.787760734558105
56.9837646484375,36.80570602416992,14.007142066955566
55.71792984008789,39.24730682373047,14.072480201721191
54.440372467041016,41.71749496459961,14.161967277526855
46.25295639038086,38.488765716552734,12.424607276916504
54.69927215576172,49.36796569824219,15.214343070983887
44.676025390625,43.70353698730469,12.904711723327637
50.95619201660156,54.02014923095703,15.3336820602417
48.978912353515625,56.29231262207031,15.407255172729492
46.92961883544922,58.528133392333984,15.490283966064453
44.80696487426758,60.727108001708984,15.582921981811523
32.5343017578125,48.01830291748047,11.976466178894043
39.6871337890625,63.9665412902832,15.54366397857666
36.64749526977539,64.73548889160156,15.360082626342773
33.584869384765625,65.31417083740234,15.164769172668457
30.76137351989746,66.23880767822266,15.080120086669922
28.405048370361328,68.21199035644531,15.257046699523926
26.54531478881836,71.73920440673828,15.794534683227539
24.034015655517578,73.95375061035156,16.05636215209961
21.282733917236328,75.70944213867188,16.23865509033203
18.442123413085938,77.41787719726562,16.43279457092285
13.62384033203125,69.46210479736328,14.616042137145996
8.889368057250977,57.45819091796875,12.005309104919434
6.449738025665283,56.676483154296875,11.778284072875977
4.0939555168151855,55.88218307495117,11.569666862487793
1.817870020866394,55.153785705566406,11.394527435302734
-0.40615612268447876,56.14658737182617,11.59364128112793
-2.9685230255126953,62.56046676635742,12.932230949401855
-6.013436794281006,68.47349548339844,14.19305419921875
-8.687711715698242,67.61984252929688,14.077140808105469
-15.52595043182373,91.5673828125,19.1769962310791
-19.561038970947266,92.61808013916016,19.545955657958984
-23.894594192504883,94.23745727539062,20.074230194091797
-52.151180267333984,68.58148193359375,17.79015350341797
-47.03693389892578,56.95378494262695,15.252127647399902
-50.04216384887695,55.861419677734375,15.485862731933594
-51.064632415771484,52.58969497680664,15.135769844055176
-54.273258209228516,51.57667541503906,15.45971965789795
-59.45899200439453,52.12293243408203,16.3267822265625
-63.10910415649414,50.988468170166016,16.752643585205078
-66.93429565429688,49.77132797241211,17.22297477722168
34.01935958862305,-80.09857177734375,17.968923568725586
37.040279388427734,-78.30951690673828,17.887191772460938
39.46733093261719,-75.4416275024414,17.58034896850586
41.43299865722656,-72.0001220703125,17.15268325805664
31.906965255737305,-50.62664031982422,12.356464385986328
60.68191909790039,-68.75798034667969,18.935728073120117
64.9754638671875,-62.67096710205078,18.640161514282227
60.8529167175293,-54.14839553833008,16.819368362426758
64.78294372558594,-53.13985061645508,17.301132202148438
68.70185852050781,-51.88150405883789,17.776336669921875
75.15277862548828,-52.148380279541016,18.887741088867188
75.95716857910156,-48.30525588989258,18.586816787719727
76.6416015625,-44.520957946777344,18.301528930664062
52.894527435302734,-27.947101593017578,12.352593421936035
51.83646011352539,-24.777753829956055,11.863286972045898
50.65424346923828,-21.758037567138672,11.38333511352539
51.390655517578125,-19.668636322021484,11.361945152282715
55.775367736816406,-18.814931869506836,12.154303550720215
59.77810287475586,-17.524248123168945,12.862640380859375
63.66401672363281,-15.916289329528809,13.550148010253906
64.78186798095703,-13.456141471862793,13.661895751953125
65.86250305175781,-10.941341400146484,13.785887718200684
77.85144805908203,-9.738086700439453,16.200307846069336
77.4850082397461,-6.544142723083496,16.056325912475586
77.0405044555664,-3.3977880477905273,15.923051834106445
75.92510223388672,2.7564077377319336,15.687591552734375
75.25747680664062,5.76618766784668,15.584957122802734
74.51850891113281,8.732333183288574,15.492120742797852
73.70944213867188,11.655815124511719,15.408894538879395
72.83137512207031,14.537450790405273,15.335122108459473
71.88517761230469,17.37807273864746,15.270665168762207
70.50164794921875,20.073108673095703,15.135973930358887
69.42706298828125,22.819561004638672,15.090036392211914
68.64490509033203,25.661373138427734,15.132039070129395
67.43252563476562,28.345182418823242,15.103782653808594
66.15445709228516,30.99129867553711,15.08442211151123
64.810791015625,33.600284576416016,15.073885917663574
63.10377883911133,36.002689361572266,15.001388549804688
61.635581970214844,38.526702880859375,15.008452415466309
47.970924377441406,32.7365608215332,11.991852760314941
54.913692474365234,40.80162811279297,14.126075744628906
53.62640380859375,43.29439926147461,14.231184959411621
55.35995101928711,48.49350357055664,15.196310997009277
45.111549377441406,42.83849334716797,12.845507621765137
51.66828155517578,53.172088623046875,15.308876991271973
49.7172966003418,55.457611083984375,15.378996849060059
47.69475555419922,57.70688247680664,15.458515167236328
36.49289321899414,47.95327377319336,12.442655563354492
33.02924728393555,47.224605560302734,11.899426460266113
40.88218688964844,63.76133728027344,15.639474868774414
37.760948181152344,64.45286560058594,15.424263954162598
34.71525955200195,65.11845397949219,15.237238883972168
31.788532257080078,65.87440490722656,15.102869033813477
29.32299041748047,67.57363891601562,15.20988655090332
26.855045318603516,69.39533233642578,15.36451244354248
25.0277156829834,73.29398345947266,15.991985321044922
22.20364761352539,74.7127914428711,16.093795776367188
19.501466751098633,76.79270935058594,16.35971450805664
14.77531909942627,69.83143615722656,14.738249778747559
11.699295997619629,68.84500885009766,14.419146537780762
7.3396830558776855,56.961585998535156,11.858857154846191
4.952633857727051,56.15709686279297,11.640519142150879
2.650181531906128,55.42008590698242,11.456400871276855
0.4164320230484009,54.78085708618164,11.311666488647461
-1.9231631755828857,59.007606506347656,12.190558433532715
-4.8324294090271,66.29795837402344,13.725746154785156
-7.705373764038086,67.933349609375,14.117048263549805
-10.444246292114258,67.67366027832031,14.13891887664795
-18.05337905883789,92.2265396118164,19.404664993286133
-22.203100204467773,93.35871887207031,19.814685821533203
-51.23979187011719,69.4991455078125,17.829036712646484
-50.58976745605469,63.14048767089844,16.70608139038086
-48.47636032104492,55.75621032714844,15.255632400512695
-49.98839569091797,53.03327941894531,15.048330307006836
-53.07264709472656,51.95565414428711,15.335609436035156
-58.15145492553711,52.5225944519043,16.179941177368164
-61.74221420288086,51.41646957397461,16.590471267700195
-65.50020599365234,50.230918884277344,17.04385757446289
-59.641326904296875,35.23984909057617,14.304001808166504
-87.99201202392578,38.571815490722656,19.837865829467773
-67.68204498291016,48.78496551513672,17.951467514038086
-56.07835388183594,37.091678619384766,14.466593742370605
-59.06828308105469,35.74405288696289,14.855195999145508
34.64445877075195,-78.32038879394531,18.426786422729492
37.60824966430664,-76.55097961425781,18.351396560668945
39.38349914550781,-72.63703155517578,17.778324127197266
28.713607788085938,-48.22760009765625,12.076764106750488
30.751211166381836,-47.22471618652344,12.125423431396484
62.6966552734375,-68.9513931274414,20.052043914794922
66.71122741699219,-67.69156646728516,20.449108123779297
64.20343780517578,-60.11346435546875,18.924293518066406
62.39970779418945,-53.88747024536133,17.739721298217773
66.18949127197266,-52.67056655883789,18.200424194335938
70.18729400634766,-51.38613510131836,18.716529846191406
73.02478790283203,-49.083038330078125,18.931690216064453
73.79723358154297,-45.40825271606445,18.64360237121582
74.45413970947266,-41.78548812866211,18.37031364440918
52.56953811645508,-26.785478591918945,12.694707870483398
51.53882598876953,-23.70273780822754,12.205830574035645
50.98724365234375,-21.010709762573242,11.865561485290527
53.44966125488281,-19.552669525146484,12.245781898498535
57.18131637573242,-18.349029541015625,12.921286582946777
61.35494613647461,-17.00229835510254,13.698877334594727
62.67274475097656,-14.684202194213867,13.850106239318848
63.74066925048828,-12.256380081176758,13.96593189239502
66.6315689086914,-10.055718421936035,14.499055862426758
75.23918151855469,-8.2795991897583,16.28647804260254
75.188720703125,-5.228080749511719,16.21695899963379
74.74573516845703,-2.186156749725342,16.089466094970703
74.2278823852539,0.8122577667236328,15.972122192382812
73.6368179321289,3.76790452003479,15.864714622497559
72.97401428222656,6.681542873382568,15.76705265045166
72.24079895019531,9.553874969482422,15.678956985473633
71.43833923339844,12.38567066192627,15.600266456604004
70.56766510009766,15.177570343017578,15.530837059020996
69.62964630126953,17.93021583557129,15.470542907714844
68.26675415039062,20.53642463684082,15.338784217834473
65.59950256347656,22.64522361755371,14.931982040405273
66.41815185546875,25.958335876464844,15.343470573425293
65.21673583984375,28.559467315673828,15.318790435791016
63.9503059387207,31.12384033203125,15.302884101867676
59.50704574584961,31.979482650756836,14.535552978515625
49.212059020996094,29.053081512451172,12.296218872070312
57.043495178222656,36.84428787231445,14.611303329467773
55.776611328125,39.28864288330078,14.679524421691895
54.49806594848633,41.76171112060547,14.772978782653809
46.30416488647461,38.53137969970703,12.961273193359375
53.25764465332031,48.06684875488281,15.436117172241211
51.46449279785156,50.34423065185547,15.490516662597656
49.60295486450195,52.58555221557617,15.553977966308594
47.67213439941406,54.7904052734375,15.626614570617676
43.98984146118164,54.86181640625,15.130370140075684
42.79689025878906,58.002830505371094,15.509570121765137
32.89220428466797,48.54654312133789,12.617247581481934
39.08075714111328,62.98920440673828,15.94964599609375
36.01850891113281,63.62440490722656,15.731106758117676
33.01932907104492,64.21434783935547,15.536199569702148
30.231082916259766,65.096923828125,15.443202018737793
28.22386932373047,67.77687072753906,15.797036170959473
25.936120986938477,70.0928955078125,16.0808048248291
23.34070587158203,71.82038879394531,16.248720169067383
20.662025451660156,73.5013427734375,16.427812576293945
17.89801597595215,75.13374328613281,16.618425369262695
13.626969337463379,69.47807312011719,15.233999252319336
8.891363143920898,57.47112274169922,12.512826919555664
6.451149940490723,56.68899154663086,12.276152610778809
4.097821235656738,55.935184478759766,12.067488670349121
1.8182519674301147,55.16556930541992,11.876091003417969
-0.40065687894821167,55.38832092285156,11.917881965637207
-2.9813761711120605,62.831268310546875,13.534234046936035
-5.761541843414307,65.60494232177734,14.170144081115723
-8.689468383789062,67.6336898803711,14.671944618225098
-15.010896682739258,88.52969360351562,19.320274353027344
-18.944067001342773,89.6968765258789,19.72528076171875
-23.21733283996582,91.56639099121094,20.32525062561035
-52.00779342651367,68.3929214477539,18.48708152770996
-47.65318298339844,57.69989013671875,16.101551055908203
-49.16743850708008,54.885009765625,15.854823112487793
-40.54955291748047,41.76055145263672,12.524335861206055
-54.28574752807617,51.58852767944336,16.11334991455078
-58.877017974853516,51.61274719238281,16.846633911132812
-53.69326400756836,43.38105010986328,14.852363586425781
-66.24353790283203,49.257713317871094,17.76181411743164
-54.76789474487305,37.40452194213867,14.270124435424805
-58.175384521484375,36.39363098144531,14.764808654785156
-6.076484680175781,-75.2761001586914,16.2493896484375
33.53853225708008,-78.96649169921875,18.459692001342773
36.519107818603516,-77.20770263671875,18.376911163330078
38.235626220703125,-73.08724975585938,17.747711181640625
28.088115692138672,-48.810096740722656,12.116937637329102
29.998111724853516,-47.59782791137695,12.105607986450195
30.520151138305664,-44.368804931640625,11.587075233459473
58.16450500488281,-77.67851257324219,20.879838943481445
60.71246337890625,-68.79258728027344,19.74171257019043
66.67957305908203,-69.69803619384766,20.75410270690918
65.11847686767578,-62.80888748168945,19.466537475585938
62.7537727355957,-55.839820861816406,18.073928833007812
64.76753997802734,-53.127235412597656,18.02419090270996
68.68513488769531,-51.86883544921875,18.519134521484375
72.70943450927734,-50.45295715332031,19.041887283325195
73.5257568359375,-46.758995056152344,18.74821662902832
74.22474670410156,-43.11700439453125,18.469526290893555
53.02197265625,-28.014450073242188,12.902912139892578
51.909671783447266,-24.812747955322266,12.379477500915527
50.929351806640625,-21.876216888427734,11.926311492919922
52.11149597167969,-19.944520950317383,12.005668640136719
55.75663375854492,-18.808618545532227,12.661017417907715
59.756866455078125,-17.518022537231445,13.398622512817383
62.26888656616211,-15.567511558532715,13.810378074645996
63.35079574584961,-13.158886909484863,13.921754837036133
64.3946533203125,-10.697501182556152,14.045289039611816
75.3541259765625,-9.425699234008789,16.339839935302734
75.33297729492188,-6.3623833656311035,16.266645431518555
74.91809844970703,-3.3041791915893555,16.135345458984375
73.86347961425781,2.681551933288574,15.903228759765625
73.22702026367188,5.610616683959961,15.801987648010254
72.5196304321289,8.498095512390137,15.710382461547852
71.74262237548828,11.344794273376465,15.628233909606934
70.89702606201172,14.151354789733887,15.555398941040039
69.98377227783203,16.918415069580078,15.491748809814453
68.64344024658203,19.54404067993164,15.356572151184082
67.6025619506836,22.21988296508789,15.311193466186523
66.84524536132812,24.988611221313477,15.354803085327148
65.66792297363281,27.60341453552246,15.32688045501709
64.42543029785156,30.181297302246094,15.307745933532715
63.1180534362793,32.72270202636719,15.29732894897461
58.776065826416016,33.53359603881836,14.559988021850586
57.51784896850586,35.952816009521484,14.594569206237793
48.019195556640625,32.769508361816406,12.50856876373291
54.971736907958984,40.84476852416992,14.735496520996094
53.68352127075195,43.34050750732422,14.845258712768555
53.90259552001953,47.21689987182617,15.418302536010742
45.140499114990234,42.865989685058594,13.394124984741211
50.298309326171875,51.76224899291992,15.52947998046875
48.3931770324707,53.98059844970703,15.59871768951416
46.41807174682617,56.1622200012207,15.677220344543457
36.55323028564453,48.03255844116211,12.987181663513184
33.05891799926758,47.26701736450195,12.410810470581055
40.03651809692383,62.44245529174805,15.959859848022461
37.11111831665039,63.343685150146484,15.796101570129395
34.11552810668945,63.993526458740234,15.60351848602295
31.235050201416016,64.72740173339844,15.46377944946289
29.024869918823242,66.88665771484375,15.688179016113281
26.747573852539062,69.11759948730469,15.946361541748047
24.308551788330078,71.18788146972656,16.185440063476562
21.660825729370117,72.88628387451172,16.36037254333496
18.928586959838867,74.53684997558594,16.54668426513672
14.778745651245117,69.84761810302734,15.361408233642578
11.701950073242188,68.86062622070312,15.02873420715332
7.341304302215576,56.9742431640625,12.360150337219238
4.957350730895996,56.210453033447266,12.141403198242188
2.650756597518921,55.43199920654297,11.940598487854004
0.41195249557495117,54.192386627197266,11.660585403442383
-1.890852451324463,58.016075134277344,12.489598274230957
-4.7926344871521,65.75205993652344,14.185002326965332
-7.706945419311523,67.94730377197266,14.713549613952637
-10.446388244628906,67.68745422363281,14.736326217651367
-17.450952529907227,89.14898681640625,19.545684814453125
-21.554073333740234,90.62976837158203,20.044137954711914
-26.369197845458984,93.93653869628906,20.99298858642578
-51.093238830566406,69.30035400390625,18.525426864624023
-50.45922088623047,62.97757339477539,17.36348533630371
-48.047508239746094,55.262901306152344,15.756329536437988
-49.924224853515625,52.96524429321289,15.660835266113281
-52.57475662231445,51.46823501586914,15.830397605895996
-48.89533233642578,44.16239547729492,14.176464080810547
-61.128196716308594,50.90515899658203,17.11600685119629
-64.83124542236328,49.71788024902344,17.578983306884766
-56.93849182128906,36.80620193481445,14.587873458862305
-59.635440826416016,35.23637390136719,14.903867721557617
-88.01892852783203,38.58359909057617,20.67816734313965
-52.07949447631836,37.5386848449707,14.372442245483398
-55.170814514160156,36.491416931152344,14.808724403381348
-58.43521499633789,35.360965728759766,15.291006088256836
-84.18830108642578,22.658618927001953,19.518407821655273
-74.46937561035156,-44.71232223510742,19.446109771728516
34.1607780456543,-77.22695922851562,18.905179977416992
36.87101745605469,-75.05039978027344,18.72011375427246
26.531126022338867,-48.93273162841797,12.461475372314453
28.47452735900879,-47.826045989990234,12.461106300354004
30.466510772705078,-46.78750228881836,12.499553680419922
30.02884864807129,-42.29672622680664,11.612963676452637
56.81296920776367,-73.57278442382812,20.810400009155273
61.664634704589844,-73.54742431640625,21.487102508544922
62.68034362792969,-68.93346405029297,20.85848617553711
64.9513168334961,-65.90576934814453,20.715736389160156
64.34162902832031,-60.242862701416016,19.732891082763672
62.38508224487305,-53.87483215332031,18.453645706176758
66.17355346679688,-52.657894134521484,18.93277931213379
69.8303451538086,-51.12479782104492,19.375280380249023
70.73033905029297,-47.54083251953125,19.07927894592285
71.5126724243164,-44.00255584716797,18.797931671142578
69.91368865966797,-39.23729705810547,17.9484806060791
52.69540786743164,-26.84963035583496,13.240325927734375
51.65934371948242,-23.758167266845703,12.729723930358887
50.362144470214844,-20.75311279296875,12.194619178771973
53.43224334716797,-19.546302795410156,12.73744010925293
57.16167449951172,-18.34272003173828,13.439828872680664
60.24807357788086,-16.695579528808594,13.99638557434082
61.3203010559082,-14.36732292175293,14.099895477294922
62.353912353515625,-11.989725112915039,14.215243339538574
66.60160827636719,-10.05119514465332,15.079312324523926
71.7459487915039,-7.895188331604004,16.159120559692383
70.7751693725586,-4.921200752258301,15.883088111877441
70.11223602294922,-2.0506277084350586,15.703126907348633
71.94852447509766,0.7873241901397705,16.108478546142578
71.38838195800781,3.652853012084961,16.003023147583008
71.05435180664062,6.505774974822998,15.973869323730469
70.35074615478516,9.303915023803711,15.886955261230469
69.57843017578125,12.06320858001709,15.809293746948242
68.73841094970703,14.784134864807129,15.740756034851074
67.83150482177734,17.467178344726562,15.681229591369629
66.50952911376953,20.007801055908203,15.549005508422852
63.66996383666992,21.97913932800293,15.079559326171875
64.71670532226562,25.29335594177246,15.555716514587402
63.54865646362305,27.82899284362793,15.531344413757324
62.316261291503906,30.328577041625977,15.51562786102295
59.56945037841797,32.01301193237305,15.13992977142334
49.26398849487305,29.083736419677734,12.807568550109863
57.10357666015625,36.883087158203125,15.21889591217041
55.835628509521484,39.330204010009766,15.290033340454102
54.55610275268555,41.806175231933594,15.387480735778809
46.35567092895508,38.574241638183594,13.50104808807373
51.885284423828125,46.8282470703125,15.647232055664062
50.133792877197266,49.042510986328125,15.700950622558594
48.31527328491211,51.220436096191406,15.763604164123535
44.95372009277344,51.66608810424805,15.332162857055664
43.82304763793945,54.65378952026367,15.68327522277832
42.44898986816406,57.53131866455078,16.006349563598633
39.00819778442383,57.57332992553711,15.569132804870605
38.185523986816406,61.546302795410156,16.21526336669922
35.3792610168457,62.49523162841797,16.07754898071289
32.43386459350586,63.07574462890625,15.878607749938965
29.691638946533203,63.935333251953125,15.781744956970215
27.66539764404297,66.43576049804688,16.111385345458984
25.21372413635254,68.14055633544922,16.265853881835938
22.683984756469727,69.79961395263672,16.430923461914062
20.074466705322266,71.41116333007812,16.606876373291016
17.332904815673828,72.76152801513672,16.74532699584961
13.630115509033203,69.49410247802734,15.854452133178711
8.893363952636719,57.484100341796875,13.022391319274902
6.452592849731445,56.70155715942383,12.776023864746094
4.098729133605957,55.94737243652344,12.558815956115723
1.81997549533844,55.217742919921875,12.368614196777344
-0.39407092332839966,54.475032806396484,12.19594955444336
-2.9943735599517822,63.10533142089844,14.143637657165527
-5.714364528656006,65.06781005859375,14.623162269592285
-8.691268920898438,67.6475830078125,15.269124031066895
-14.517449378967285,85.6195297241211,19.441696166992188
-18.34084701538086,86.84070587158203,19.870386123657227
-22.55647087097168,88.96002197265625,20.54620933532715
-26.844810485839844,90.45178985595703,21.12295150756836
-31.186809539794922,91.44110870361328,21.629318237304688
-51.90160369873047,68.25326538085938,19.19631576538086
-47.534324645996094,57.55598831176758,16.711688995361328
-48.31977844238281,53.938758850097656,16.212352752685547
-40.172508239746094,41.37225341796875,12.910259246826172
-42.68635177612305,40.5654411315918,13.183368682861328
-45.36473083496094,39.76758575439453,13.505878448486328
-48.117462158203125,38.876102447509766,13.84891128540039
-50.9776611328125,37.906192779541016,14.222007751464844
-54.0104866027832,36.887245178222656,14.642563819885254
-57.208351135253906,35.788673400878906,15.107246398925781
-6.075176239013672,-75.25983428955078,16.903640747070312
33.06948471069336,-77.86207580566406,18.93846321105957
36.0106086730957,-76.1326675415039,18.85472297668457
38.190277099609375,-73.00054168701172,18.44438362121582
27.73003578186035,-48.18784713745117,12.446806907653809
29.747745513916016,-47.20057678222656,12.490618705749512
29.996801376342773,-43.60796356201172,11.849475860595703
57.11565017700195,-76.2777328491211,21.333467483520508
60.9903450012207,-74.97489929199219,21.63738250732422
60.743133544921875,-68.82736206054688,20.551403045654297
64.38973236083984,-67.30453491210938,20.852828979492188
65.26265716552734,-62.947940826416016,20.299549102783203
62.882747650146484,-55.954593658447266,18.8443660736084
64.75210571289062,-53.11457824707031,18.749483108520508
68.6683120727539,-51.85614013671875,19.264225006103516
70.41200256347656,-48.8587760925293,19.18683624267578
71.23723602294922,-45.3035888671875,18.900129318237305
68.91769409179688,-40.034141540527344,17.843294143676758
53.100337982177734,-28.05584716796875,13.445170402526855
52.03208541870117,-24.87127113342285,12.9110746383667
50.998985290527344,-21.906110763549805,12.426152229309082
52.151039123535156,-19.95965576171875,12.501240730285645
55.73786544799805,-18.802278518676758,13.169203758239746
59.735572814941406,-17.51177978515625,13.936141967773438
60.92892074584961,-15.232510566711426,14.060319900512695
61.9767951965332,-12.873488426208496,14.171253204345703
64.53173065185547,-10.720276832580566,14.64507007598877
72.11407470703125,-9.020413398742676,16.27039337158203
71.12934875488281,-6.007364749908447,15.980820655822754
70.2685317993164,-3.0991146564483643,15.746700286865234
71.6035385131836,2.59951114654541,16.04083824157715
71.29651641845703,5.462697982788086,16.008331298828125
70.61860656738281,8.2753324508667,15.917961120605469
69.87152099609375,11.048914909362793,15.836899757385254
69.05638122558594,13.783946990966797,15.765008926391602
68.17408752441406,16.480928421020508,15.702166557312012
66.87451171875,19.040395736694336,15.566573143005371
65.86544799804688,21.64892578125,15.52175521850586
65.13159942626953,24.348005294799805,15.566913604736328
63.987403869628906,26.897022247314453,15.539335250854492
62.778751373291016,29.409902572631836,15.520419120788574
61.5058479309082,31.88687515258789,15.51014232635498
58.83773422241211,33.56877517700195,15.165384292602539
57.578346252441406,35.99062728881836,15.20144271850586
48.0677490234375,32.802642822265625,13.028180122375488
55.030128479003906,40.888145446777344,15.348393440246582
53.7322998046875,43.3798828125,15.460347175598145
52.51519012451172,46.00157165527344,15.629638671875
45.169586181640625,42.893611907958984,13.94541072845459
48.994571685791016,50.420570373535156,15.739420890808105
45.35699462890625,50.5938720703125,15.212016105651855
44.24732971191406,53.535789489746094,15.549139976501465
36.613990783691406,48.11241149902344,13.53547477722168
33.08873748779297,47.30966567993164,12.924957275390625
38.99437713623047,60.817054748535156,16.173784255981445
36.489952087402344,62.283447265625,16.16056251525879
33.50620651245117,62.85053634643555,15.945303916931152
30.692018508911133,63.602088928222656,15.810150146484375
28.479694366455078,65.63034057617188,16.01677703857422
26.127897262573242,67.51632690429688,16.207603454589844
23.627178192138672,69.1925277709961,16.368724822998047
21.04731559753418,70.82182312011719,16.54062843322754
18.375638961791992,72.35948944091797,16.71370506286621
14.782191276550293,69.8638687133789,15.987088203430176
11.704605102539062,68.87628936767578,15.640785217285156
7.3429460525512695,56.98695755004883,12.863465309143066
4.9584197998046875,56.22276306152344,12.635760307312012
2.6532630920410156,55.48448944091797,12.43581485748291
0.416032075881958,54.72856140136719,12.252740859985352
-1.9370691776275635,59.433990478515625,13.312881469726562
-4.753349304199219,65.21317291259766,14.638364791870117
-7.708523750305176,67.96129608154297,15.312431335449219
-10.44851303100586,67.70130157470703,15.33610725402832
-16.8795223236084,86.22987365722656,19.671133041381836
-20.889612197875977,87.83587646484375,20.212770462036133
-25.444971084594727,90.64408874511719,21.07737922668457
-29.472591400146484,90.80239868164062,21.372451782226562
-50.94701385498047,69.10203552246094,19.220325469970703
-47.58514404296875,59.3905029296875,17.03746795654297
-47.62464141845703,54.77653121948242,16.249996185302734
-40.347652435302734,42.805267333984375,13.169184684753418
-41.735836029052734,40.857460021972656,13.075582504272461
-44.342350006103516,40.05012130737305,13.376927375793457
-47.08449172973633,39.210079193115234,13.717528343200684
-49.931480407714844,38.291526794433594,14.08708381652832
-52.87261962890625,37.272239685058594,14.482403755187988
-56.00712585449219,36.204132080078125,14.9302339553833
-59.32048797607422,35.05028533935547,15.42541217803955
-51.55815887451172,37.16293716430664,14.784305572509766
-54.60197830200195,36.11516189575195,15.228473663330078
-57.813289642333984,34.984619140625,15.719147682189941
-84.15159606933594,22.648733139038086,20.271921157836914
-74.29011535644531,-44.604698181152344,20.156997680664062
-7.878513813018799,-74.12181854248047,17.339323043823242
33.68869400024414,-76.15970611572266,19.37210464477539
36.1718635559082,-73.62727355957031,19.08244514465332
26.303295135498047,-48.51252746582031,12.837005615234375
28.23853302001953,-47.42965316772461,12.840497016906738
29.92323112487793,-45.95320510864258,12.756168365478516
30.269184112548828,-42.63524627685547,12.163116455078125
55.91687774658203,-72.41232299804688,21.282146453857422
59.549583435058594,-71.02481079101562,21.560569763183594
61.24824523925781,-67.3584976196289,21.177997589111328
62.800865173339844,-63.72373962402344,20.81219482421875
64.21320343017578,-60.122596740722656,20.46268081665039
62.37041473388672,-53.862144470214844,19.169898986816406
66.10009002685547,-52.599422454833984,19.650405883789062
67.66329193115234,-49.5382194519043,19.507280349731445
68.56787109375,-46.087364196777344,19.218379974365234
67.17964172363281,-41.33638381958008,18.348665237426758
70.03675079345703,-39.30634307861328,18.68231201171875
52.772499084472656,-26.888887405395508,13.77758502960205
51.73200607299805,-23.791584014892578,13.245522499084473
50.77032470703125,-20.921321868896484,12.77361011505127
53.414772033691406,-19.539915084838867,13.230613708496094
57.141944885253906,-18.33639907836914,13.959943771362305
60.14030456542969,-16.66571044921875,14.51703929901123
60.020263671875,-14.062726020812988,14.340003967285156
61.03886413574219,-11.73686408996582,14.458950996398926
66.5715560913086,-10.046663284301758,15.661209106445312
71.5102310180664,-7.869248390197754,16.735103607177734
70.85382080078125,-4.926669120788574,16.521791458129883
69.91509246826172,-2.04485821723938,16.27058219909668
69.00621795654297,0.755119800567627,16.05316734313965
68.1230239868164,3.485772132873535,15.867490768432617
67.54505157470703,6.184462547302246,15.778031349182129
68.24966430664062,9.026046752929688,16.014450073242188
67.80650329589844,11.755998611450195,16.00843620300293
66.9952621459961,14.40923023223877,15.940794944763184
66.11772155761719,17.025863647460938,15.88203239440918
64.83439636230469,19.50387954711914,15.749402046203613
62.27915573120117,21.4990234375,15.326261520385742
63.09433364868164,24.659292221069336,15.758101463317871
61.958011627197266,27.132421493530273,15.734030723571777
60.75800323486328,29.570194244384766,15.718511581420898
59.4945182800293,31.972740173339844,15.711485862731934
49.31621551513672,29.114578247070312,13.321917533874512
56.777252197265625,36.67232131958008,15.72295093536377
55.323307037353516,38.96933364868164,15.741456985473633
53.80552673339844,41.23101806640625,15.768513679504395
46.40748596191406,38.61736297607422,14.044055938720703
50.5771484375,45.64759826660156,15.848469734191895
48.86559295654297,47.801902770996094,15.901498794555664
45.862491607666016,48.62015914916992,15.547788619995117
45.08286666870117,51.814491271972656,15.976773262023926
43.33377456665039,54.04359436035156,16.113887786865234
41.35481262207031,56.048404693603516,16.202831268310547
38.786312103271484,57.2458381652832,16.085220336914062
37.188751220703125,59.93971252441406,16.408788681030273
34.688995361328125,61.27592086791992,16.37956428527832
31.840160369873047,61.92118453979492,16.196794509887695
