27.460439682006836,21.52811050415039,3.931520938873291
25.804697036743164,21.959623336791992,3.8177809715270996
24.213943481445312,22.34383773803711,3.712334156036377
22.699918746948242,22.701539993286133,3.6172168254852295
21.25339126586914,23.035547256469727,3.531435966491699
20.355911254882812,23.923648834228516,3.5392658710479736
20.407176971435547,26.034433364868164,3.72715163230896
20.45816421508789,28.377429962158203,3.941645622253418
20.407920837402344,30.84852409362793,4.167552947998047
20.192089080810547,33.361480712890625,4.393827438354492
9.201595306396484,16.680870056152344,2.146472692489624
16.98118019104004,33.94023513793945,4.276086330413818
27.48954963684082,60.94565200805664,7.533136367797852
24.603931427001953,60.97188186645508,7.408129692077637
21.807647705078125,60.996028900146484,7.298641681671143
21.482681274414062,68.67298126220703,8.107354164123535
20.430179595947266,75.8819580078125,8.854307174682617
17.119888305664062,75.55770874023438,8.729104995727539
10.275957107543945,55.6375617980957,6.374873638153076
-11.562098503112793,43.574790954589844,5.07959508895874
-27.811325073242188,90.05174255371094,10.619263648986816
-20.986722946166992,59.380306243896484,7.0961384773254395
-23.786745071411133,59.5703125,7.227281093597412
-26.69900894165039,59.77219009399414,7.376035690307617
-27.874414443969727,56.22260284423828,7.070589065551758
-32.86274337768555,60.09013366699219,7.716889381408691
-20.64978790283203,34.39950942993164,4.5206170082092285
-20.500394821166992,31.234609603881836,4.209610462188721
-22.39870834350586,31.3085880279541,4.337441921234131
-24.411418914794922,31.377254486083984,4.479300498962402
-8.150755882263184,9.650219917297363,1.4232593774795532
-10.66878604888916,11.648104667663574,1.779739499092102
-31.21661376953125,31.44677734375,4.992541313171387
-33.91274642944336,31.522701263427734,5.216835975646973
-33.84641647338867,29.016021728515625,5.023128509521484
-30.684003829956055,24.23598861694336,4.4056315422058105
-16.175155639648438,11.75258731842041,2.2527761459350586
-31.66866111755371,21.11977195739746,4.288904190063477
-34.58726501464844,21.10968017578125,4.56554651260376
-37.894474029541016,21.087257385253906,4.886246204376221
-32.908992767333984,11.903619766235352,3.943067789077759
-78.4644546508789,24.865520477294922,9.274131774902344
-80.05887603759766,21.873441696166992,9.351089477539062
-79.7696533203125,18.385591506958008,9.223527908325195
-60.354618072509766,11.378825187683105,6.920134544372559
-78.00518035888672,-10.603775978088379,8.86990737915039
-53.79534912109375,-9.52761459350586,6.155610084533691
-70.06902313232422,-15.335919380187988,8.081766128540039
-65.28302001953125,-17.063175201416016,7.602731704711914
-65.25751495361328,-19.889068603515625,7.686672687530518
-65.2302017211914,-22.782360076904297,7.785053730010986
-65.20092010498047,-25.755104064941406,7.8987555503845215
-58.79454803466797,-26.00118637084961,7.243441581726074
-54.719947814941406,-26.877023696899414,6.8690266609191895
-65.09928894042969,-35.289154052734375,8.34330940246582
-22.665857315063477,-13.492019653320312,2.9720375537872314
-20.703712463378906,-13.478978157043457,2.7835617065429688
-19.082225799560547,-13.545018196105957,2.636641025543213
-23.348329544067383,-18.02629852294922,3.3235509395599365
-23.128780364990234,-19.388469696044922,3.4005086421966553
-22.785085678100586,-20.714508056640625,3.4696171283721924
-20.991268157958984,-20.683595657348633,3.3204028606414795
-19.338993072509766,-20.651124954223633,3.1877996921539307
-19.177419662475586,-22.202770233154297,3.3056347370147705
-20.592369079589844,-25.873111724853516,3.725820302963257
-18.91290855407715,-25.82798194885254,3.606912136077881
-19.36376190185547,-28.803543090820312,3.910579204559326
-18.641521453857422,-30.29012680053711,4.007421970367432
-18.11351203918457,-32.268367767333984,4.169428825378418
-20.91081428527832,-41.0308952331543,5.188828468322754
-21.227535247802734,-46.146087646484375,5.723153591156006
-19.059795379638672,-46.241390228271484,5.635384559631348
-18.8685245513916,-51.565425872802734,6.186768054962158
-16.287870407104492,-50.74288558959961,6.004672050476074
-13.865691184997559,-50.019229888916016,5.848348617553711
-11.552181243896484,-49.285701751708984,5.703672885894775
-9.338422775268555,-48.542667388916016,5.569736003875732
-7.231917381286621,-47.892024993896484,5.457313060760498
-5.190457344055176,-47.12921142578125,5.342294692993164
-3.2274467945098877,-46.35749053955078,5.235879898071289
-1.3370126485824585,-45.576900482177734,5.13749361038208
0.4861844778060913,-44.787357330322266,5.046622276306152
2.246960401535034,-43.98879623413086,4.962810039520264
3.949819326400757,-43.18097686767578,4.885641098022461
5.5988054275512695,-42.36368942260742,4.814747333526611
6.677396774291992,-38.534217834472656,4.4064717292785645
8.117802619934082,-37.759708404541016,4.35170841217041
9.75574016571045,-37.898956298828125,4.409400463104248
11.442081451416016,-38.0477294921875,4.476611614227295
13.156410217285156,-38.12282943725586,4.544012069702148
14.551071166992188,-37.24067306518555,4.504946231842041
15.912633895874023,-36.34589385986328,4.470480918884277
15.531229972839355,-31.919218063354492,3.999582052230835
16.420778274536133,-30.562030792236328,3.909085273742676
8.723987579345703,-14.780281066894531,1.933794379234314
9.249598503112793,-14.323307037353516,1.9211069345474243
15.363227844238281,-21.81468963623047,3.0062990188598633
15.355493545532227,-20.042236328125,2.8448166847229004
16.474348068237305,-19.80121421813965,2.9022672176361084
16.450542449951172,-18.230310440063477,2.766723871231079
16.430225372314453,-16.798803329467773,2.6475794315338135
16.411958694458008,-15.483847618103027,2.54227352142334
14.66439151763916,-12.761502265930176,2.190324544906616
9.118597030639648,-7.312889575958252,1.3170078992843628
9.298917770385742,-6.862396717071533,1.3021527528762817
16.50581932067871,-11.18547534942627,2.246568202972412
17.68153190612793,-10.972427368164062,2.3446574211120605
13.190018653869629,-7.468562602996826,1.7078629732131958
20.365907669067383,-10.474530220031738,2.5803990364074707
21.917165756225586,-10.180716514587402,2.7228879928588867
17.588605880737305,-7.326122283935547,2.1467998027801514
38.759586334228516,-14.345893859863281,4.6566877365112305
39.77684783935547,-12.930841445922852,4.712640762329102
40.78909683227539,-11.470141410827637,4.774078369140625
41.22417068481445,-9.82405948638916,4.774923801422119
41.23652648925781,-8.091631889343262,4.734847545623779
40.0478630065918,-6.199428081512451,4.5660552978515625
44.35845184326172,-5.051907539367676,5.030305862426758
45.34674835205078,-3.3261468410491943,5.123081207275391
46.798561096191406,-1.5466183423995972,5.275810718536377
47.79607391357422,0.3415318727493286,5.385461330413818
48.79423141479492,2.311023712158203,5.5039520263671875
49.7936897277832,4.368556499481201,5.631951808929443
47.56834030151367,6.107236385345459,5.403660297393799
51.285282135009766,8.691136360168457,5.860852241516113
52.8062629699707,11.147869110107422,6.080962181091309
53.81725311279297,13.64069938659668,6.255485534667969
54.798622131347656,16.258193969726562,6.4403395652771
55.85293960571289,19.043628692626953,6.648862838745117
56.87881088256836,21.98145294189453,6.870636463165283
57.910736083984375,25.098417282104492,7.11142635345459
39.860557556152344,19.212791442871094,4.98569393157959
36.16815948486328,19.260364532470703,4.616976261138916
33.9327392578125,19.859338760375977,4.429960250854492
31.857524871826172,20.405723571777344,4.262695789337158
29.92069435119629,20.906408309936523,4.112680912017822
28.10398292541504,21.36712646484375,3.9778316020965576
26.41347885131836,21.810436248779297,3.8595502376556396
24.791799545288086,22.205230712890625,3.7500064373016357
23.250579833984375,22.572370529174805,3.651198148727417
21.780120849609375,22.914827346801758,3.5620763301849365
20.372695922851562,23.2359561920166,3.481860637664795
20.388286590576172,25.23031234741211,3.654932737350464
20.43936538696289,27.482572555541992,3.8590457439422607
20.37836456298828,29.832494735717773,4.070687294006348
20.45973777770996,32.69863510131836,4.34602689743042
19.16220474243164,33.550987243652344,4.353407859802246
8.760643005371094,16.879331588745117,2.1427435874938965
28.58028793334961,60.93540573120117,7.583448886871338
25.658254623413086,60.96245193481445,7.452416896820068
22.830530166625977,60.98734664916992,7.337327480316162
21.468093872070312,65.21477508544922,7.735838890075684
21.47137451171875,75.28204345703125,8.820504188537598
18.30161476135254,75.55416870117188,8.75910758972168
15.256307601928711,76.2511978149414,8.761724472045898
-27.79863929748535,94.98625183105469,11.151293754577637
-20.588104248046875,61.12372970581055,7.267171859741211
-22.741657257080078,59.50113296508789,7.177163124084473
-25.605224609375,59.68587875366211,7.3177080154418945
-27.885229110717773,58.40607833862305,7.2923479080200195
-31.682252883911133,60.030277252197266,7.6479926109313965
-20.477920532226562,35.28926086425781,4.597110271453857
-20.655601501464844,32.51250457763672,4.340056896209717
-21.685274124145508,31.281875610351562,4.288695335388184
-23.653989791870117,31.352540969848633,4.4251861572265625
-25.747180938720703,31.417673110961914,4.576782703399658
-10.66811466217041,12.000056266784668,1.8091298341751099
-11.00604248046875,11.421188354492188,1.7871248722076416
-32.89081573486328,31.49518585205078,5.130954265594482
-33.890113830566406,29.937053680419922,5.094970226287842
-30.68352699279785,24.983642578125,4.458294868469238
-30.684593200683594,22.998050689697266,4.320615291595459
-16.583993911743164,11.41886043548584,2.2686688899993896
-33.46866226196289,21.11471176147461,4.4587531089782715
-36.62278366088867,21.09713363647461,4.762106895446777
-21.887001037597656,11.46292781829834,2.7838194370269775
-66.64800262451172,25.231708526611328,8.029555320739746
-75.19269561767578,25.062124252319336,8.930390357971191
-38.85178756713867,11.236976623535156,4.556960105895996
-79.89765167236328,19.667659759521484,9.271037101745605
-55.40885925292969,11.300115585327148,6.371588706970215
-95.05054473876953,11.540022850036621,10.78826904296875
-38.35603332519531,11.53182601928711,4.850208759307861
-44.04157257080078,11.333581924438477,5.507094383239746
-78.77349090576172,16.92930030822754,9.757089614868164
-65.8422622680664,11.404619216918945,8.092066764831543
-93.97953796386719,-10.35704231262207,11.449605941772461
-92.88710021972656,-14.033191680908203,11.376053810119629
-93.07382202148438,-17.912113189697266,11.477846145629883
-68.57205963134766,-16.077919006347656,8.52911376953125
-65.21945190429688,-18.084381103515625,8.195923805236816
-65.19268035888672,-20.931251525878906,8.291609764099121
-65.1639404296875,-23.84968376159668,8.403119087219238
-60.318965911865234,-24.867420196533203,7.900881290435791
-54.689842224121094,-25.16246223449707,7.290164947509766
-54.65977096557617,-27.861520767211914,7.429469108581543
-23.66464614868164,-13.286131858825684,3.286494731903076
-21.58950424194336,-13.289013862609863,3.070021629333496
-19.761754989624023,-13.287281036376953,2.883749008178711
-19.350563049316406,-14.171844482421875,2.904541254043579
-22.976654052734375,-18.28976821899414,3.5563197135925293
-22.734359741210938,-19.639404296875,3.6380879878997803
-21.891019821166992,-20.503042221069336,3.6321051120758057
-20.17708969116211,-20.48012924194336,3.4815335273742676
-19.636770248413086,-21.602706909179688,3.535304069519043
-18.99574851989746,-22.6635799407959,3.581045150756836
-19.768985748291016,-25.609256744384766,3.9177422523498535
-19.3596248626709,-27.277944564819336,4.050678253173828
-19.321809768676758,-29.68287467956543,4.28898811340332
-17.856443405151367,-30.002674102783203,4.228049278259277
-18.066219329833984,-33.33314514160156,4.59132194519043
-20.170167922973633,-41.07254409790039,5.541179656982422
-20.451181411743164,-46.2536506652832,6.124299049377441
-16.911052703857422,-42.82052230834961,5.575202465057373
-15.272011756896973,-43.73657989501953,5.610001087188721
-14.724095344543457,-48.32314682006836,6.117441177368164
-12.458334922790527,-47.67881393432617,5.967645645141602
-10.287713050842285,-47.0199089050293,5.828697204589844
-8.222491264343262,-46.44569396972656,5.711923599243164
-6.216923713684082,-45.75833511352539,5.592137813568115
-4.286881446838379,-45.05824661254883,5.481088161468506
-2.426975965499878,-44.345802307128906,5.37821102142334
-0.6322009563446045,-43.62127685546875,5.282989025115967
1.1019525527954102,-42.88483428955078,5.194967269897461
2.779625415802002,-42.136566162109375,5.113730430603027
4.4046430587768555,-41.37648010253906,5.038906097412109
5.918213844299316,-40.181556701660156,4.918390274047852
7.152675151824951,-37.92376708984375,4.673449993133545
8.775368690490723,-38.06134033203125,4.730062484741211
10.44418716430664,-38.215797424316406,4.7975616455078125
11.853331565856934,-37.394447326660156,4.750433444976807
13.227203369140625,-36.55995178222656,4.7081732749938965
14.568011283874512,-35.71188735961914,4.670614242553711
15.599262237548828,-34.23844528198242,4.556249141693115
15.541053771972656,-30.770586013793945,4.1745405197143555
16.66718292236328,-29.946443557739258,4.150285243988037
8.845610618591309,-14.490825653076172,2.0559122562408447
9.632487297058105,-14.441475868225098,2.1021554470062256
15.374713897705078,-21.15715789794922,3.1671321392059326
15.649967193603516,-19.81073760986328,3.057295799255371
16.48675537109375,-19.228612899780273,3.0672686100006104
16.46397590637207,-17.709720611572266,2.92820143699646
16.44251823425293,-16.319841384887695,2.8054282665252686
16.42416763305664,-15.0411376953125,2.696943521499634
15.178451538085938,-12.818155288696289,2.4058258533477783
9.12529182434082,-7.098405838012695,1.4000186920166016
16.074851989746094,-11.498488426208496,2.393376111984253
16.743846893310547,-10.987875938415527,2.4252514839172363
17.934213638305664,-10.764021873474121,2.532940149307251
13.121274948120117,-7.174684524536133,1.810983419418335
20.657001495361328,-10.239620208740234,2.7919836044311523
22.23360252380371,-9.929394721984863,2.9487385749816895
17.85470962524414,-7.128001689910889,2.328097343444824
37.81297302246094,-13.361127853393555,4.856508255004883
24.20974349975586,-7.474966526031494,3.068307399749756
39.73551559448242,-10.54033374786377,4.97828483581543
40.68684387207031,-9.060321807861328,5.04775857925415
38.4682731628418,-6.957451343536377,4.733996868133545
42.14986801147461,-5.885962963104248,5.153777599334717
43.07547378540039,-4.259507179260254,5.241780757904053
44.15929412841797,-2.581071376800537,5.356716156005859
45.363121032714844,-0.8257681131362915,5.4942779541015625
46.285064697265625,1.017526388168335,5.606368541717529
47.20329666137695,2.9380438327789307,5.727270603179932
48.11802673339844,4.941855430603027,5.857629776000977
48.54311752319336,6.965871334075928,5.938670635223389
49.44221878051758,9.135345458984375,6.088680744171143
50.84242248535156,11.523728370666504,6.313052654266357
51.743995666503906,13.935345649719238,6.489322662353516
52.61294174194336,16.462812423706055,6.675925254821777
53.50679397583008,19.134363174438477,6.881394386291504
54.39646530151367,21.955089569091797,7.103596210479736
55.28142547607422,24.9394474029541,7.344163417816162
38.2851448059082,19.158491134643555,5.184337139129639
34.7499885559082,19.172229766845703,4.806121826171875
32.63264083862305,19.754154205322266,4.61939001083374
30.659927368164062,20.28632164001465,4.451993465423584
28.812633514404297,20.775043487548828,4.301559925079346
27.0745792388916,21.225603103637695,4.166109561920166
25.452743530273438,21.66010856628418,4.047275066375732
23.89267921447754,22.047380447387695,3.9369730949401855
22.40635871887207,22.407958984375,3.837404251098633
20.984987258911133,22.74462127685547,3.7475502490997314
20.10584259033203,23.6297550201416,3.757171869277954
20.143341064453125,25.697837829589844,3.95404314994812
20.17865753173828,27.989734649658203,4.17849063873291
20.118152618408203,30.41050910949707,4.4155659675598145
19.96603012084961,32.98798370361328,4.66948938369751
9.192109107971191,16.663671493530273,2.304589033126831
16.796112060546875,33.57032775878906,4.545723915100098
27.462316513061523,60.8852424621582,8.088371276855469
24.579946517944336,60.912445068359375,7.954281806945801
21.786697387695312,60.93745040893555,7.836834907531738
21.542377471923828,68.86384582519531,8.737768173217773
20.411026000976562,75.81084442138672,9.507433891296387
17.182701110839844,75.83491516113281,9.416211128234863
10.252952575683594,55.513038635253906,6.836198329925537
3.414194107055664,54.916019439697266,6.663042068481445
-11.555846214294434,43.55118179321289,5.45644474029541
-26.727622985839844,86.54285430908203,10.968552589416504
-20.74243927001953,58.68910598754883,7.537944316864014
-23.504810333251953,58.864227294921875,7.675602436065674
-26.367355346679688,59.02967834472656,7.829073905944824
-27.91490364074707,56.3043098449707,7.61030912399292
-32.44716262817383,59.33024215698242,8.189009666442871
-20.617549896240234,34.34580993652344,4.85104513168335
-20.21805763244629,30.804424285888672,4.462055683135986
-22.080989837646484,30.86446762084961,4.595630645751953
-24.053974151611328,30.917814254760742,4.743730068206787
-8.141090393066406,9.638773918151855,1.5278640985488892
-10.656070709228516,11.634227752685547,1.9105321168899536
-30.72740936279297,30.9539737701416,5.2817487716674805
-33.356285095214844,31.005464553833008,5.51490592956543
-33.35816192626953,28.597429275512695,5.3208327293396
-30.65251350402832,24.21110725402832,4.730185031890869
-16.168222427368164,11.747551918029785,2.4201815128326416
-31.0162296295166,20.684667587280273,4.51462459564209
-33.829750061035156,20.64734649658203,4.7994489669799805
-37.00758361816406,20.593732833862305,5.128688812255859
-66.41736602783203,27.088132858276367,8.686200141906738
-32.88081359863281,11.893424987792969,4.23426628112793
-75.93205261230469,24.06296157836914,9.645867347717285
-79.18527221679688,21.634754180908203,9.940613746643066
-78.89715576171875,18.18448829650879,9.804747581481934
-60.33367919921875,11.374873161315918,7.434980869293213
-77.85675048828125,-10.583601951599121,9.514983177185059
-53.6582145690918,-9.503325462341309,6.599007606506348
-73.65740203857422,-16.12129783630371,9.130882263183594
-65.22886657714844,-17.049022674560547,8.164420127868652
-65.20278930664062,-19.87238883972168,8.254486083984375
-65.17479705810547,-22.763015747070312,8.360045433044434
-62.7884635925293,-24.80217933654785,8.175246238708496
-56.44475555419922,-24.962026596069336,7.473905563354492
-54.671138763427734,-26.85304832458496,7.376047611236572
-24.504961013793945,-13.283698081970215,3.3754541873931885
-22.324003219604492,-13.288535118103027,3.1460843086242676
-20.41098403930664,-13.28840160369873,2.9493918418884277
-19.552879333496094,-13.879096031188965,2.903679370880127
-23.085168838500977,-17.82312774658203,3.5317955017089844
-22.851444244384766,-19.155988693237305,3.610945224761963
-22.54383659362793,-20.49518585205078,3.6895604133605957
-20.793663024902344,-20.4888858795166,3.5350794792175293
-19.16413688659668,-20.46440887451172,3.395179033279419
-19.45194435119629,-22.52060317993164,3.6036593914031982
-20.39741325378418,-25.628150939941406,3.9664924144744873
-19.372400283813477,-26.455488204956055,3.9707889556884766
-19.336353302001953,-28.76277732849121,4.1970295906066895
-18.478004455566406,-30.024417877197266,4.2692742347717285
-18.084423065185547,-32.21651840209961,4.473983287811279
-20.93264389038086,-41.07373046875,5.582625389099121
-21.24925422668457,-46.19333267211914,6.157378196716309
-17.66123390197754,-42.84830856323242,5.6123199462890625
-15.857044219970703,-43.33544158935547,5.588111877441406
-15.586286544799805,-48.55717849731445,6.175663471221924
-13.283346176147461,-47.91844177246094,6.021640300750732
-11.0784912109375,-47.26482009887695,5.878784656524658
-8.983200073242188,-46.696144104003906,5.758481502532959
-6.948267936706543,-46.013607025146484,5.635313034057617
-4.991000175476074,-45.31817626953125,5.521106243133545
-3.1057896614074707,-44.6102409362793,5.415274143218994
-1.2875339984893799,-43.890167236328125,5.317282676696777
0.4685004949569702,-43.15810012817383,5.226654529571533
2.1665356159210205,-42.414207458496094,5.142958164215088
3.8105485439300537,-41.65850067138672,5.065808296203613
5.347877502441406,-40.46500015258789,4.942826747894287
6.950710296630859,-40.111419677734375,4.929789066314697
8.171504020690918,-38.00947952270508,4.708032608032227
9.82112979888916,-38.15298843383789,4.7708587646484375
11.337274551391602,-37.699214935302734,4.767257213592529
12.723919868469238,-36.86960220336914,4.723222732543945
14.076701164245605,-36.026607513427734,4.683943748474121
15.390775680541992,-35.153926849365234,4.6471781730651855
15.561290740966797,-31.980993270874023,4.3069562911987305
16.43819808959961,-30.594459533691406,4.205831050872803
8.711653709411621,-14.759384155273438,2.0754480361938477
9.237554550170898,-14.304652214050293,2.0620598793029785
15.38558292388916,-21.8464298248291,3.2357850074768066
15.228212356567383,-19.8761043548584,3.032184362411499
16.38619613647461,-19.695249557495117,3.1025843620300293
16.47208595275879,-18.254179000854492,2.9774858951568604
16.44978904724121,-16.818803787231445,2.8489315509796143
16.43072509765625,-15.501546859741211,2.735485315322876
14.748711585998535,-12.83487606048584,2.367631673812866
9.12829875946045,-7.320669174194336,1.4169883728027344
9.313716888427734,-6.873318672180176,1.4017443656921387
16.281545639038086,-11.033500671386719,2.3817391395568848
17.483095169067383,-10.849286079406738,2.4916882514953613
13.196463584899902,-7.472210884094238,1.836459755897522
20.114646911621094,-10.345301628112793,2.7391231060028076
21.632030487060547,-10.048270225524902,2.8884084224700928
17.597797393798828,-7.329950332641602,2.308526039123535
37.45488739013672,-13.862993240356445,4.836403846740723
38.4223747253418,-12.490514755249023,4.8925347328186035
39.382659912109375,-11.074640274047852,4.954118251800537
40.33633041381836,-9.612471580505371,5.021411895751953
41.283843994140625,-8.10091495513916,5.094712734222412
38.605594635009766,-5.976165294647217,4.730729579925537
42.73429489135742,-4.8669352531433105,5.208476543426514
43.65693664550781,-3.2021994590759277,5.300954818725586
45.021759033203125,-1.4878976345062256,5.455006122589111
45.94514083862305,0.32830584049224854,5.563990592956543
46.864715576171875,2.219636917114258,5.6815690994262695
47.78070831298828,4.191952228546143,5.808358669281006
48.21031188964844,6.189642429351807,5.886078357696533
49.1106071472168,8.322603225708008,6.031975746154785
46.34686279296875,9.78421688079834,5.736197471618652
51.411502838134766,13.030930519104004,6.422670364379883
52.281951904296875,15.511517524719238,6.603997230529785
53.177223205566406,18.13131332397461,6.803664207458496
54.068504333496094,20.895368576049805,7.019505977630615
54.95528030395508,23.81752586364746,7.253089904785156
55.86777877807617,26.92827033996582,7.51033878326416
35.57278823852539,18.943317413330078,4.880509853363037
33.39643096923828,19.54546356201172,4.685941696166992
31.37274742126465,20.095203399658203,4.511707305908203
29.481170654296875,20.599302291870117,4.355260372161865
27.704486846923828,21.063400268554688,4.214486122131348
26.049318313598633,21.50974464416504,4.090944290161133
24.45958137512207,21.90766716003418,3.9763872623443604
22.947118759155273,22.27775764465332,3.87298321723938
21.502702713012695,22.62294578552246,3.7796518802642822
20.13612174987793,22.96613883972168,3.698749303817749
20.129737854003906,24.910362243652344,3.878401279449463
20.1658878326416,27.11485481262207,4.092095375061035
20.09564971923828,29.418622970581055,4.314361095428467
20.156978607177734,32.21476364135742,4.601863384246826
18.94961929321289,33.17878723144531,4.627010345458984
8.782682418823242,16.92179298400879,2.3087525367736816
15.893545150756836,33.886260986328125,4.532489776611328
25.63310432434082,60.902671813964844,8.001789093017578
22.808483123779297,60.928462982177734,7.8783345222473145
21.447444915771484,65.15201568603516,8.306260108947754
21.536428451538086,75.51012420654297,9.508747100830078
18.36751365661621,75.8262710571289,9.447935104370117
15.144721984863281,75.6934814453125,9.347972869873047
-26.663372039794922,91.10713958740234,11.495635032653809
-20.536579132080078,60.97073745727539,7.7909979820251465
-22.473939895629883,58.80070495605469,7.6230034828186035
-25.2979793548584,58.96968460083008,7.770483016967773
-27.25102424621582,57.07770538330078,7.6593499183654785
-31.285120010375977,59.27783966064453,8.116814613342285
-20.61297607421875,35.52199935913086,4.9734272956848145
-20.62464141845703,32.46377182006836,4.657576084136963
-21.38106918334961,30.84305191040039,4.544704437255859
-23.311767578125,30.898929595947266,4.687252521514893
-25.36209487915039,30.94778060913086,4.845423221588135
-10.655191421508789,11.985515594482422,1.942044734954834
-10.992202758789062,11.406824111938477,1.918333888053894
-32.35987854003906,30.986772537231445,5.425583839416504
-33.39433670043945,29.499101638793945,5.395819664001465
-30.65165901184082,24.957691192626953,4.786669731140137
-30.653705596923828,22.974891662597656,4.638998031616211
-16.562707901000977,11.404203414916992,2.435171365737915
-32.752445220947266,20.662858963012695,4.689586639404297
-35.78696060180664,20.61563491821289,5.0013651847839355
-21.859298706054688,11.448416709899902,2.988180637359619
-66.41374969482422,25.143022537231445,8.599601745605469
-72.5314712524414,24.175127029418945,9.258427619934082
-38.791988372802734,11.219682693481445,4.890152931213379
-79.01927947998047,19.45144271850586,9.854702949523926
-54.896820068359375,11.19568920135498,6.784716606140137
-38.3352165222168,11.525558471679688,5.185497760772705
-43.979881286621094,11.317712783813477,5.882739067077637
-41.90215301513672,9.005236625671387,5.551910877227783
-65.85065460205078,11.406070709228516,8.657261848449707
-93.0208969116211,-10.251395225524902,12.122820854187012
-93.00231170654297,-14.050596237182617,12.184165000915527
-92.99761962890625,-17.897445678710938,12.267909049987793
-68.86099243164062,-16.14566421508789,9.162118911743164
-65.16508483886719,-18.069299697875977,8.75994873046875
-65.13770294189453,-20.913602828979492,8.86213493347168
-64.40843963623047,-23.573192596435547,8.884678840637207
-57.86913299560547,-23.857439041137695,8.108386039733887
-54.64156723022461,-25.14025115966797,7.791475296020508
-54.6106071472168,-27.836462020874023,7.940225124359131
-23.296863555908203,-13.0796480178833,3.4609575271606445
-21.2757511138916,-13.095890998840332,3.236304521560669
-19.539152145385742,-13.137602806091309,3.050025224685669
-19.52789306640625,-14.301711082458496,3.135486125946045
-22.718303680419922,-18.084123611450195,3.761453628540039
-22.462446212768555,-19.404518127441406,3.8451504707336426
-21.680889129638672,-20.30623435974121,3.8480026721954346
-19.991374969482422,-20.291622161865234,3.6899499893188477
-19.613561630249023,-21.577173233032227,3.7772789001464844
-19.209590911865234,-22.91870880126953,3.8738009929656982
-19.58547019958496,-25.371524810791016,4.151942253112793
-19.333160400390625,-27.24066162109375,4.327125549316406
-19.29384422302246,-29.63991928100586,4.5813307762146
-17.702335357666016,-29.743751525878906,4.48375129699707
-18.10525894165039,-33.40517807006836,4.921993732452393
-20.191129684448242,-41.115234375,5.933615207672119
-18.980327606201172,-42.92709732055664,6.080056667327881
-16.855064392089844,-42.67876052856445,5.9441022872924805
-15.129860877990723,-43.3294677734375,5.945211887359619
-14.120402336120605,-46.34185791015625,6.27557897567749
-11.959527015686035,-45.769901275634766,6.128060817718506
-9.885039329528809,-45.17948532104492,5.990963935852051
-7.90749979019165,-44.66640090942383,5.876026630401611
-5.983553409576416,-44.04075241088867,5.757423400878906
-4.1290388107299805,-43.39929962158203,5.6473002433776855
-2.339235305786133,-42.74263000488281,5.545135974884033
-0.6097378730773926,-42.07122039794922,5.450448513031006
1.063429355621338,-41.38543701171875,5.362811088562012
2.6839098930358887,-40.685585021972656,5.28183650970459
4.210788726806641,-39.55544662475586,5.1529364585876465
5.719958305358887,-38.835445404052734,5.084990501403809
7.200045108795166,-38.174930572509766,5.032344818115234
8.703052520751953,-37.74769592285156,5.018091678619385
10.10605525970459,-36.97856521606445,4.965845584869385
11.473224639892578,-36.19530487060547,4.918631076812744
12.806693077087402,-35.397682189941406,4.876263618469238
14.102105140686035,-34.56977462768555,4.836413860321045
15.373432159423828,-33.74277877807617,4.8033037185668945
15.57032299041748,-30.828540802001953,4.473953723907471
16.696186065673828,-29.998538970947266,4.447322368621826
8.852972984313965,-14.502881050109863,2.201058864593506
9.63875675201416,-14.450875282287598,2.250159740447998
15.396686553955078,-21.187402725219727,3.3927552700042725
15.547491073608398,-19.68102264404297,3.249006986618042
16.50796127319336,-19.253341674804688,3.285306215286255
16.484189987182617,-17.731460571289062,3.1361687183380127
16.46185874938965,-16.33904266357422,3.004523754119873
14.706686019897461,-13.468274116516113,2.5832653045654297
15.195002555847168,-12.832132339477539,2.576341152191162
9.13491439819336,-7.105889320373535,1.4991925954818726
15.910082817077637,-11.380626678466797,2.5339739322662354
16.562562942504883,-10.868910789489746,2.56622576713562
17.73151206970215,-10.642363548278809,2.678886890411377
13.140295028686523,-7.185083389282227,1.9400333166122437
20.399948120117188,-10.112201690673828,2.9494450092315674
21.941598892211914,-9.798988342285156,3.112867593765259
17.88451385498047,-7.139899253845215,2.4945449829101562
36.57421875,-12.92341423034668,5.0248637199401855
24.21855926513672,-7.477687358856201,3.2833917140960693
38.40224075317383,-10.186667442321777,5.146632671356201
39.303245544433594,-8.752211570739746,5.216014385223389
37.98719787597656,-6.870443344116211,5.000672340393066
40.67332458496094,-5.679771900177002,5.319916725158691
41.54164505004883,-4.107836723327637,5.407522201538086
42.82719802856445,-2.503211736679077,5.557275772094727
43.6890754699707,-0.7952943444252014,5.660391330718994
44.54345703125,0.9792389869689941,5.771523475646973
45.390316009521484,2.825199604034424,5.891207695007324
46.22948455810547,4.747896194458008,6.020035743713379
46.59401321411133,6.6861796379089355,6.09758186340332
47.408935546875,8.759659767150879,6.245272159576416
48.69834518432617,11.037755012512207,6.468351364135742
49.50361251831055,13.331976890563965,6.6411333084106445
50.2711181640625,15.730047225952148,6.8234381675720215
52.054412841796875,18.614986419677734,7.161283016204834
52.75324249267578,21.2918643951416,7.369235038757324
52.75008773803711,23.79747200012207,7.496386528015137
53.3308219909668,26.68758773803711,7.725153923034668
34.19457244873047,18.86578941345215,5.058981418609619
32.131011962890625,19.450496673583984,4.865445613861084
30.20545196533203,19.98561668395996,4.691745758056641
28.399761199951172,20.477354049682617,4.535482883453369
26.698665618896484,20.930898666381836,4.394651412963867
25.10956573486328,21.368072509765625,4.271036148071289
23.57920265197754,21.758119583129883,4.156162738800049
22.11972427368164,22.121305465698242,4.052395343780518
20.722736358642578,22.460391998291016,3.9586942195892334
19.861358642578125,23.34242057800293,3.9702093601226807
19.88572883605957,25.369199752807617,4.175585746765137
19.906143188476562,27.61172866821289,4.4094038009643555
19.835939407348633,29.983911514282227,4.657114505767822
19.744537353515625,32.62202835083008,4.9395833015441895
9.182624816894531,16.64647674560547,2.4626965522766113
16.61467170715332,33.207679748535156,4.810075283050537
27.435060501098633,60.8248291015625,8.643621444702148
24.55596160888672,60.85300827026367,8.500467300415039
21.765748977661133,60.87886428833008,8.375076293945312
21.602529525756836,69.05609130859375,9.372965812683105
19.62375259399414,72.88674926757812,9.777917861938477
17.166732788085938,75.76443481445312,10.063251495361328
10.252203941345215,55.50896072387695,7.3122053146362305
3.4110891819000244,54.86610412597656,7.12103796005249
-11.549565315246582,43.52754592895508,5.833641052246094
-23.699542999267578,76.73802185058594,10.403861999511719
-20.48904037475586,57.972129821777344,7.9648966789245605
-23.228919982910156,58.17331314086914,8.11429500579834
-26.043190002441406,58.303955078125,8.271872520446777
-27.886606216430664,56.24724578857422,8.132567405700684
-32.04116439819336,58.58787536621094,8.650248527526855
-20.58534812927246,34.29219055175781,5.181106090545654
-20.598169326782227,31.38356590270996,4.862842082977295
-21.771530151367188,30.431915283203125,4.847092628479004
-23.706165313720703,30.470754623413086,5.001039505004883
-8.131423950195312,9.627331733703613,1.6324297189712524
-10.643360137939453,11.620346069335938,2.0412757396698
-30.308095932006836,30.531551361083984,5.572835922241211
-32.816734313964844,30.503938674926758,5.803921222686768
-30.3160457611084,25.98946762084961,5.172685146331787
-30.62101936340332,24.186237335205078,5.054725170135498
-16.161273956298828,11.742497444152832,2.587777853012085
-30.330047607421875,20.227031707763672,4.722495079040527
-33.10329055786133,20.203960418701172,5.023767471313477
-36.159610748291016,20.12185287475586,5.360496997833252
-66.35952758789062,27.06454849243164,9.28361988067627
-32.852622985839844,11.88322639465332,4.525550842285156
-73.22650146484375,23.20557975769043,9.950624465942383
-78.32884979248047,21.40076446533203,10.518558502197266
-78.04180908203125,17.98734474182129,10.374529838562012
-60.341529846191406,11.376352310180664,7.9543046951293945
-77.86982727050781,-10.585378646850586,10.179977416992188
-53.65403366088867,-9.502584457397461,7.058468818664551
-73.98976135253906,-16.194042205810547,9.811464309692383
-65.17469787597656,-17.03485679626465,8.726302146911621
-65.14804077148438,-19.855697631835938,8.822488784790039
-65.11936950683594,-22.7436580657959,8.935214042663574
-60.15351867675781,-23.76133918762207,8.378143310546875
-54.65242004394531,-24.16937828063965,7.741037368774414
-54.622318267822266,-26.829069137573242,7.883182525634766
-24.113981246948242,-13.071756362915039,3.5531442165374756
-21.991676330566406,-13.090707778930664,3.3152966499328613
-20.125852584838867,-13.102771759033203,3.1109201908111572
-19.533708572387695,-13.865489959716797,3.1030476093292236
-19.029319763183594,-14.691767692565918,3.114236354827881
-22.58014678955078,-18.928558349609375,3.8168041706085205
-22.255069732666016,-20.232656478881836,3.896202802658081
-20.59934425354004,-20.29742431640625,3.746168613433838
-19.008258819580078,-20.297948837280273,3.6023125648498535
-19.735013961791992,-22.848339080810547,3.9109652042388916
-20.205730438232422,-25.387310028076172,4.203120708465576
-19.3464412689209,-26.420024871826172,4.2418975830078125
-19.3089656829834,-28.722034454345703,4.483241558074951
-18.317001342773438,-29.762798309326172,4.527092933654785
-18.055370330810547,-32.16477584838867,4.778172492980957
-20.954570770263672,-41.11674118041992,5.978041172027588
-21.271080017089844,-46.24076843261719,6.593369483947754
-17.607105255126953,-42.717002868652344,5.9851531982421875
-15.65733528137207,-42.78966522216797,5.902370929718018
-14.941402435302734,-46.548126220703125,6.332834720611572
-12.746895790100098,-45.98326873779297,6.181270122528076
-10.641276359558105,-45.3995361328125,6.040414333343506
-8.636366844177246,-44.89324188232422,5.92207145690918
-6.68552827835083,-44.27362060546875,5.800195217132568
-4.805948257446289,-43.63792419433594,5.687004566192627
-2.9927611351013184,-42.98680114746094,5.581958293914795
-1.2415075302124023,-42.32079315185547,5.484564781188965
0.45202022790908813,-41.64027786254883,5.394371032714844
2.09151291847229,-40.94560241699219,5.310981273651123
3.6421852111816406,-39.81783676147461,5.179507732391357
5.167864799499512,-39.102874755859375,5.109404563903809
6.649690628051758,-38.37427520751953,5.0450592041015625
8.175516128540039,-38.028141021728516,5.038694858551025
9.592326164245605,-37.264183044433594,4.984539985656738
10.972472190856934,-36.48616027832031,4.935489654541016
12.318161964416504,-35.693851470947266,4.891352653503418
13.625276565551758,-34.87128829956055,4.84977912902832
14.907417297363281,-34.049888610839844,4.815006732940674
15.591529846191406,-32.04314041137695,4.616143226623535
16.45570182800293,-30.62701988220215,4.5038042068481445
8.722661972045898,-14.778035163879395,2.2229301929473877
9.245333671569824,-14.316701889038086,2.207663059234619
15.408047676086426,-21.87833023071289,3.466404438018799
15.102768898010254,-19.712377548217773,3.2168359756469727
16.51746368408203,-19.853038787841797,3.3454489707946777
16.492652893066406,-18.276973724365234,3.1890225410461426
16.470510482788086,-16.839988708496094,3.051366090774536
16.44957160949707,-15.519327163696289,2.929530382156372
15.263641357421875,-13.28299331665039,2.6211061477661133
9.138041496276855,-7.328482151031494,1.517383337020874
9.328596115112305,-6.884297847747803,1.501853346824646
16.106121063232422,-10.914619445800781,2.5203187465667725
17.288679122924805,-10.72864055633545,2.6357421875
13.202924728393555,-7.4758687019348145,1.965441107749939
19.869022369384766,-10.218974113464355,2.8942861557006836
21.353666305541992,-9.918967247009277,3.0499978065490723
17.60702133178711,-7.3337931632995605,2.4707448482513428
36.23276901245117,-13.410655975341797,5.004739284515381
37.154624938964844,-12.078394889831543,5.060912132263184
38.06743240356445,-10.704782485961914,5.12248420715332
38.9715576171875,-9.287236213684082,5.189711093902588
36.94700622558594,-7.2499260902404785,4.877363681793213
38.685123443603516,-5.988476753234863,5.070930480957031
41.22195053100586,-4.694697380065918,5.374380111694336
42.085487365722656,-3.0869362354278564,5.466371536254883
43.37174606323242,-1.4333672523498535,5.621413230895996
44.22890853881836,0.316042423248291,5.729526996612549
45.07854461669922,2.1350386142730713,5.845989227294922
45.92057800292969,4.028756618499756,5.971367835998535
46.75478744506836,6.002769947052002,6.106295108795166
47.1090087890625,7.9833984375,6.189477443695068
45.07164764404297,9.515006065368652,5.967231750488281
49.20740509033203,12.472269058227539,6.575850009918213
50.00651168823242,14.836435317993164,6.756886005401611
50.76704788208008,17.309537887573242,6.948080539703369
52.754669189453125,20.38762664794922,7.326370716094971
52.75111770629883,22.862245559692383,7.447512149810791
52.829673767089844,25.463911056518555,7.596995830535889
35.0101432800293,18.643695831298828,5.138152599334717
32.87578582763672,19.240751266479492,4.934451580047607
30.90155792236328,19.793397903442383,4.753731727600098
29.053529739379883,20.300495147705078,4.591282844543457
27.315420150756836,20.76759910583496,4.4449639320373535
25.69437599182129,21.216646194458008,4.316492080688477
24.13549041748047,21.61739730834961,4.1972222328186035
22.650880813598633,21.99015998840332,4.08948278427124
21.231721878051758,22.337846755981445,3.9921765327453613
19.90452003479004,22.70197868347168,3.9110782146453857
19.877164840698242,24.597803115844727,4.096707344055176
19.89910316467285,26.75613784790039,4.3194427490234375
19.916698455810547,29.156627655029297,4.574009895324707
19.862464904785156,31.74407386779785,4.850730895996094
18.741302490234375,32.814022064208984,4.8951416015625
8.804878234863281,16.96454620361328,2.4759349822998047
16.343143463134766,34.84486770629883,4.985602855682373
25.60793685913086,60.84288787841797,8.551186561584473
22.78643035888672,60.86957550048828,8.41938304901123
21.50457763671875,65.32556915283203,8.908951759338379
20.734832763671875,72.6995849609375,9.793001174926758
18.350379943847656,75.75556182861328,10.097124099731445
15.44818115234375,77.2101821899414,10.199983596801758
-22.779911041259766,91.2947769165039,12.188859939575195
-22.432456970214844,76.65027618408203,10.345706939697266
-20.48520851135254,60.81825637817383,8.313261985778809
-22.21195411682129,58.11520767211914,8.059337615966797
-24.997390747070312,58.26907730102539,8.213408470153809
-26.643831253051758,55.80593490600586,8.010720252990723
-29.3919677734375,55.69075012207031,8.157219886779785
-20.579971313476562,35.46511459350586,5.311602592468262
-20.593711853027344,32.415096282958984,4.974783420562744
-21.08470344543457,30.415525436401367,4.794127464294434
-22.978649139404297,30.45738410949707,4.942347049713135
-24.987632751464844,30.490835189819336,5.106665134429932
-10.64227294921875,11.970985412597656,2.0749049186706543
-10.978363990783691,11.39246654510498,2.0494768619537354
-31.84478187561035,30.493539810180664,5.711414813995361
-32.911895751953125,29.072948455810547,5.68857479095459
-30.61979103088379,24.931747436523438,5.115023136138916
-30.622819900512695,22.951749801635742,4.957380771636963
-16.54143524169922,11.38955307006836,2.6015799045562744
-32.06487274169922,20.229082107543945,4.911184787750244
-34.98685073852539,20.154720306396484,5.230393409729004
-21.831607818603516,11.433916091918945,3.192436933517456
-65.91499328613281,28.0308780670166,9.278593063354492
-66.35649108886719,25.121339797973633,9.191144943237305
-70.04736328125,23.347158432006836,9.5646333694458
-38.73225784301758,11.20240592956543,5.222989082336426
-78.1583023071289,19.239503860473633,10.42680835723877
-54.844635009765625,11.18504524230957,7.250775337219238
-89.08841705322266,10.816160202026367,11.62519359588623
-38.32655334472656,11.522956848144531,5.52290153503418
-43.91823959350586,11.301847457885742,6.25814151763916
-41.83094024658203,8.989933967590332,5.904439926147461
-65.85906219482422,11.407529830932617,9.223823547363281
-93.48694610595703,-10.302754402160645,12.979225158691406
-92.92656707763672,-14.039155960083008,12.96930980682373
-92.92137908935547,-17.88277244567871,13.058378219604492
-69.15299987792969,-16.21413230895996,9.801862716674805
-65.11068725585938,-18.054222106933594,9.324247360229492
-65.08269500732422,-20.895936965942383,9.432923316955566
-61.65852737426758,-22.56673240661621,9.060809135437012
-55.605831146240234,-22.924358367919922,8.300089836120605
-54.59328079223633,-25.1180362701416,8.292981147766113
-25.190702438354492,-12.840353965759277,3.901853561401367
-22.939592361450195,-12.87906265258789,3.6304402351379395
-20.970340728759766,-12.907903671264648,3.398169755935669
-19.27189064025879,-12.95789909362793,3.204770565032959
-19.508525848388672,-14.287532806396484,3.336944818496704
-22.46514892578125,-17.882612228393555,3.9624533653259277
-22.196393966674805,-19.174680709838867,4.047750473022461
-21.474323272705078,-20.112762451171875,4.060247898101807
-19.808652877807617,-20.106157302856445,3.895001173019409
-19.595502853393555,-21.557302474975586,4.020257472991943
-20.71256446838379,-24.71190643310547,4.449671745300293
-19.386701583862305,-25.114042282104492,4.378206729888916
-19.306713104248047,-27.203386306762695,4.6034111976623535
-19.223478317260742,-29.531841278076172,4.862727642059326
-17.5819149017334,-29.541406631469727,4.744080066680908
-18.075393676757812,-33.350074768066406,5.234785079956055
-20.212181091308594,-41.15810775756836,6.327712535858154
-18.89403533935547,-42.73190689086914,6.447678565979004
-16.866151809692383,-42.706844329833984,6.336463451385498
-15.136331558227539,-43.34800338745117,6.336188793182373
-13.56309986114502,-44.51284408569336,6.4215617179870605
-11.498183250427246,-44.004276275634766,6.276437282562256
-9.511930465698242,-43.474159240722656,6.141320705413818
-7.615140914916992,-43.01498031616211,6.028335094451904
-5.766634464263916,-42.44413757324219,5.911068916320801
-3.9821054935455322,-41.854949951171875,5.80203104019165
-2.2574515342712402,-41.24821090698242,5.700737476348877
-0.5887722373008728,-40.62452697753906,5.6067399978637695
1.027431607246399,-39.984432220458984,5.519640922546387
2.5943779945373535,-39.3283805847168,5.4390788078308105
4.07224702835083,-38.25397491455078,5.308844566345215
5.534157752990723,-37.573978424072266,5.241116523742676
7.028818607330322,-37.267051696777344,5.233490467071533
8.426770210266113,-36.54936981201172,5.176104545593262
9.788470268249512,-35.81651306152344,5.123904228210449
11.11098575592041,-35.052547454833984,5.07442045211792
12.405683517456055,-34.28927993774414,5.032063961029053
13.669955253601074,-33.51039123535156,4.994376182556152
14.905447006225586,-32.715606689453125,4.961226463317871
15.59976577758789,-30.886850357055664,4.775152206420898
16.725353240966797,-30.05094337463379,4.7460408210754395
8.864607810974121,-14.521943092346191,2.3478856086730957
9.645405769348145,-14.460844039916992,2.3987648487091064
15.418768882751465,-21.21778678894043,3.61950945854187
16.169044494628906,-20.46783447265625,3.5995564460754395
16.529268264770508,-19.27819061279297,3.5043790340423584
16.504499435424805,-17.75330924987793,3.3451004028320312
16.48236083984375,-16.3593807220459,3.204723834991455
14.723372459411621,-13.483558654785156,2.755095958709717
15.211625099182129,-12.846174240112305,2.747598648071289
9.144577980041504,-7.113407135009766,1.598789930343628
15.748312950134277,-11.264908790588379,2.672013759613037
16.333173751831055,-10.718389511108398,2.695957899093628
17.532926559448242,-10.523168563842773,2.8218753337860107
13.159408569335938,-7.1955342292785645,2.0697386264801025
20.148683547973633,-9.98764705657959,3.1033639907836914
21.656566619873047,-9.671693801879883,3.273080587387085
17.91448211669922,-7.151864528656006,2.6619107723236084
35.4116325378418,-12.51262092590332,5.182867050170898
24.22739601135254,-7.480417728424072,3.4990994930267334
37.15291976928711,-9.855269432067871,5.304378032684326
38.00794219970703,-8.463774681091309,5.373531341552734
37.51700973510742,-6.785403251647949,5.261312961578369
39.2938346862793,-5.487136363983154,5.47513484954834
40.11032485961914,-3.966299533843994,5.562187671661377
41.326656341552734,-2.415506362915039,5.712780475616455
42.13095474243164,-0.7669308185577393,5.815000534057617
42.92481231689453,0.9436548948287964,5.925019264221191
43.707942962646484,2.7204856872558594,6.043333530426025
44.479976654052734,4.568216800689697,6.170485973358154
44.791664123535156,6.427545547485352,6.244530200958252
45.53240966796875,8.412939071655273,6.389791011810303
42.945579528808594,9.733848571777344,6.076777935028076
47.444942474365234,12.777546882629395,6.780631065368652
48.1511116027832,15.066695213317871,6.962502479553223
48.813873291015625,17.456144332885742,7.154044151306152
52.80027389526367,21.31084632873535,7.857501983642578
52.79793167114258,23.819053649902344,7.993199348449707
52.79679489135742,26.42035484313965,8.147254943847656
33.83871078491211,18.669456481933594,5.3332839012146
31.643539428710938,19.155405044555664,5.104559421539307
29.763315200805664,19.69307518005371,4.924991130828857
27.997713088989258,20.18745231628418,4.763281345367432
26.35373306274414,20.660478591918945,4.621168613433838
24.774810791015625,21.08319664001465,4.489306926727295
23.273202896118164,21.47574806213379,4.37013053894043
