53.85031509399414,-22.928133010864258,9.070615768432617
54.80191421508789,-20.774471282958984,9.082878112792969
55.72635269165039,-18.60110855102539,9.104801177978516
52.671470642089844,-15.259031295776367,8.49858283996582
51.29179763793945,-12.649911880493164,8.187300682067871
50.010623931884766,-10.222000122070312,7.9108123779296875
48.81412887573242,-7.94962215423584,7.664798736572266
50.72492599487305,-6.181007385253906,7.919417858123779
51.949684143066406,-4.221026420593262,8.077617645263672
53.20111846923828,-2.1767358779907227,8.251925468444824
59.1485710144043,2.335881233215332,9.17389965057373
63.67698287963867,5.082822322845459,9.899949073791504
64.3836669921875,7.752552032470703,10.050149917602539
65.04912567138672,10.498636245727539,10.211660385131836
65.28018951416016,13.246360778808594,10.323201179504395
64.08863830566406,15.709308624267578,10.22638988494873
66.9299545288086,19.286643981933594,10.794771194458008
67.51746368408203,22.43023681640625,11.026062965393066
68.08442687988281,25.69902229309082,11.278264999389648
68.63008880615234,29.1058349609375,11.55316162109375
69.15351867675781,32.66497802734375,11.852766990661621
69.65348052978516,36.39254379272461,12.179394721984863
69.78724670410156,40.11066436767578,12.474674224853516
70.57685852050781,44.4286003112793,12.924664497375488
64.31729888916016,44.1923713684082,12.093961715698242
71.38434600830078,53.39292526245117,13.815291404724121
69.65312194824219,56.60032653808594,13.909395217895508
70.80741882324219,62.42438507080078,14.629250526428223
60.83549880981445,58.13954162597656,13.041378021240234
39.766143798828125,41.18501663208008,8.8725004196167
57.93509292602539,65.03955078125,13.49880599975586
46.37281036376953,66.75438690185547,12.596785545349121
19.548892974853516,57.85068893432617,9.463663101196289
26.414840698242188,89.9301528930664,14.526016235351562
-39.35313415527344,-87.14579010009766,15.633790969848633
-24.769344329833984,-91.83821868896484,15.552118301391602
-6.32551383972168,-61.36857223510742,10.086938858032227
-3.769462823867798,-60.204463958740234,9.862724304199219
-1.3670058250427246,-61.160465240478516,10.002256393432617
1.1175532341003418,-62.65855026245117,10.24632453918457
4.7593207359313965,-81.9439697265625,13.420446395874023
7.91917085647583,-80.38619995117188,13.206787109375
11.223604202270508,-80.58919525146484,13.303529739379883
13.05179500579834,-72.31604766845703,12.014727592468262
16.66286849975586,-74.9569320678711,12.554641723632812
19.065481185913086,-71.98060607910156,12.174680709838867
21.485673904418945,-69.67791748046875,11.921682357788086
23.70073890686035,-67.15312957763672,11.643325805664062
25.79995346069336,-64.69441986083984,11.387662887573242
27.684803009033203,-62.052085876464844,11.109493255615234
29.68874740600586,-59.94810104370117,10.937664031982422
31.494670867919922,-57.648616790771484,10.740458488464355
33.20973205566406,-55.377532958984375,10.557554244995117
34.85227584838867,-53.15204620361328,10.392011642456055
25.633695602416992,-35.86363983154297,7.207536697387695
26.84939193725586,-34.542171478271484,7.15311861038208
28.38054656982422,-33.631492614746094,7.195004463195801
30.115877151489258,-32.90928268432617,7.293631076812744
31.873287200927734,-32.1364631652832,7.400374889373779
33.68809509277344,-31.34145736694336,7.523101806640625
35.569637298583984,-30.520326614379883,7.663069725036621
45.85300827026367,-36.24998474121094,9.556806564331055
47.0086784362793,-34.18716812133789,9.50353717803955
48.125343322753906,-32.12519836425781,9.460541725158691
49.205177307128906,-30.061031341552734,9.427619934082031
48.46989822387695,-27.000032424926758,9.07144546508789
51.26207733154297,-25.914154052734375,9.39144229888916
52.24260711669922,-23.825252532958984,9.388014793395996
53.193233489990234,-21.721981048583984,9.394323348999023
54.115318298339844,-19.601119995117188,9.410396575927734
53.7213020324707,-17.05032730102539,9.215228080749512
52.26323699951172,-14.303869247436523,8.859309196472168
50.914833068847656,-11.758493423461914,8.543703079223633
49.66036605834961,-9.385141372680664,8.263203620910645
49.20604705810547,-7.265806198120117,8.132436752319336
50.38306427001953,-5.382091045379639,8.284515380859375
51.58173370361328,-3.4217123985290527,8.452165603637695
52.80561447143555,-1.3762760162353516,8.636665344238281
56.05056381225586,0.7917633056640625,9.165200233459473
61.93675231933594,3.3668880462646484,10.14162826538086
62.62512969970703,5.935023784637451,10.285102844238281
63.268836975097656,8.572315216064453,10.438989639282227
63.91358184814453,11.290714263916016,10.611686706542969
64.51505279541016,14.090768814086914,10.796889305114746
63.671207427978516,16.612098693847656,10.758747100830078
65.3966064453125,19.900171279907227,11.17645263671875
66.18712615966797,23.084054946899414,11.460894584655762
66.69803619384766,26.312681198120117,11.723071098327637
67.18402862548828,29.676109313964844,12.008502006530762
67.64386749267578,33.188106536865234,12.31922435760498
67.74456024169922,36.68468475341797,12.595987319946289
68.47806549072266,40.721519470214844,13.026248931884766
68.84819030761719,44.78014373779297,13.428264617919922
64.11540222167969,45.468441009521484,12.85133171081543
69.4805908203125,53.594642639160156,14.347034454345703
69.17462921142578,57.936378479003906,14.752901077270508
53.74217987060547,48.81540298461914,11.870565414428711
58.128963470458984,57.226844787597656,13.336947441101074
55.26792526245117,58.96600341796875,13.2137451171875
57.65201187133789,66.68793487548828,14.413126945495605
45.05756378173828,66.95966339111328,13.195782661437988
33.54999542236328,54.461029052734375,10.458404541015625
24.098896026611328,58.39411544799805,10.32855224609375
25.152732849121094,90.58180236816406,15.37053108215332
-7.230660438537598,-61.229034423828125,10.080530166625977
-4.697077751159668,-60.59152603149414,9.936453819274902
-2.279430389404297,-61.27262878417969,10.0250244140625
0.1806337833404541,-60.25738525390625,9.852144241333008
2.8737032413482666,-66.51117706298828,10.884740829467773
6.76880407333374,-81.01083374023438,13.291447639465332
9.979778289794922,-80.36860656738281,13.241212844848633
13.012091636657715,-78.76390838623047,13.052473068237305
15.708937644958496,-75.96926879882812,12.68376350402832
18.170047760009766,-72.95625305175781,12.292753219604492
20.636428833007812,-70.6282958984375,12.0305757522583
22.89692497253418,-68.07726287841797,11.74336051940918
25.03775978088379,-65.594970703125,11.479524612426758
26.963502883911133,-62.92816162109375,11.193482398986816
28.88669204711914,-60.57183074951172,10.972062110900879
30.837890625,-58.49245834350586,10.811246871948242
32.59081268310547,-56.219993591308594,10.6248140335083
34.25310516357422,-53.96759033203125,10.45095443725586
30.881885528564453,-44.590049743652344,8.868237495422363
26.552730560302734,-35.22683334350586,7.212527275085449
27.761241912841797,-33.9056282043457,7.164742946624756
29.479848861694336,-33.18972396850586,7.258051872253418
31.218217849731445,-32.42417907714844,7.359158039093018
33.010807037353516,-31.637800216674805,7.475852966308594
34.86656188964844,-30.826797485351562,7.6092987060546875
45.4002685546875,-36.999629974365234,9.575812339782715
46.58666229248047,-34.9484977722168,9.521998405456543
47.71746826171875,-32.88655471801758,9.475234985351562
48.8106689453125,-30.823543548583984,9.438611030578613
49.868282318115234,-28.756488800048828,9.411977767944336
50.8922233581543,-26.682334899902344,9.395171165466309
51.88417434692383,-24.59796905517578,9.388142585754395
52.84565734863281,-22.5003719329834,9.39085865020752
53.77815246582031,-20.38637351989746,9.403315544128418
54.68284606933594,-18.252803802490234,9.425588607788086
52.787872314453125,-15.292755126953125,8.985718727111816
51.40098190307617,-12.676839828491211,8.655882835388184
50.11348342895508,-10.243024826049805,8.36297607421875
48.911399841308594,-7.965462684631348,8.102377891540527
49.946144104003906,-6.086110591888428,8.226613998413086
51.13643264770508,-4.154945373535156,8.388374328613281
52.35057830810547,-2.141934394836426,8.56649398803711
59.47719192504883,2.3488636016845703,9.732115745544434
62.38214111328125,4.979457855224609,10.231943130493164
63.03361129760742,7.58998966217041,10.380461692810059
63.68608856201172,10.278651237487793,10.547429084777832
64.29547882080078,13.046547889709473,10.72655963897705
64.12911987304688,15.719232559204102,10.79551887512207
63.24476623535156,18.22471046447754,10.76130485534668
65.99240112304688,21.92356300354004,11.369609832763672
66.51220703125,25.10556983947754,11.623669624328613
67.00756072998047,28.417726516723633,11.900284767150879
67.47724151611328,31.873178482055664,12.201411247253418
67.91973114013672,35.4866943359375,12.529273986816406
68.00062561035156,39.08379364013672,12.823701858520508
68.71543884277344,43.25681686401367,13.275739669799805
64.3415298461914,44.20901107788086,12.763778686523438
69.37554931640625,51.890419006347656,14.164811134338379
69.64668273925781,56.595115661621094,14.67287540435791
54.103546142578125,47.698089599609375,11.792779922485352
59.18695831298828,56.564064025878906,13.385668754577637
39.75467300415039,41.17314529418945,9.357682228088379
54.89059829711914,61.62171173095703,13.492704391479492
46.23019790649414,66.54908752441406,13.248579025268555
26.386924743652344,89.83519744873047,15.308586120605469
-39.28900909423828,-87.00381469726562,16.424060821533203
-24.78630828857422,-91.90115356445312,16.37613868713379
-6.34008264541626,-61.51000213623047,10.638577461242676
-3.7744035720825195,-60.28335189819336,10.391782760620117
-1.3577876091003418,-60.74770736694336,10.453974723815918
1.1192646026611328,-62.75432205200195,10.798311233520508
3.9681103229522705,-68.32096862792969,11.774113655090332
7.935739517211914,-80.554443359375,13.926107406616211
10.935708045959473,-78.52214050292969,13.639755249023438
12.97143268585205,-71.87065887451172,12.564786911010742
15.694986343383789,-70.6028823852539,12.44340991973877
18.61589241027832,-70.28321075439453,12.508861541748047
20.98724365234375,-68.06156158447266,12.253738403320312
23.163484573364258,-65.63088989257812,11.97411060333252
25.227678298950195,-63.25938034057617,11.717018127441406
27.08308219909668,-60.70342254638672,11.436033248901367
29.055675506591797,-58.66978073120117,11.263883590698242
30.834936141967773,-56.441001892089844,11.065049171447754
32.52214431762695,-54.23100280761719,10.879326820373535
34.145164489746094,-52.07368087768555,10.713275909423828
25.48968505859375,-35.66215515136719,7.5416154861450195
26.658891677856445,-34.29707336425781,7.473553657531738
28.4659366607666,-33.732688903808594,7.593818187713623
30.17860221862793,-32.97782516479492,7.6908063888549805
31.940649032592773,-32.204376220703125,7.803595066070557
33.76047897338867,-31.408788681030273,7.93328857421875
35.64747619628906,-30.587120056152344,8.081212043762207
44.98080062866211,-35.560455322265625,9.864994049072266
46.13525390625,-33.55196762084961,9.814417839050293
47.23514175415039,-31.530960083007812,9.770837783813477
48.29813003540039,-29.506893157958984,9.737472534179688
49.3260498046875,-27.476940155029297,9.714154243469238
50.32067108154297,-25.438241958618164,9.700783729553223
51.283531188964844,-23.387866973876953,9.697308540344238
52.2160758972168,-21.322952270507812,9.703700065612793
53.11954116821289,-19.240427017211914,9.720003128051758
53.84366989135742,-17.08916664123535,9.718934059143066
52.37766647338867,-14.335184097290039,9.342744827270508
51.022342681884766,-11.783329010009766,9.009206771850586
49.76176834106445,-9.404300689697266,8.712827682495117
48.46842575073242,-7.156890392303467,8.429190635681152
49.6138916015625,-5.299928188323975,8.584405899047852
50.77857208251953,-3.368438720703125,8.755420684814453
51.965736389160156,-1.354384422302246,8.943503379821777
56.15110778808594,0.7931771278381348,9.661504745483398
60.73256301879883,3.3014321327209473,10.464177131652832
61.36735153198242,5.815821170806885,10.605278015136719
61.979515075683594,8.397623062133789,10.760719299316406
62.57939910888672,11.05502700805664,10.933198928833008
63.15668487548828,13.794095993041992,11.121955871582031
63.48359298706055,16.563152313232422,11.287677764892578
62.549522399902344,19.033798217773438,11.248571395874023
64.7097396850586,22.568782806396484,11.790690422058105
65.17595672607422,25.71221160888672,12.0542573928833
65.61444091796875,28.98280143737793,12.340888023376465
66.02359771728516,32.393157958984375,12.652568817138672
66.07840728759766,35.78243637084961,12.928312301635742
66.74608612060547,39.691566467285156,13.3603515625
67.05450439453125,43.613494873046875,13.761943817138672
67.3237075805664,47.74367141723633,14.199657440185547
67.54998779296875,52.10544204711914,14.67737865447998
67.72908782958984,56.72566604614258,15.1995267868042
53.12657928466797,48.25624084472656,12.347888946533203
56.596710205078125,55.718379974365234,13.664054870605469
53.678436279296875,57.2701301574707,13.504450798034668
54.579856872558594,63.134281158447266,14.358217239379883
45.123722076416016,67.05797576904297,13.905829429626465
33.476566314697266,54.341827392578125,10.980911254882812
24.069747924804688,58.323448181152344,10.855205535888672
25.221179962158203,90.8282241821289,16.21784210205078
-7.319263458251953,-61.97926330566406,10.73733901977539
-4.707755088806152,-60.72908401489258,10.479499816894531
-2.2480616569519043,-60.429500579833984,10.40380859375
0.18262410163879395,-60.92192077636719,10.48138427734375
2.8636176586151123,-66.27737426757812,11.413359642028809
6.776278018951416,-81.09992980957031,14.001485824584961
9.879356384277344,-79.559814453125,13.793022155761719
12.684514045715332,-76.78106689453125,13.388877868652344
14.695367813110352,-71.06758880615234,12.485517501831055
17.73748016357422,-71.21941375732422,12.627269744873047
20.15342140197754,-68.97526550292969,12.363048553466797
22.373531341552734,-66.5211181640625,12.074636459350586
24.477991104125977,-64.12848663330078,11.809430122375488
26.373130798339844,-61.55034255981445,11.520601272583008
28.26645278930664,-59.271263122558594,11.297601699829102
30.187742233276367,-57.2592887878418,11.136438369750977
31.915321350097656,-55.05475616455078,10.948375701904297
33.55429458618164,-52.86658477783203,10.77280044555664
30.311063766479492,-43.765830993652344,9.159225463867188
26.40345001220703,-35.02879333496094,7.546800136566162
27.844533920288086,-34.007354736328125,7.561819076538086
29.54094123840332,-33.258514404296875,7.6532087326049805
31.283830642700195,-32.49231719970703,7.760040283203125
33.08127975463867,-31.705345153808594,7.883360862731934
34.94233322143555,-30.893787384033203,8.024388313293457
44.550148010253906,-36.30681228637695,9.887600898742676
45.71943283081055,-34.29791259765625,9.833126068115234
46.83346176147461,-32.277313232421875,9.78573226928711
47.909847259521484,-30.254680633544922,9.74860954284668
48.95051193237305,-28.227252960205078,9.721600532531738
47.594364166259766,-24.953285217285156,9.245565414428711
50.9316520690918,-24.14639663696289,9.697442054748535
51.875221252441406,-22.08719253540039,9.700191497802734
52.789283752441406,-20.01153564453125,9.712825775146484
53.67503356933594,-17.9163875579834,9.735406875610352
52.90510940551758,-15.326732635498047,9.476338386535645
51.51094055175781,-12.703960418701172,9.127758026123047
50.217044830322266,-10.26418685913086,8.818232536315918
49.00932693481445,-7.981416702270508,8.542906761169434
49.18889236450195,-5.9938435554504395,8.525322914123535
50.34612274169922,-4.090732574462891,8.690362930297852
51.52458953857422,-2.1081385612487793,8.87198543548584
59.810394287109375,2.3620219230651855,10.298121452331543
61.13561248779297,4.879967212677002,10.551555633544922
61.75615692138672,7.4361724853515625,10.701608657836914
62.36445999145508,10.065340042114258,10.868362426757812
62.95036697387695,12.773611068725586,11.051026344299316
63.50164031982422,15.56543254852295,11.248583793640137
62.999671936035156,18.154085159301758,11.279838562011719
64.26679229736328,21.35028839111328,11.650978088378906
65.00697326660156,24.53741455078125,11.954355239868164
65.45587158203125,27.759660720825195,12.23225212097168
65.87606048583984,31.116857528686523,12.534436225891113
66.26578521728516,34.62254333496094,12.863048553466797
66.29869842529297,38.1056022644043,13.156187057495117
66.94501495361328,42.142330169677734,13.609644889831543
64.39308166503906,44.24443054199219,13.441621780395508
67.47169494628906,50.466400146484375,14.496074676513672
67.66875457763672,54.98783874511719,15.00125789642334
53.487831115722656,47.1552734375,12.267889022827148
52.49187469482422,50.1656379699707,12.491947174072266
39.82246398925781,41.24334716796875,9.863530158996582
51.93550109863281,58.30418395996094,13.43349838256836
46.15345764160156,66.4386215209961,13.917858123779297
26.3658504486084,89.76337432861328,16.095779418945312
-39.41230773925781,-87.27680969238281,17.296245574951172
-20.72099494934082,-76.8280029296875,14.372114181518555
-6.3547539710998535,-61.65248107910156,11.194353103637695
-3.7829363346099854,-60.41974639892578,10.934076309204102
-1.3456628322601318,-60.205833435058594,10.876792907714844
1.1209182739257812,-62.84714889526367,11.352944374084473
3.95371150970459,-68.0733413696289,12.31578254699707
7.807195663452148,-79.24971771240234,14.382970809936523
10.211532592773438,-73.322265625,13.370914459228516
12.998034477233887,-72.01811218261719,13.217702865600586
15.327552795410156,-68.9500503540039,12.75739860534668
18.182374954223633,-68.64655303955078,12.826141357421875
20.510107040405273,-66.51415252685547,12.571623802185059
22.64861297607422,-64.17202758789062,12.291118621826172
24.678691864013672,-61.88277816772461,12.032965660095215
26.505348205566406,-59.40850067138672,11.749561309814453
28.44733428955078,-57.44139862060547,11.577354431152344
30.200504302978516,-55.27972412109375,11.377182960510254
31.863767623901367,-53.133148193359375,11.190019607543945
33.464290618896484,-51.035274505615234,11.022628784179688
29.616254806518555,-41.43556594848633,9.199009895324707
26.78703498840332,-34.461936950683594,7.883519649505615
28.524778366088867,-33.80239486694336,7.988542079925537
30.241764068603516,-33.04685592651367,8.090784072875977
32.00848388671875,-32.27277374267578,8.20969009399414
33.83338165283203,-31.476608276367188,8.346433639526367
35.725894927978516,-30.654399871826172,8.502400398254395
44.15354537963867,-34.90644836425781,10.16590690612793
45.291343688964844,-32.9382209777832,10.114803314208984
46.3748664855957,-30.956693649291992,10.070709228515625
47.42143630981445,-28.97129249572754,10.036943435668945
48.432830810546875,-26.979373931884766,10.013337135314941
47.140586853027344,-23.830636978149414,9.540392875671387
50.3564567565918,-22.965059280395508,9.996285438537598
51.27151870727539,-20.937213897705078,10.002758026123047
52.15705871582031,-18.891803741455078,10.019255638122559
53.014183044433594,-16.825902938842773,10.04584789276123
52.4929313659668,-14.366731643676758,9.82968521118164
51.13060760498047,-11.808330535888672,9.47802734375
49.86388397216797,-9.423606872558594,9.165580749511719
48.52480697631836,-7.165205478668213,8.859334945678711
48.86576461791992,-5.220006942749023,8.876097679138184
49.99786376953125,-3.3166394233703613,9.050203323364258
51.149864196777344,-1.3331170082092285,9.241569519042969
56.37900924682617,0.7963991165161133,10.18390941619873
59.54909133911133,3.2370944023132324,10.77133560180664
60.155723571777344,5.700995445251465,10.913707733154297
60.74851608276367,8.2308349609375,11.072341918945312
61.306610107421875,10.830179214477539,11.244340896606445
61.850669860839844,13.508840560913086,11.43449878692627
62.358245849609375,16.269554138183594,11.639845848083496
62.59445571899414,19.047470092773438,11.817346572875977
63.0339241027832,21.98430633544922,12.057418823242188
63.71773910522461,25.13693618774414,12.371551513671875
64.11231231689453,28.319286346435547,12.658990859985352
64.4748306274414,31.633283615112305,12.971202850341797
64.48782348632812,34.921112060546875,13.24556827545166
65.09492492675781,38.70964050292969,13.678865432739258
65.34712982177734,42.50298309326172,14.079557418823242
65.55640411376953,46.4903564453125,14.515623092651367
65.71871185302734,50.69286346435547,14.990727424621582
65.82942199707031,55.1346321105957,15.509077072143555
52.52321243286133,47.70819091796875,12.815719604492188
51.506813049316406,50.70744323730469,13.05459213256836
52.30812072753906,55.808128356933594,13.815189361572266
51.491275787353516,59.56157302856445,14.220404624938965
45.22412109375,67.2071762084961,14.630952835083008
33.42738723754883,54.26198196411133,11.5109281539917
24.164329528808594,58.552650451660156,11.44068431854248
-15.231060028076172,-95.7620849609375,17.51346778869629
-7.3363728523254395,-62.12417221069336,11.298521995544434
-4.718486309051514,-60.867652893066406,11.026590347290039
-2.216832399368286,-59.58960723876953,10.770221710205078
0.18204092979431152,-60.72404861450195,10.967720031738281
2.853553533554077,-66.04451751708984,11.93975830078125
6.707335472106934,-80.27488708496094,14.54936408996582
9.165763854980469,-73.81311798095703,13.434142112731934
11.976521492004395,-72.49557495117188,13.271265029907227
14.725326538085938,-71.21247100830078,13.134139060974121
17.320634841918945,-69.54563903808594,12.944685935974121
19.691225051879883,-67.39342498779297,12.681201934814453
21.87213897705078,-65.03034210205078,12.391992568969727
23.94121742248535,-62.72221755981445,12.125783920288086
25.80646324157715,-60.22787094116211,11.834579467773438
27.670623779296875,-58.021888732910156,11.610329627990723
29.56270980834961,-56.07373046875,11.44906997680664
31.265439987182617,-53.93368148803711,11.259662628173828
32.88154220581055,-51.806640625,11.08264446258545
34.438533782958984,-49.725433349609375,10.924788475036621
26.25541114807129,-34.832401275634766,7.878293037414551
27.901830673217773,-34.07734298706055,7.954807758331299
29.602476119995117,-33.327781677246094,8.051148414611816
31.349891662597656,-32.56094741821289,8.16378116607666
33.15226364135742,-31.773372650146484,8.293787956237793
35.01865768432617,-30.961257934570312,8.44248104095459
43.728973388671875,-35.63759231567383,10.188772201538086
44.88154602050781,-33.66935729980469,10.13373851776123
45.9792366027832,-31.68857192993164,10.085777282714844
47.03924560546875,-29.704910278320312,10.048221588134766
48.06341552734375,-27.715702056884766,10.02087688446045
47.14992904663086,-24.720272064208984,9.615446090698242
50.01091384887695,-23.709875106811523,9.996423721313477
50.93716049194336,-21.687786102294922,9.99920654296875
51.83347702026367,-19.649185180664062,10.011996269226074
52.700950622558594,-17.59125518798828,10.03485107421875
53.02320098876953,-15.360940933227539,9.970563888549805
51.621681213378906,-12.731266021728516,9.603010177612305
50.32133483886719,-10.285501480102539,9.276695251464844
49.10792922973633,-7.997473239898682,8.986473083496094
48.45219039916992,-5.904068946838379,8.815921783447266
49.57771301269531,-4.028297424316406,8.983983993530273
50.722023010253906,-2.0752954483032227,9.168819427490234
59.319068908691406,2.342616081237793,10.722258567810059
59.934547424316406,4.784091472625732,10.859508514404297
60.5259895324707,7.288041591644287,11.0108642578125
61.10342788696289,9.861814498901367,11.179004669189453
61.64583206176758,12.508893013000488,11.361067771911621
62.17387771606445,15.239983558654785,11.56195068359375
62.66484451293945,18.057613372802734,11.7787446975708
62.87037658691406,20.886381149291992,11.965550422668457
63.56432342529297,23.99287223815918,12.271293640136719
63.97024917602539,27.129608154296875,12.55008602142334
64.34483337402344,30.393569946289062,12.852914810180664
64.68607330322266,33.797176361083984,13.181840896606445
64.67536163330078,37.17256546020508,13.473319053649902
65.25881958007812,41.08085250854492,13.927671432495117
64.47020721435547,44.29741668701172,14.128047943115234
65.66451263427734,49.11469650268555,14.810516357421875
65.79488372802734,53.46512222290039,15.312362670898438
52.88426208496094,46.62316131591797,12.733625411987305
51.88885498046875,49.58933639526367,12.963508605957031
39.89068603515625,41.313995361328125,10.37256908416748
50.616432189941406,56.82338333129883,13.744452476501465
56.15434265136719,68.38446044921875,15.9818696975708
46.11085510253906,66.37730407714844,14.597617149353027
25.068824768066406,58.277339935302734,11.458297729492188
26.350509643554688,89.71119689941406,16.887691497802734
-39.53668212890625,-87.55231475830078,18.17654800415039
-20.67171287536621,-76.64523315429688,15.020257949829102
-13.666919708251953,-94.99282836914062,18.15867805480957
-6.369588851928711,-61.79608917236328,11.754400253295898
-3.7915501594543457,-60.55718994140625,11.480474472045898
-1.3268661499023438,-59.364784240722656,11.23523235321045
1.1171724796295166,-62.637271881103516,11.853498458862305
3.9394147396087646,-67.82684326171875,12.855159759521484
7.371049880981445,-74.82241821289062,14.225692749023438
10.232834815979004,-73.47521209716797,14.0364351272583
13.020914077758789,-72.14493560791016,13.87110710144043
14.985629081726074,-67.41190338134766,13.06637954711914
17.767406463623047,-67.07982635498047,13.12985610961914
20.052825927734375,-65.03120422363281,12.876272201538086
22.1546688079834,-62.77254104614258,12.595235824584961
24.15156364440918,-60.560951232910156,12.33633804321289
25.95012855529785,-58.16404724121094,12.050869941711426
27.86223030090332,-56.259944915771484,11.878849029541016
29.589860916137695,-54.161991119384766,11.67762565612793
31.229679107666016,-52.075782775878906,11.489250183105469
32.80808639526367,-50.0345458984375,11.320762634277344
29.250289916992188,-40.92354965209961,9.517699241638184
27.26310920715332,-35.07441329956055,8.405476570129395
28.584022521972656,-33.87261199951172,8.386090278625488
30.30539321899414,-33.11637496948242,8.493648529052734
32.07682418823242,-32.34166717529297,8.618741989135742
33.90680694580078,-31.5449275970459,8.762611389160156
35.80488586425781,-30.722179412841797,8.926717758178711
43.353843688964844,-34.274234771728516,10.45679759979248
44.4753303527832,-32.34478759765625,10.405250549316406
45.54293441772461,-30.401365280151367,10.360710144042969
46.573524475097656,-28.45328140258789,10.326583862304688
47.568809509277344,-26.498083114624023,10.302738189697266
46.706546783447266,-23.611204147338867,9.902379035949707
49.459625244140625,-22.556060791015625,10.285506248474121
50.35780715942383,-20.564111709594727,10.292044639587402
51.2260627746582,-18.55459213256836,10.308719635009766
52.0654296875,-16.524789810180664,10.335585594177246
52.60905075073242,-14.398509979248047,10.320250511169434
51.239654541015625,-11.833511352539062,9.950257301330566
49.96671676635742,-9.443035125732422,9.621562957763672
50.17067337036133,-7.408242225646973,9.595733642578125
48.1376953125,-5.142238140106201,9.15996265411377
49.2385368347168,-3.266275405883789,9.336908340454102
57.18169021606445,-1.4903273582458496,10.823036193847656
56.594058990478516,0.7994375228881836,10.70924186706543
58.40751647949219,3.1750335693359375,11.067620277404785
58.98760223388672,5.590298652648926,11.211060523986816
59.55224609375,8.068750381469727,11.37085247039795
60.080989837646484,10.613664627075195,11.543953895568848
60.583168029785156,13.232000350952148,11.733182907104492
61.068851470947266,15.933130264282227,11.941648483276367
61.51556396484375,18.719165802001953,12.166332244873047
61.67937469482422,21.511886596679688,12.359794616699219
62.319252014160156,24.58523178100586,12.675844192504883
62.6732063293457,27.683612823486328,12.9637451171875
62.992713928222656,30.90611457824707,13.276123046875
62.967559814453125,34.097869873046875,13.548794746398926
63.20978927612305,37.588619232177734,13.914834022521973
63.71979522705078,41.44453811645508,14.382279396057129
63.87459945678711,45.29768371582031,14.816298484802246
63.97901916503906,49.35093688964844,15.288406372070312
64.02820587158203,53.626041412353516,15.80257797241211
51.93166732788086,47.170867919921875,13.274388313293457
50.91600799560547,50.12580490112305,13.518980026245117
49.83976364135742,53.17461395263672,13.789697647094727
48.99815368652344,56.677696228027344,14.17584228515625
45.39237976074219,67.45719909667969,15.384245872497559
33.516563415527344,54.40674591064453,12.090888023376465
24.299793243408203,58.880863189697266,12.052312850952148
20.97079086303711,57.2328987121582,11.533095359802246
-15.192558288574219,-95.52006530761719,18.30054473876953
-7.353621959686279,-62.27020263671875,11.864030838012695
-4.729316234588623,-61.00727844238281,11.577828407287598
-2.224902391433716,-59.806732177734375,11.323873519897461
0.18105840682983398,-60.40047073364258,11.428442001342773
2.843522071838379,-65.81258392333984,12.464029312133789
6.294246673583984,-75.33081817626953,14.303030014038086
9.184975624084473,-73.96781921386719,14.102954864501953
12.001335144042969,-72.64566040039062,13.931612014770508
14.59909439086914,-70.60199737548828,13.641223907470703
16.921735763549805,-67.94407653808594,13.248420715332031
19.248470306396484,-65.87806701660156,12.985978126525879
21.391315460205078,-63.60072708129883,12.696331024169922
23.42595863342285,-61.37234115600586,12.429454803466797
25.262069702148438,-58.957305908203125,12.136226654052734
27.09772300720215,-56.82057571411133,11.911025047302246
28.961261749267578,-54.93292236328125,11.74990463256836
30.639659881591797,-52.85419464111328,11.559417724609375
32.23333740234375,-50.78535461425781,11.381185531616211
33.76910400390625,-48.75887680053711,11.222230911254883
26.20170021057129,-34.76112747192383,8.23632526397705
27.959552764892578,-34.14781951904297,8.350608825683594
29.664447784423828,-33.39755630493164,8.45195198059082
31.41644287109375,-32.63006591796875,8.570439338684082
33.22377395629883,-31.84189224243164,8.7072172164917
35.09553527832031,-31.02923583984375,8.863666534423828
42.93520736694336,-34.990699768066406,10.47989273071289
44.07146453857422,-33.061641693115234,10.424365043640137
45.15319061279297,-31.119281768798828,10.375934600830078
46.197235107421875,-29.173194885253906,10.337979316711426
47.20536804199219,-27.220924377441406,10.310351371765137
47.11484146118164,-24.70188331604004,10.065537452697754
49.120243072509766,-23.287601470947266,10.285638809204102
50.02972412109375,-21.30142593383789,10.288459777832031
50.908935546875,-19.298709869384766,10.30137825012207
51.758853912353516,-17.276771545410156,10.324466705322266
52.58045196533203,-15.232667922973633,10.357828140258789
51.733238220214844,-12.758788108825684,10.08175277709961
50.4263801574707,-10.306979179382324,9.738452911376953
49.20722198486328,-8.013640403747559,9.433164596557617
47.90784454345703,-5.837735176086426,9.131701469421387
48.83020782470703,-3.967560291290283,9.269619941711426
49.94175720214844,-2.0433778762817383,9.457399368286133
58.18698501586914,2.297905921936035,11.01815414428711
58.7763671875,4.691638469696045,11.156466484069824
59.340389251708984,7.1452789306640625,11.308915138244629
59.88880920410156,9.665779113769531,11.478212356567383
60.4008903503418,12.256272315979004,11.661372184753418
60.885955810546875,14.924277305603027,11.861281394958496
61.35399627685547,17.679874420166016,12.081164360046387
61.52944564819336,20.440908432006836,12.267624855041504
61.925819396972656,23.374404907226562,12.523893356323242
62.54642105102539,26.525772094726562,12.85469913482666
62.87887954711914,29.70111846923828,13.157814025878906
63.17551803588867,33.007938385009766,13.486678123474121
63.12509536743164,36.281551361083984,13.776175498962402
63.65079116821289,40.0685920715332,14.230958938598633
63.82305908203125,43.852783203125,14.651811599731445
63.94661331176758,47.82976531982422,15.109423637390137
64.01683044433594,52.02027893066406,15.607562065124512
52.29241180419922,46.101383209228516,13.190312385559082
51.29777526855469,49.02445983886719,13.425738334655762
39.95934295654297,41.385108947753906,10.884895324707031
49.127079010009766,55.151390075683594,13.974863052368164
53.13465881347656,64.70712280273438,15.842107772827148
46.093040466308594,66.35165405273438,15.286389350891113
25.03816032409668,58.20609664916992,11.988914489746094
26.34062957763672,89.67752838134766,17.684715270996094
-39.66232681274414,-87.8304672241211,19.065250396728516
-24.912010192871094,-92.3671646118164,18.926185607910156
-17.006208419799805,-91.85208892822266,18.48016357421875
-9.00994873046875,-62.624271392822266,12.516691207885742
-6.384489059448242,-61.94078063964844,12.318826675415039
-3.8002147674560547,-60.69568634033203,12.031099319458008
-1.3301198482513428,-59.510475158691406,11.776053428649902
1.1134498119354248,-62.42815017700195,12.352291107177734
3.9214746952056885,-67.51822662353516,13.379816055297852
7.386708736419678,-74.98143768310547,14.905587196350098
10.145148277282715,-72.8456802368164,14.550339698791504
12.714576721191406,-70.4476318359375,14.162005424499512
14.794294357299805,-66.55123138427734,13.48739242553711
17.369712829589844,-65.57840728759766,13.420915603637695
19.6141414642334,-63.60856246948242,13.168529510498047
21.680360794067383,-61.428627014160156,12.887269020080566
23.6449031829834,-59.290489196777344,12.627925872802734
25.41604232788086,-56.966949462890625,12.34071159362793
27.298973083496094,-55.122596740722656,12.169088363647461
29.001602172851562,-53.08522033691406,11.967049598693848
30.618427276611328,-51.05652618408203,11.777703285217285
32.175193786621094,-49.06932067871094,11.608312606811523
28.89212989807129,-40.422462463378906,9.829573631286621
27.319421768188477,-35.14685821533203,8.80667495727539
28.643707275390625,-33.94334411621094,8.786561965942383
30.36949348449707,-33.18640899658203,8.899487495422363
32.145652770996094,-32.41108322143555,9.030843734741211
33.980796813964844,-31.613758087158203,9.181914329528809
35.88447952270508,-30.79047393798828,9.354257583618164
42.580169677734375,-33.66259765625,10.738219261169434
43.685787200927734,-31.770599365234375,10.68629264831543
44.73782730102539,-29.86393165588379,10.641347885131836
45.75286102294922,-27.951908111572266,10.606918334960938
46.73252487182617,-26.03223419189453,10.582849502563477
45.71878433227539,-23.11188507080078,10.13467788696289
46.261924743652344,-21.097755432128906,10.058930397033691
49.47338104248047,-20.202939987182617,10.572065353393555
50.324981689453125,-18.228208541870117,10.588881492614746
51.147216796875,-16.233352661132812,10.616000175476074
51.94097900390625,-14.215665817260742,10.653514862060547
51.34952163696289,-11.858887672424316,10.42599105834961
50.07030487060547,-9.462608337402344,10.0808744430542
50.363773345947266,-7.436756134033203,10.071636199951172
47.596954345703125,-5.084469795227051,9.469804763793945
48.49964904785156,-3.2172598838806152,9.615901947021484
56.12638473510742,-1.4628214836120605,11.107399940490723
56.7242317199707,0.8012833595275879,11.223020553588867
57.30550765991211,3.115139961242676,11.3536376953125
57.86049270629883,5.483480453491211,11.497974395751953
58.398643493652344,7.912448883056641,11.658717155456543
58.89976119995117,10.40499496459961,11.832714080810547
59.372947692871094,12.967681884765625,12.022796630859375
59.81730651855469,15.606597900390625,12.229957580566406
60.24250030517578,18.331777572631836,12.457497596740723
60.377845764160156,21.057952880859375,12.650335311889648
60.97669982910156,24.055591583251953,12.96796989440918
61.29303741455078,27.073976516723633,13.256019592285156
61.572837829589844,30.20948028564453,13.568239212036133
61.51287078857422,33.31012725830078,13.838944435119629
61.710968017578125,36.697322845458984,14.203959465026855
62.16679382324219,40.43442916870117,14.671177864074707
62.272010803222656,44.161190032958984,15.102804183959961
62.3239860534668,48.07429504394531,15.571598052978516
62.317691802978516,52.19341278076172,16.081302642822266
51.35148239135742,46.643882751464844,13.724254608154297
50.336830139160156,49.555606842041016,13.974245071411133
49.26158142089844,52.5577507019043,14.25084400177002
38.530303955078125,44.56924057006836,11.655349731445312
59.830909729003906,75.10652160644531,18.996807098388672
36.424774169921875,49.69694519042969,12.189687728881836
33.60649871826172,54.55274200439453,12.675804138183594
24.437223434448242,59.21390914916992,12.672825813293457
20.968706130981445,57.22720718383789,12.05746841430664
-22.685123443603516,-93.47160339355469,19.028526306152344
-14.83372974395752,-93.26395416259766,18.682567596435547
-7.370999336242676,-62.417388916015625,12.434000015258789
-4.740219593048096,-61.14799118041992,12.133357048034668
-2.2299158573150635,-59.94164276123047,11.866612434387207
0.18200945854187012,-60.719215393066406,12.012300491333008
2.833542823791504,-65.58157348632812,12.98628044128418
6.30768346786499,-75.4917984008789,14.98678207397461
9.15772819519043,-73.74844360351562,14.701894760131836
11.783184051513672,-71.3253173828125,14.301733016967773
14.26118278503418,-68.9678726196289,13.932735443115234
16.539653778076172,-66.40985870361328,13.539369583129883
18.823888778686523,-64.42488861083984,13.278249740600586
20.92975616455078,-62.22840881347656,12.988473892211914
22.930889129638672,-60.075347900390625,12.72122859954834
24.738525390625,-57.7354621887207,12.426313400268555
26.546337127685547,-55.66444396972656,12.200418472290039
28.382009506225586,-53.83421325683594,12.039636611938477
30.036575317382812,-51.813865661621094,11.848289489746094
31.60828399658203,-49.80052947998047,11.669065475463867
33.12324142456055,-47.8263053894043,11.509206771850586
26.699167251586914,-35.421119689941406,8.775169372558594
28.01768684387207,-34.21882247924805,8.749302864074707
29.72687339782715,-33.46784210205078,8.855712890625
31.483497619628906,-32.69969940185547,8.980119705200195
33.295799255371094,-31.910938262939453,9.123750686645508
35.17300033569336,-31.097728729248047,9.288047790527344
42.16736602783203,-34.36494064331055,10.761504173278809
43.272682189941406,-32.46238708496094,10.70186996459961
44.35380935668945,-30.568361282348633,10.656710624694824
45.38232421875,-28.65859603881836,10.618413925170898
46.37487030029297,-26.742006301879883,10.590535163879395
45.124290466308594,-23.65825080871582,10.079598426818848
46.269989013671875,-21.93631362915039,10.130332946777344
49.15138626098633,-20.92744255065918,10.568438529968262
50.01403045654297,-18.959474563598633,10.58148193359375
50.84697723388672,-16.972402572631836,10.604787826538086
51.651180267333984,-14.963464736938477,10.638442993164062
51.84562683105469,-12.7864990234375,10.564077377319336
50.53219985961914,-10.328606605529785,10.20360279083252
49.30723571777344,-8.029926300048828,9.883085250854492
48.00517654418945,-5.849597930908203,9.567235946655273
48.10264587402344,-3.9084439277648926,9.54763126373291
55.89554214477539,-2.2869772911071777,11.06721305847168
57.09394836425781,2.254741668701172,11.303848266601562
57.65866470336914,4.6024274826049805,11.443045616149902
58.206703186035156,7.008770942687988,11.598365783691406
58.71793746948242,9.476801872253418,11.766645431518555
59.20152282714844,12.01290225982666,11.95068073272705
59.65666198730469,14.622953414916992,12.151412010192871
60.092979431152344,17.316497802734375,12.372088432312012
60.240535736083984,20.012712478637695,12.557979583740234
60.60719680786133,22.87668228149414,12.81578540802002
61.18037033081055,25.946430206298828,13.14694881439209
61.47391891479492,29.037477493286133,13.450027465820312
61.729461669921875,32.25240707397461,13.7785005569458
61.64285659790039,35.42961883544922,14.065742492675781
62.1153564453125,39.102027893066406,14.520541191101074
62.23909378051758,42.76443862915039,14.939306259155273
62.311275482177734,46.60658645629883,15.393965721130371
62.32716369628906,50.647239685058594,15.888084411621094
51.71186065673828,45.58957290649414,13.638288497924805
50.718231201171875,48.4705810546875,13.878952026367188
40.02845001220703,41.456695556640625,11.400609970092773
48.15899658203125,54.064605712890625,14.323774337768555
50.10384750366211,61.01617431640625,15.619213104248047
58.809486389160156,77.79080963134766,19.292451858520508
46.0964241027832,66.3565444946289,15.984183311462402
25.007503509521484,58.13481140136719,12.519899368286133
26.336116790771484,89.66220092773438,18.48746109008789
-31.70511245727539,-78.47046661376953,17.475406646728516
-25.003387451171875,-92.70603942871094,19.826255798339844
-20.559362411499023,-90.5533447265625,19.173622131347656
-16.964534759521484,-91.62696838378906,19.240997314453125
-9.122661590576172,-63.407562255859375,13.227424621582031
-6.399526596069336,-62.08665466308594,12.887784957885742
-3.8088483810424805,-60.83351516723633,12.585712432861328
-1.3330755233764648,-59.642704010009766,12.318304061889648
1.1097383499145508,-62.21973419189453,12.849381446838379
3.907291889190674,-67.27391052246094,13.914352416992188
7.238804817199707,-73.48019409179688,15.245882034301758
9.904973983764648,-71.12088775634766,14.82701301574707
12.421385765075684,-68.8230972290039,14.440425872802734
14.800882339477539,-66.58090209960938,14.083436965942383
16.988210678100586,-64.1380844116211,13.700132369995117
19.19288444519043,-62.24245834350586,13.449174880981445
21.22447395324707,-60.136924743652344,13.167959213256836
23.157499313354492,-58.068321228027344,12.908430099487305
24.901851654052734,-55.81443786621094,12.619756698608398
26.75627899169922,-54.02677917480469,12.448722839355469
28.434457778930664,-52.0471076965332,12.246084213256836
30.039161682128906,-50.09059143066406,12.06014633178711
31.56427574157715,-48.137638092041016,11.885875701904297
28.541505813598633,-39.93190002441406,10.134893417358398
27.37615203857422,-35.21983337402344,9.210854530334473
28.703845977783203,-34.01460266113281,9.190031051635742
30.43406867980957,-33.256980895996094,9.308393478393555
32.21501541137695,-32.48101806640625,9.446075439453125
34.05535888671875,-31.683115005493164,9.604446411132812
35.964691162109375,-30.859298706054688,9.785123825073242
41.83124923706055,-33.07050704956055,11.010643005371094
42.906436920166016,-31.203813552856445,10.954607009887695
43.95818328857422,-29.34347915649414,10.913114547729492
44.95806121826172,-27.466331481933594,10.87841796875
43.75458526611328,-24.373371124267578,10.341758728027344
45.419185638427734,-22.960424423217773,10.508530616760254
45.849143981933594,-20.909507751464844,10.405105590820312
48.6167106628418,-19.853118896484375,10.843292236328125
49.452205657958984,-17.91208267211914,10.860243797302246
50.25796127319336,-15.951120376586914,10.887569427490234
51.03477096557617,-13.967650413513184,10.925376892089844
51.46022415161133,-11.884450912475586,10.90535831451416
50.1746711730957,-9.482336044311523,10.54362678527832
50.558998107910156,-7.465587615966797,10.552788734436035
53.854148864746094,-5.752885818481445,11.183256149291992
47.7802734375,-3.169541358947754,9.887518882751465
55.10602569580078,-1.4362287521362305,11.382344245910645
55.69173049926758,0.7866878509521484,11.500567436218262
56.24087905883789,3.057262420654297,11.629952430725098
56.772117614746094,5.380329608917236,11.77502727508545
57.285282135009766,7.761594772338867,11.936537742614746
57.76041793823242,10.20372200012207,12.111234664916992
58.20635986328125,12.712884902954102,12.301970481872559
58.622169494628906,15.294783592224121,12.509700775146484
59.00666046142578,17.955705642700195,12.735517501831055
59.12607192993164,20.621370315551758,12.929768562316895
59.68789291381836,23.547147750854492,13.24894905090332
59.968101501464844,26.488733291625977,13.536596298217773
60.21119689941406,29.54141616821289,13.848372459411621
60.1193733215332,32.55553436279297,14.116888999938965
60.27699279785156,35.8445930480957,14.48057746887207
60.682918548583984,39.46928787231445,14.947223663330078
60.742958068847656,43.076839447021484,15.37617015838623
60.74737548828125,46.85816192626953,15.841370582580566
60.69098663330078,50.830997467041016,16.346372604370117
50.78226852416992,46.126853942871094,14.165605545043945
49.7688102722168,48.99640655517578,14.420730590820312
48.565616607666016,51.815216064453125,14.663859367370605
38.53792190551758,44.578041076660156,12.167410850524902
49.692501068115234,62.37961959838867,16.467693328857422
36.29389190673828,49.518367767333984,12.676997184753418
33.697227478027344,54.700008392333984,13.265806198120117
20.966609954833984,57.22150802612305,12.583463668823242
-22.612728118896484,-93.1733169555664,19.797225952148438
-17.993410110473633,-89.7269287109375,18.895980834960938
-14.385766983032227,-90.4475326538086,18.910659790039062
-7.388520240783691,-62.56575393676758,13.008553504943848
-4.685672760009766,-60.4443359375,12.518196105957031
-2.234905242919922,-60.07586669921875,12.413249969482422
0.1814117431640625,-60.52205276489258,12.496857643127441
2.8235960006713867,-65.35142517089844,13.506575584411621
6.213798999786377,-74.36808013916016,15.40927791595459
8.938690185546875,-71.98453521728516,14.977763175964355
11.50886344909668,-69.66470336914062,14.579582214355469
13.521038055419922,-65.3884506225586,13.787262916564941
16.17324447631836,-64.938720703125,13.818367004394531
18.416318893432617,-63.02996826171875,13.558805465698242
20.486251831054688,-60.90983200073242,13.269180297851562
22.454788208007812,-58.82801818847656,13.001827239990234
24.055131912231445,-56.140541076660156,12.611409187316895
26.01526641845703,-54.55082702636719,12.479162216186523
27.82366180419922,-52.77517318725586,12.318904876708984
29.454896926879883,-50.81046676635742,12.126912117004395
31.005056381225586,-48.850101470947266,11.946893692016602
32.49959182739258,-46.92583084106445,11.786310195922852
26.754417419433594,-35.49440383911133,9.177838325500488
28.076257705688477,-34.29035186767578,9.150972366333008
29.789775848388672,-33.538658142089844,9.262507438659668
31.551044464111328,-32.76986312866211,9.392915725708008
33.368385314941406,-31.980504989624023,9.543469429016113
35.251060485839844,-31.166746139526367,9.715707778930664
41.424102783203125,-33.75920104980469,11.034104347229004
42.51408386230469,-31.8933162689209,10.974030494689941
43.579776763916016,-30.034881591796875,10.9285888671875
44.59311294555664,-28.16020393371582,10.890006065368652
45.57046127319336,-26.278152465820312,10.861913681030273
44.74864196777344,-23.461292266845703,10.432779312133789
45.85449981689453,-21.739336013793945,10.478365898132324
48.30058288574219,-20.565196990966797,10.839637756347656
49.14725875854492,-18.63088607788086,10.852782249450684
49.9638671875,-16.67763328552246,10.876265525817871
50.75128173828125,-14.702763557434082,10.910192489624023
51.51017761230469,-12.703773498535156,10.954682350158691
50.63880920410156,-10.350393295288086,10.672253608703613
49.4676399230957,-8.056059837341309,10.348811149597168
53.024696350097656,-6.461241722106934,11.029701232910156
47.39415740966797,-3.8508782386779785,9.818354606628418
54.882999420166016,-2.245549201965332,11.34190845489502
56.03779983520508,2.213028907775879,11.5798978805542
56.579193115234375,4.516261100769043,11.71982192993164
57.10264587402344,6.875826835632324,11.8759183883667
57.58832931518555,9.294492721557617,12.044912338256836
