-8.15954875946045,20.493751525878906,4.173669815063477
-8.858013153076172,19.88406753540039,4.118706226348877
-9.532909393310547,19.276187896728516,4.068890571594238
-10.072202682495117,18.460962295532227,3.979069709777832
-10.697611808776855,17.861034393310547,3.9392805099487305
-11.304157257080078,17.260662078857422,3.903947353363037
-11.89309310913086,16.659120559692383,3.8729066848754883
-12.465568542480469,16.055675506591797,3.8460216522216797
-13.022634506225586,15.44962215423584,3.8231701850891113
-13.578171730041504,14.854317665100098,3.807861804962158
-13.92530345916748,14.056020736694336,3.743713617324829
-14.289544105529785,13.309093475341797,3.6948020458221436
-14.637898445129395,12.574210166931152,3.6512115001678467
-14.971519470214844,11.849663734436035,3.6126811504364014
-15.291472434997559,11.13383960723877,3.578982353210449
-15.5986909866333,10.425251960754395,3.5499227046966553
-15.894043922424316,9.722423553466797,3.5253384113311768
-15.721013069152832,8.768890380859375,3.4060142040252686
-15.644296646118164,7.9195451736450195,3.3177309036254883
-16.204132080078125,7.400876045227051,3.370635986328125
-17.301237106323242,7.076443672180176,3.5368080139160156
-17.66533851623535,6.409760475158691,3.555689573287964
-18.0250301361084,5.731990814208984,3.578810453414917
-11.837800979614258,3.2470054626464844,2.3225631713867188
-11.751208305358887,2.720813751220703,2.282268524169922
-18.61897850036621,3.5295534133911133,3.585629463195801
-17.7398738861084,2.6296443939208984,3.3932461738586426
-8.790785789489746,0.9440430402755737,1.6728696823120117
-21.20343017578125,1.4184845685958862,4.020855903625488
-22.448707580566406,0.5976518392562866,4.249027729034424
-22.829587936401367,-0.3096994161605835,4.319986820220947
-23.20682144165039,-1.2484889030456543,4.397315502166748
-23.580598831176758,-2.221431255340576,4.481442928314209
-24.206939697265625,-3.2659928798675537,4.621696472167969
-24.578229904174805,-4.327699661254883,4.721990585327148
-24.946500778198242,-5.433952808380127,4.830811500549316
-25.31183433532715,-6.588837623596191,4.948854446411133
-25.6743221282959,-7.796999931335449,5.076916217803955
-26.034008026123047,-9.063515663146973,5.215876579284668
-26.390880584716797,-10.394240379333496,5.366766929626465
-26.744943618774414,-11.7957181930542,5.530737400054932
-26.809703826904297,-13.135019302368164,5.648768424987793
-27.15410804748535,-14.684687614440918,5.841006278991699
-25.97808265686035,-15.428572654724121,5.716849327087402
-28.130290985107422,-18.274011611938477,6.3470025062561035
-26.225841522216797,-18.57638931274414,6.080913543701172
-23.881553649902344,-18.39996337890625,5.704259872436523
-21.805334091186523,-18.24200439453125,5.3791728019714355
-19.948217391967773,-18.099103927612305,5.0964274406433105
-18.146480560302734,-17.844846725463867,4.815513610839844
-17.494823455810547,-18.644481658935547,4.837589740753174
-17.113534927368164,-19.77336883544922,4.947978973388672
-16.935453414916992,-21.23484992980957,5.1391682624816895
-17.831838607788086,-24.300670623779297,5.703036785125732
-17.61174964904785,-26.141010284423828,5.963952541351318
-17.753738403320312,-28.783092498779297,6.398723125457764
-17.279726028442383,-30.711048126220703,6.667498588562012
-17.13658905029297,-33.54231262207031,7.126844882965088
-16.488014221191406,-35.748817443847656,7.4488115310668945
-16.115882873535156,-38.98845291137695,7.982386589050293
-14.548974990844727,-39.637943267822266,7.989156246185303
-16.078569412231445,-49.919349670410156,9.923100471496582
-14.879849433898926,-53.47006607055664,10.501521110534668
-13.964322090148926,-59.30996322631836,11.528902053833008
-12.980095863342285,-67.1111068725586,12.933431625366211
-13.861898422241211,-91.1807861328125,17.450563430786133
-10.321660995483398,-92.86744689941406,17.67966651916504
56.10633850097656,9.450556755065918,10.765436172485352
79.63910675048828,20.100997924804688,15.541102409362793
90.07550048828125,34.707366943359375,18.26461410522461
89.4512939453125,38.662017822265625,18.438325881958008
56.0394401550293,26.942115783691406,11.765008926391602
63.23247528076172,33.59174346923828,13.547706604003906
55.40953063964844,32.35455322265625,12.14050579071045
26.989797592163086,18.818450927734375,6.225512981414795
24.14147186279297,18.31647491455078,5.733737468719482
21.72293472290039,17.900869369506836,5.32594633102417
19.593311309814453,17.51389503479004,4.9724297523498535
17.71881866455078,17.167646408081055,4.668105602264404
16.051898956298828,16.854446411132812,4.403908729553223
15.456178665161133,17.592994689941406,4.430941104888916
14.925355911254883,18.43233299255371,4.487582683563232
7.583585739135742,10.175585746765137,2.401205062866211
7.114099025726318,10.392241477966309,2.38291597366333
13.19918155670166,21.048097610473633,4.700802326202393
12.571830749511719,21.961000442504883,4.787939071655273
12.153571128845215,23.3594913482666,4.98228645324707
11.829215049743652,25.155466079711914,5.259661674499512
11.4986572265625,27.244016647338867,5.595172882080078
11.07336711883545,29.490678787231445,5.960331916809082
10.597949981689453,32.086090087890625,6.393608093261719
9.039660453796387,31.5749454498291,6.214315414428711
7.488526344299316,30.7804012298584,5.993847370147705
6.035564422607422,30.010072708129883,5.791912078857422
4.2185959815979,26.428386688232422,5.063823223114014
3.1052258014678955,26.169313430786133,4.986236095428467
2.029973268508911,25.99755096435547,4.93397331237793
0.9797958731651306,25.94643211364746,4.912827014923096
-0.045071691274642944,18.491418838500977,3.4987752437591553
-1.099491834640503,25.782390594482422,4.882724761962891
-2.084984302520752,25.123106002807617,4.7698893547058105
-3.025092363357544,24.47351837158203,4.665878772735596
-3.9234936237335205,23.83246612548828,4.570043563842773
-4.783514976501465,23.198862075805664,4.481802940368652
-5.60814094543457,22.57168960571289,4.400644302368164
-6.400066375732422,21.94999885559082,4.326107025146484
-7.161744117736816,21.332874298095703,4.257785797119141
-7.895364284515381,20.719459533691406,4.1953206062316895
-8.602959632873535,20.108930587768555,4.1383867263793945
-9.286367416381836,19.500465393066406,4.086699485778809
-9.914209365844727,18.83056640625,4.026586532592773
-10.468958854675293,18.08255386352539,3.9534425735473633
-11.082321166992188,17.482433319091797,3.9164843559265137
-11.67762279510498,16.881406784057617,3.8838770389556885
-12.256044387817383,16.278749465942383,3.8554728031158447
-12.818689346313477,15.67373275756836,3.831144094467163
-13.410629272460938,15.115326881408691,3.823349714279175
-13.7865571975708,14.335192680358887,3.7631757259368896
-14.156981468200684,13.583369255065918,3.7122249603271484
-14.511053085327148,12.84425163269043,3.666703701019287
-14.84998607635498,12.116072654724121,3.6263346672058105
-15.174867630004883,11.397214889526367,3.5908751487731934
-15.486684799194336,10.686123847961426,3.560124397277832
-15.78632926940918,9.981319427490234,3.533904552459717
-16.060304641723633,9.273148536682129,3.508941888809204
-15.581938743591309,8.1806001663208,3.3298816680908203
-15.918086051940918,7.557607650756836,3.3340907096862793
-17.165565490722656,7.320066928863525,3.5308895111083984
-17.531450271606445,6.657129287719727,3.548229217529297
-17.892709732055664,5.983607769012451,3.5697712898254395
-18.24989128112793,5.298126220703125,3.5956335067749023
-11.782733917236328,2.91294002532959,2.2965331077575684
-18.6157283782959,3.815868616104126,3.595510244369507
-18.74342918395996,3.0632588863372803,3.593482494354248
-17.98546028137207,2.201820135116577,3.4284415245056152
-20.55399513244629,1.6816625595092773,3.902003288269043
-22.436922073364258,0.9306188225746155,4.24892520904541
-22.689393997192383,0.028836846351623535,4.293067455291748
-23.067949295043945,-0.8980425596237183,4.367996692657471
-23.44298553466797,-1.8580381870269775,4.449559211730957
-23.81467628479004,-2.854030132293701,4.538219928741455
-24.441499710083008,-3.9307188987731934,4.684002876281738
-24.810871124267578,-5.020057678222656,4.7895965576171875
-25.17728614807129,-6.156497955322266,4.904149532318115
-25.540817260742188,-7.34440279006958,5.028410911560059
-25.901533126831055,-8.588760375976562,5.163240909576416
-26.259449005126953,-9.895071983337402,5.309601306915283
-26.614551544189453,-11.269598007202148,5.4685959815979
-26.681779861450195,-12.5850191116333,5.5818610191345215
-27.02730941772461,-14.10196304321289,5.768090724945068
-27.010324478149414,-15.50423812866211,5.892732620239258
-26.050739288330078,-16.37874412536621,5.822342395782471
-27.171443939208984,-18.647058486938477,6.2353291511535645
-24.71285629272461,-18.46274185180664,5.836751937866211
-22.544052124023438,-18.29840850830078,5.493828773498535
-20.610994338989258,-18.150297164916992,5.196380615234375
-18.538490295410156,-17.697086334228516,4.849331378936768
-17.888872146606445,-18.50638771057129,4.870089530944824
-16.831050872802734,-18.873699188232422,4.784815311431885
-17.002614974975586,-20.682050704956055,5.065873146057129
-16.340280532836914,-21.589120864868164,5.123001575469971
-17.695117950439453,-25.441965103149414,5.8637189865112305
-17.419658660888672,-27.325782775878906,6.13152551651001
-17.381101608276367,-29.84634780883789,6.5350341796875
-17.462848663330078,-32.964569091796875,7.058361530303955
-16.194168090820312,-33.784725189208984,7.088840484619141
-16.259084701538086,-37.7391242980957,7.775136470794678
-15.16180419921875,-39.48653030395508,8.003095626831055
-16.78303337097168,-49.57414627075195,9.902885437011719
-15.728838920593262,-53.43851852416992,10.539993286132812
-14.89155387878418,-59.291229248046875,11.566930770874023
-13.289153099060059,-63.63106155395508,12.299413681030273
-14.823004722595215,-88.63263702392578,17.003108978271484
-11.640560150146484,-92.24710083007812,17.592506408691406
51.44457244873047,-75.56130981445312,17.295982360839844
90.3051986694336,32.19206619262695,18.966522216796875
56.745689392089844,22.837383270263672,12.101177215576172
68.11250305175781,30.646162033081055,14.775992393493652
63.72990798950195,31.811891555786133,14.091320991516113
62.79866409301758,34.5654296875,14.181221961975098
62.33577346801758,37.64991760253906,14.406865119934082
28.585538864135742,18.872770309448242,6.77649450302124
25.508243560791016,18.3537540435791,6.21688985824585
22.91294288635254,17.926115036010742,5.755359649658203
20.641780853271484,17.5305233001709,5.3575849533081055
18.653207778930664,17.1781063079834,5.016644477844238
16.892993927001953,16.86049461364746,4.721735954284668
15.59520435333252,16.869075775146484,4.544882774353027
15.080634117126465,17.68796730041504,4.598448276519775
12.928868293762207,16.460113525390625,4.1407599449157715
7.344337463378906,10.1658935546875,2.481081485748291
13.411582946777344,20.22896957397461,4.8015971183776855
12.806706428527832,21.111705780029297,4.884965419769287
12.173604965209961,22.01660919189453,4.9770827293396
12.003645896911621,23.931901931762695,5.296685218811035
11.664422988891602,25.791860580444336,5.600022315979004
11.282001495361328,27.878093719482422,5.949705123901367
10.868314743041992,30.303253173828125,6.368881702423096
7.6624064445495605,24.408647537231445,5.061169624328613
8.21723461151123,30.39957046508789,6.229866981506348
6.752748966217041,29.665393829345703,6.01890754699707
5.376805782318115,28.95000648498535,5.825197696685791
3.8075461387634277,26.359806060791016,5.268949508666992
2.712573289871216,26.173023223876953,5.205610275268555
1.6461981534957886,26.05838394165039,5.16547155380249
0.601481020450592,26.25189971923828,5.194846153259277
-0.44234687089920044,25.605117797851562,5.066282749176025
-1.4361178874969482,24.967966079711914,4.947641372680664
-2.3839962482452393,24.339305877685547,4.83815336227417
-3.2896575927734375,23.7181453704834,4.737140655517578
-4.1564249992370605,23.103513717651367,4.6440043449401855
-4.98728609085083,22.494504928588867,4.558210372924805
-5.784947872161865,21.890262603759766,4.479279518127441
-6.55185604095459,21.289981842041016,4.406785488128662
-7.290223598480225,20.692888259887695,4.340354919433594
-8.002074241638184,20.098228454589844,4.279646873474121
-8.689270973205566,19.50527000427246,4.224358081817627
-9.353458404541016,18.913326263427734,4.174227714538574
-9.910476684570312,18.164541244506836,4.093596935272217
-10.500417709350586,17.531803131103516,4.042872905731201
-11.097623825073242,16.945295333862305,4.007272720336914
-11.677491188049316,16.357120513916016,3.975989580154419
-12.241133689880371,15.76659870147705,3.9488840103149414
-12.789538383483887,15.173081398010254,3.9258415699005127
-13.333276748657227,14.586407661437988,3.909583568572998
-13.733658790588379,13.862574577331543,3.8604445457458496
-14.095420837402344,13.128288269042969,3.810692071914673
-14.441349029541016,12.405374526977539,3.766340970993042
-14.77258586883545,11.692211151123047,3.7271223068237305
-15.090160369873047,10.987263679504395,3.6928133964538574
-15.394979476928711,10.289100646972656,3.6632230281829834
-15.687893867492676,9.596318244934082,3.6381804943084717
-15.77901840209961,8.801248550415039,3.5743677616119385
-15.596022605895996,7.895106792449951,3.4582157135009766
-16.26297950744629,7.427755355834961,3.537034749984741
-17.065645217895508,6.9800825119018555,3.6476263999938965
-17.423526763916016,6.322019100189209,3.666832208633423
-17.776704788208008,5.6530256271362305,3.6903507709503174
-11.861576080322266,3.253526449203491,2.4332802295684814
-11.774399757385254,2.726181983947754,2.3909809589385986
-18.3298282623291,3.474738359451294,3.6908013820648193
-17.75261688232422,2.6315324306488037,3.550424814224243
-8.878181457519531,0.9534290432929993,1.7664921283721924
-20.96616554260254,1.4026124477386475,4.157042980194092
-22.003246307373047,0.5857928991317749,4.354501247406006
-22.369163513183594,-0.3034546375274658,4.425754547119141
-22.730579376220703,-1.2228678464889526,4.503350257873535
-23.087623596191406,-2.174990177154541,4.587705135345459
-23.690757751464844,-3.1963491439819336,4.729269981384277
-24.043012619018555,-4.233459949493408,4.8296613693237305
-24.39102554321289,-5.312957763671875,4.9384870529174805
-24.734769821166992,-6.438624858856201,5.056408882141113
-25.074199676513672,-7.614749908447266,5.184194564819336
-25.409210205078125,-8.84599781036377,5.322688102722168
-25.73967170715332,-10.13775634765625,5.472864627838135
-26.06533432006836,-11.495976448059082,5.635828495025635
-26.1070499420166,-12.790763854980469,5.75139045715332
-26.41886329650879,-14.287070274353027,5.941821575164795
-25.879968643188477,-15.370302200317383,5.954789161682129
-25.112213134765625,-16.31341552734375,5.924252986907959
-26.1402587890625,-18.515771865844727,6.337274551391602
-23.808425903320312,-18.343626022338867,5.945947170257568
-21.742366790771484,-18.189327239990234,5.6080641746521
-19.893627166748047,-18.049577713012695,5.314094066619873
-18.339542388916016,-18.034700393676758,5.08852481842041
-17.279708862304688,-18.41524314880371,4.995847702026367
-17.1553897857666,-19.821731567382812,5.186114311218262
-16.97847557067871,-21.28880500793457,5.387016773223877
-17.879047393798828,-24.3649959564209,5.978712558746338
-17.66051483154297,-26.213401794433594,6.253001689910889
-16.98271942138672,-27.5330867767334,6.3997673988342285
-17.332698822021484,-30.805192947387695,6.992710113525391
-16.913484573364258,-33.10563659667969,7.354610443115234
-16.54507064819336,-35.872535705566406,7.815209865570068
-16.032480239868164,-38.78667449951172,8.30295181274414
-14.396736145019531,-39.22317123413086,8.265813827514648
-15.773138046264648,-48.971099853515625,10.178213119506836
-14.853428840637207,-53.37514877319336,10.960588455200195
-13.961187362670898,-59.29663848876953,12.051572799682617
-13.058176040649414,-67.51481628417969,13.604159355163574
-13.6815767288208,-89.99486541748047,18.00848960876465
-10.18106746673584,-91.60223388671875,18.23349380493164
70.86360931396484,-13.978767395019531,14.289281845092773
79.30929565429688,20.01775360107422,16.182022094726562
89.91978454589844,34.64738082885742,19.063926696777344
69.00224304199219,29.823644638061523,14.871383666992188
56.013736724853516,26.929758071899414,12.295500755310059
63.14426040649414,33.54487228393555,14.145318984985352
55.66730880737305,32.50507354736328,12.752805709838867
29.862823486328125,19.086042404174805,7.011388301849365
26.58513069152832,18.53628921508789,6.411618709564209
23.807697296142578,18.063234329223633,5.912139892578125
21.44402313232422,17.671031951904297,5.497152805328369
19.35824203491211,17.303773880004883,5.136651039123535
17.519100189208984,16.974140167236328,4.825819969177246
15.881101608276367,16.67510986328125,4.555603981018066
15.272809028625488,17.384267807006836,4.577898025512695
14.746048927307129,18.210886001586914,4.635714530944824
7.602381706237793,10.200801849365234,2.5168519020080566
7.099813461303711,10.371379852294922,2.486503839492798
13.033170700073242,20.78336524963379,4.853201866149902
12.410818099975586,21.679731369018555,4.942012310028076
12.11954402923584,23.29408073425293,5.1947479248046875
11.794256210327148,25.081125259399414,5.483095169067383
11.462620735168457,27.158632278442383,5.831811904907227
11.014222145080566,29.33316421508789,6.1986613273620605
10.381193161010742,31.429840087890625,6.548242092132568
8.782245635986328,30.67582893371582,6.312485694885254
7.2826409339904785,29.93415641784668,6.094691276550293
5.875070095062256,29.212064743041992,5.894818305969238
4.216583251953125,26.415775299072266,5.292057991027832
3.1111793518066406,26.219532012939453,5.223466873168945
2.0378355979919434,26.098289489746094,5.178806304931641
1.0004571676254272,26.49338150024414,5.244991302490234
-0.06298981606960297,25.84274673461914,5.112554550170898
-1.0747426748275757,25.202165603637695,4.990344047546387
-2.0391273498535156,24.570493698120117,4.877556324005127
-2.9599721431732178,23.946687698364258,4.7734880447387695
-3.840733051300049,23.32974624633789,4.6775102615356445
-4.6845221519470215,22.718759536743164,4.589064121246338
-5.494147300720215,22.112852096557617,4.507650852203369
-6.272130966186523,21.51120948791504,4.432826995849609
-7.020796298980713,20.913021087646484,4.364199638366699
-7.742216110229492,20.317546844482422,4.301413536071777
-8.438297271728516,19.72404670715332,4.24415922164917
-9.11080551147461,19.13180923461914,4.19215202331543
-9.760222434997559,18.538105010986328,4.144693374633789
-10.275301933288574,17.748062133789062,4.057139873504639
-10.87920093536377,17.162010192871094,4.019906044006348
-11.465339660644531,16.574525833129883,3.9870457649230957
-12.0348482131958,15.984947204589844,3.958413600921631
-12.58877182006836,15.392608642578125,3.9338831901550293
-13.131477355957031,14.800688743591309,3.9143693447113037
-13.595842361450195,14.136890411376953,3.880237102508545
-13.963761329650879,13.397974014282227,3.828418016433716
-14.315396308898926,12.67106819152832,3.7821035385131836
-14.651935577392578,11.95447826385498,3.741018533706665
-14.974438667297363,11.246678352355957,3.7049221992492676
-15.28386402130127,10.546171188354492,3.673609733581543
-15.58108901977539,9.851548194885254,3.646904945373535
-15.866891860961914,9.16147518157959,3.6246626377105713
-15.589529991149902,8.184586524963379,3.4833219051361084
-15.949984550476074,7.572756767272949,3.4930131435394287
-16.93221092224121,7.220552444458008,3.641603708267212
-17.291961669921875,6.56619119644165,3.6592445373535156
-17.646821975708008,5.9013800621032715,3.6811578273773193
-17.99730682373047,5.22479772567749,3.7074553966522217
-11.806132316589355,2.9187235832214355,2.4059553146362305
-18.304338455200195,3.752042293548584,3.6964714527130127
-18.52533721923828,3.0276098251342773,3.7135233879089355
-18.049074172973633,2.2096080780029297,3.597355842590332
-20.32992935180664,1.6633341312408447,4.035340785980225
-21.866979598999023,0.9069721698760986,4.329719066619873
-22.234588623046875,0.02825862169265747,4.39872932434082
-22.5976505279541,-0.879734456539154,4.473937034606934
-22.9562931060791,-1.8194626569747925,4.555744647979736
-23.310625076293945,-2.793623685836792,4.644599437713623
-23.9134521484375,-3.845796823501587,4.791646957397461
-24.26302719116211,-4.909210205078125,4.89728307723999
-24.608348846435547,-6.017377853393555,5.011765003204346
-24.949392318725586,-7.17433500289917,5.135810375213623
-25.28604507446289,-8.384669303894043,5.270248889923096
-25.61821174621582,-9.65343952178955,5.415994167327881
-25.9456787109375,-10.986371040344238,5.5740966796875
-25.99054718017578,-12.25898551940918,5.685032367706299
-26.304401397705078,-13.724773406982422,5.869629859924316
-26.612579345703125,-15.275920867919922,6.070536136627197
-24.716983795166016,-15.540175437927246,5.775987148284912
-27.08052635192871,-18.584665298461914,6.497664928436279
-24.63544273376465,-18.404903411865234,6.083618640899658
-22.477556228637695,-18.244443893432617,5.7272467613220215
-20.553491592407227,-18.09965705871582,5.418025016784668
-18.822017669677734,-17.96773910522461,5.147859573364258
-17.66745376586914,-18.27733039855957,5.028997421264648
-16.760007858276367,-18.79403305053711,4.9817423820495605
-17.045188903808594,-20.733837127685547,5.309990882873535
-16.382869720458984,-21.645389556884766,5.370423316955566
-17.743288040161133,-25.511219024658203,6.147618293762207
-17.512845993041992,-27.471975326538086,6.445242881774902
-17.433326721191406,-29.93602752685547,6.853368759155273
-17.244054794311523,-32.55154800415039,7.287549018859863
-16.66983413696289,-34.777099609375,7.6295952796936035
-16.317827224731445,-37.875457763671875,8.158817291259766
-14.994245529174805,-39.05015182495117,8.275320053100586
-16.752553939819336,-49.484127044677734,10.33536148071289
-15.454913139343262,-52.507896423339844,10.82839298248291
-14.861661911010742,-59.17222595214844,12.069770812988281
-13.365446090698242,-63.996368408203125,12.933728218078613
-14.157060623168945,-84.6507568359375,16.979267120361328
-11.414276123046875,-90.45393371582031,18.036645889282227
-6.422639846801758,-75.07282257080078,14.90610122680664
51.50324249267578,-75.64750671386719,18.10479164123535
90.14965057373047,32.136619567871094,19.761789321899414
56.64712142944336,22.79771614074707,12.608396530151367
66.86337280273438,30.08414077758789,15.139287948608398
63.641170501708984,31.767589569091797,14.687026023864746
63.20248794555664,34.787715911865234,14.896514892578125
54.965579986572266,33.198429107666016,13.258984565734863
28.138158798217773,18.577402114868164,6.962122440338135
25.141510009765625,18.08988380432129,6.395453453063965
22.608028411865234,17.687564849853516,5.927090644836426
20.385841369628906,17.313161849975586,5.522525787353516
18.436473846435547,16.978511810302734,5.175174236297607
16.708126068115234,16.675981521606445,4.8742756843566895
15.413066864013672,16.672056198120117,4.6882195472717285
14.110330581665039,16.549896240234375,4.490719795227051
12.809906005859375,16.30866050720215,4.282061576843262
7.362383842468262,10.19087028503418,2.5959365367889404
13.24620532989502,19.97953224182129,4.949763774871826
12.646079063415527,20.84691619873047,5.034627914428711
12.273841857910156,22.197891235351562,5.237496376037598
11.96936321258545,23.863557815551758,5.512508392333984
11.629204750061035,25.714000701904297,5.82725191116333
11.245821952819824,27.78868293762207,6.1899566650390625
10.83108901977539,30.19945526123047,6.624609470367432
7.677508354187012,24.456748962402344,5.29289436340332
7.991893768310547,29.565954208374023,6.323976993560791
6.573673248291016,28.87871551513672,6.115511417388916
5.238697052001953,28.206378936767578,5.9237494468688965
3.8148059844970703,26.410043716430664,5.509832382202148
2.7879812717437744,26.90060043334961,5.584279537200928
1.659227967262268,26.26456069946289,5.434006690979004
0.5876652002334595,25.649049758911133,5.297492027282715
-0.43243151903152466,25.031343460083008,5.169328689575195
-1.404673457145691,24.421281814575195,5.0509233474731445
-2.3329288959503174,23.817928314208984,4.941544532775879
-3.2206342220306396,23.220460891723633,4.8405375480651855
-4.070888996124268,22.6280574798584,4.74732780456543
-4.886507987976074,22.039962768554688,4.661396503448486
-5.670038223266602,21.455440521240234,4.582282543182373
-6.423775672912598,20.873794555664062,4.5095720291137695
-7.149816513061523,20.294343948364258,4.442901611328125
-7.850075721740723,19.71645164489746,4.381937503814697
-8.526302337646484,19.139461517333984,4.326389312744141
-9.179229736328125,18.561010360717773,4.275598049163818
-9.811859130859375,17.983797073364258,4.230085372924805
-10.309757232666016,17.213457107543945,4.14303731918335
-10.897855758666992,16.64026641845703,4.107212543487549
-11.468902587890625,16.064929962158203,4.075721740722656
-12.023932456970215,15.486845016479492,4.048431396484375
-12.703920364379883,15.071508407592773,4.0700812339782715
-13.170336723327637,14.408153533935547,4.030673980712891
-13.54660415649414,13.67376708984375,3.974375009536743
-13.905881881713867,12.951753616333008,3.923844575881958
-14.2493896484375,12.240478515625,3.878781795501709
-14.578241348266602,11.538393020629883,3.8389251232147217
-14.893442153930664,10.844032287597656,3.8040473461151123
-15.19587516784668,10.156028747558594,3.7739577293395996
-15.486371040344238,9.473045349121094,3.748491048812866
-15.76567268371582,8.793801307678223,3.727510690689087
-15.650949478149414,7.92291259765625,3.6221494674682617
-16.435321807861328,7.506468296051025,3.7308239936828613
-16.83563804626465,6.886004447937012,3.75581693649292
-17.187475204467773,6.236371040344238,3.7753255367279053
-17.534347534179688,5.575954437255859,3.799208402633667
-11.88552474975586,3.2600958347320557,2.5448100566864014
-11.797758102416992,2.7315914630889893,2.5004842281341553
-18.083572387695312,3.4280614852905273,3.8004379272460938
-17.76541519165039,2.6334292888641357,3.708348512649536
-19.201560974121094,2.0620651245117188,3.9875869750976562
-20.723682403564453,1.3863857984542847,4.288644790649414
-21.573745727539062,0.5743585824966431,4.4561967849731445
-21.92551040649414,-0.2974361777305603,4.5276689529418945
-22.272018432617188,-1.1981992721557617,4.6054487228393555
-22.613309860229492,-2.130307197570801,4.689945697784424
-23.194543838500977,-3.1294007301330566,4.832681179046631
-23.528959274291992,-4.142945289611816,4.933076858520508
-23.8580379486084,-5.196859359741211,5.041801929473877
-24.1816463470459,-6.294643878936768,5.1595001220703125
-24.499649047851562,-7.440264701843262,5.286901950836182
-24.81179428100586,-8.638011932373047,5.4248199462890625
-25.11781883239746,-9.892833709716797,5.574180603027344
-25.417327880859375,-11.210180282592773,5.736034870147705
-25.438152313232422,-12.463046073913574,5.849082946777344
-25.72016143798828,-13.909220695495605,6.037626266479492
-25.782272338867188,-15.312277793884277,6.191717624664307
-24.86968421936035,-16.155860900878906,6.123590469360352
-26.054954528808594,-18.455347061157227,6.592806339263916
-23.73552131652832,-18.287450790405273,6.186941623687744
-21.67955207824707,-18.13677978515625,5.836380958557129
-19.839168548583984,-18.000158309936523,5.531281471252441
-18.111961364746094,-17.81090545654297,5.2451324462890625
-17.069141387939453,-18.190837860107422,5.1507673263549805
-17.19758415222168,-19.8704891204834,5.426207065582275
-17.021860122680664,-21.343204498291016,5.636947154998779
-17.897979736328125,-24.390804290771484,6.246757984161377
-17.681373596191406,-26.244365692138672,6.5341386795043945
-17.09503746032715,-27.71518325805664,6.72379207611084
-17.196840286254883,-30.563730239868164,7.241278171539307
-16.720352172851562,-32.72760009765625,7.588555335998535
-16.60271644592285,-35.997520446777344,8.185371398925781
-15.85607624053955,-38.35992431640625,8.570677757263184
-14.8496732711792,-40.457149505615234,8.898675918579102
-15.884885787963867,-49.318023681640625,10.698542594909668
-14.872943878173828,-53.445274353027344,11.454902648925781
-14.036232948303223,-59.61537170410156,12.646175384521484
-13.137463569641113,-67.92473602294922,14.285250663757324
-12.686614036560059,-83.45006561279297,17.429035186767578
70.6739501953125,-13.941365242004395,14.874208450317383
79.14193725585938,19.975513458251953,16.853986740112305
90.37247467041016,30.71274757385254,19.708574295043945
70.09613037109375,27.009014129638672,15.510953903198242
67.7287826538086,29.273242950439453,15.235218048095703
55.98796844482422,26.917369842529297,12.827254295349121
63.550537109375,33.7607307434082,14.858853340148926
62.60240936279297,36.55459976196289,14.968695640563965
29.379514694213867,18.77714729309082,7.1995439529418945
26.191123962402344,18.26157569885254,6.592805862426758
23.48196792602539,17.816102981567383,6.086241722106934
21.17129135131836,17.4462890625,5.664559841156006
19.128002166748047,17.097965240478516,5.297499656677246
17.323200225830078,16.784334182739258,4.980519771575928
15.713351249694824,16.49897575378418,4.704585075378418
15.09315299987793,17.179786682128906,4.721874713897705
13.27627182006836,16.395761489868164,4.356165409088135
7.621329307556152,10.226227760314941,2.6334550380706787
7.085538387298584,10.35052490234375,2.590015172958374
12.870757102966309,20.524372100830078,5.002298355102539
12.253363609313965,21.404685974121094,5.092676162719727
12.085594177246094,23.228837966918945,5.406715393066406
11.75938892364502,25.006982803344727,5.705942630767822
11.426691055297852,27.07351303100586,6.067746639251709
10.977425575256348,29.235172271728516,6.44810152053833
10.08230972290039,30.524921417236328,6.637805461883545
8.538321495056152,29.823789596557617,6.405517578125
7.087159156799316,29.130632400512695,6.190446376800537
5.722404479980469,28.45296859741211,5.992708683013916
4.224585056304932,26.465869903564453,5.5339436531066895
3.1251280307769775,26.337051391601562,5.476313591003418
2.0690677165985107,26.498205184936523,5.488094329833984
0.9772629737854004,25.879247665405273,5.3474440574646
-0.061565473675727844,25.258480072021484,5.215473651885986
-1.051018238067627,24.64569854736328,5.0935540199279785
-1.9951002597808838,24.039974212646484,4.980918884277344
-2.897397041320801,23.440427780151367,4.876892566680908
-3.7611334323883057,22.846240997314453,4.780869960784912
-4.58923864364624,22.256643295288086,4.692306995391846
-5.384326934814453,21.67089080810547,4.610724925994873
-6.148808002471924,21.088258743286133,4.535696983337402
-6.884847640991211,20.508075714111328,4.466835975646973
-7.594414710998535,19.9296875,4.403800010681152
-8.279317855834961,19.352432250976562,4.346285820007324
-8.94121265411377,18.77568817138672,4.294020175933838
-9.580638885498047,18.19698715209961,4.246329307556152
-10.088075637817383,17.42467498779297,4.1573920249938965
-10.682758331298828,16.852113723754883,4.119928359985352
-11.259973526000977,16.277645111083984,4.086853981018066
-11.82080364227295,15.700647354125977,4.058025360107422
-12.390677452087402,15.150395393371582,4.041293621063232
-13.000020980834961,14.652520179748535,4.044635772705078
-13.4097261428833,13.943375587463379,3.994473695755005
-13.775134086608887,13.216985702514648,3.9418489933013916
-14.124324798583984,12.501943588256836,3.8947994709014893
-14.458471298217773,11.796630859375,3.8530478477478027
-14.778596878051758,11.099591255187988,3.816356897354126
-15.08564567565918,10.409392356872559,3.784519672393799
-15.380460739135742,9.724698066711426,3.757364511489868
-15.663818359375,9.044218063354492,3.7347412109375
-15.736180305480957,8.261576652526855,3.66983699798584
-15.992055892944336,7.592731475830078,3.655369520187378
-16.704370498657227,7.123396873474121,3.749699831008911
-17.05817413330078,6.477415561676025,3.7676191329956055
-17.40682601928711,5.821120738983154,3.7898731231689453
-17.750816345214844,5.1532416343688965,3.8165788650512695
-11.829700469970703,2.924550771713257,2.5161755084991455
-18.026538848876953,3.6950933933258057,3.7995615005493164
-18.301233291625977,2.9909846782684326,3.829019784927368
-18.11335563659668,2.2174768447875977,3.7680344581604004
-20.125469207763672,1.646599292755127,4.1694512367248535
-21.44251823425293,0.8893663883209229,4.431328296661377
-21.796241760253906,0.027701258659362793,4.500566482543945
-22.144685745239258,-0.8621007204055786,4.575973033905029
-22.48790740966797,-1.7823405265808105,4.657937049865723
-22.825918197631836,-2.735534191131592,4.746898174285889
-23.406108856201172,-3.7642054557800293,4.895071029663086
-23.73715591430664,-4.802809715270996,5.0006489753723145
-24.06281089782715,-5.883978843688965,5.114954471588135
-24.382902145385742,-7.01143741607666,5.238682746887207
-24.697250366210938,-8.189428329467773,5.372618198394775
-25.00556755065918,-9.422585487365723,5.517641544342041
-25.307531356811523,-10.716156959533691,5.674751281738281
-25.332124710083008,-11.948424339294434,5.7833075523376465
-25.616943359375,-13.366080284118652,5.966189384460449
-25.893909454345703,-14.863397598266602,6.164885520935059
-24.173870086669922,-15.19870662689209,5.896090984344482
-26.70325469970703,-18.32575035095215,6.6873040199279785
-24.558244705200195,-18.347238540649414,6.329745769500732
-22.411245346069336,-18.19062042236328,5.960052490234375
-20.49612045288086,-18.049135208129883,5.639158725738525
-18.50472068786621,-17.66484260559082,5.282388687133789
-17.45075225830078,-18.05314826965332,5.184524059295654
-17.2596378326416,-19.354299545288086,5.35459041595459
-17.088117599487305,-20.786056518554688,5.556145668029785
-16.498680114746094,-21.798404693603516,5.6448822021484375
-17.763412475585938,-25.54014778137207,6.4237141609191895
-17.563135147094727,-27.550859451293945,6.746395587921143
-17.27114486694336,-29.657529830932617,7.086506366729736
-17.04370880126953,-32.17336654663086,7.517847061157227
-16.72652816772461,-34.89536666870117,7.990301132202148
-16.37718963623047,-38.013221740722656,8.54655647277832
-14.829813003540039,-38.621910095214844,8.542468070983887
-16.72210121154785,-49.39413833618164,10.767683982849121
-15.232462882995605,-51.7520751953125,11.139211654663086
-14.586134910583496,-58.0752067565918,12.364004135131836
-13.442876815795898,-64.36711883544922,13.57750129699707
-13.399749755859375,-80.12248229980469,16.773731231689453
-6.401867866516113,-74.83030700683594,15.50765609741211
91.99462127685547,28.684720993041992,20.73383903503418
90.5227279663086,32.26961135864258,20.67779541015625
56.68601608276367,22.813371658325195,13.147475242614746
64.46834564208984,29.00653076171875,15.210658073425293
64.05079650878906,31.972074508666992,15.402972221374512
63.11373519897461,34.738868713378906,15.500965118408203
54.86501693725586,33.13768768310547,13.791112899780273
27.703109741210938,18.29016876220703,7.142641067504883
24.783979415893555,17.832632064819336,6.569545745849609
22.31011390686035,17.45448875427246,6.094879150390625
20.135324478149414,17.100406646728516,5.683974266052246
18.223995208740234,16.782838821411133,5.3305864334106445
16.526643753051758,16.494844436645508,5.024020195007324
15.234525680541992,16.478939056396484,4.8287224769592285
13.975016593933105,16.39118766784668,4.634634971618652
12.692719459533691,16.159469604492188,4.421257972717285
7.380578994750977,10.216057777404785,2.7117555141448975
11.458370208740234,17.28289794921875,4.461697101593018
12.488907814025879,20.587812423706055,5.1810784339904785
12.240514755249023,22.13760757446289,5.442857265472412
11.935159683227539,23.795358657836914,5.727838516235352
11.59408187866211,25.636335372924805,6.053890228271484
11.209744453430176,27.699562072753906,6.4294939041137695
10.793988227844238,30.09601402282715,6.879463195800781
7.6927170753479,24.505207061767578,5.526336193084717
7.7778778076171875,28.774188995361328,6.413364887237549
6.403288841247559,28.130189895629883,6.207432270050049
5.107057094573975,27.49763298034668,6.017675876617432
3.8229570388793945,26.466453552246094,5.753728866577148
2.721846580505371,26.26247787475586,5.681005477905273
1.6209062337875366,25.65790557861328,5.5316619873046875
0.574437141418457,25.07132339477539,5.395862102508545
-0.42292463779449463,24.480867385864258,5.268187046051025
-1.374472975730896,23.896265029907227,5.150114059448242
-2.2838408946990967,23.316740036010742,5.04093074798584
-3.154222249984741,22.741621017456055,4.940019607543945
-3.988524913787842,22.170242309570312,4.846817493438721
-4.789400577545166,21.601951599121094,4.760829448699951
-5.55922794342041,21.036144256591797,4.681607246398926
-6.30018949508667,20.47220802307129,4.608750820159912
-7.014257431030273,19.909582138061523,4.541903018951416
-7.703242301940918,19.347667694091797,4.480749130249023
-8.368205070495605,18.784557342529297,4.424674987792969
-9.011689186096191,18.22223663330078,4.374025344848633
-9.6346435546875,17.65898323059082,4.328306674957275
-10.125266075134277,16.905431747436523,4.239957809448242
-10.704501152038574,16.345029830932617,4.203943729400635
-11.266945838928223,15.782047271728516,4.172279357910156
-11.875090599060059,15.295135498046875,4.166403770446777
-12.483002662658691,14.809416770935059,4.16743278503418
-12.990286827087402,14.211183547973633,4.142703533172607
-13.363962173461914,13.489410400390625,4.085620880126953
-13.720744132995605,12.779318809509277,4.034367561340332
-14.061834335327148,12.079362869262695,3.9886438846588135
-14.388304710388184,11.38805866241455,3.9481916427612305
-14.701131820678711,10.704010963439941,3.9127860069274902
-15.001193046569824,10.025919914245605,3.8822333812713623
-15.289287567138672,9.352492332458496,3.856370210647583
-15.56614875793457,8.682512283325195,3.835057497024536
-15.901473999023438,8.049736022949219,3.83484148979187
-16.25932502746582,7.426084041595459,3.8460357189178467
-16.610990524291992,6.794120788574219,3.8614883422851562
-16.956954956054688,6.1527276039123535,3.8812756538391113
-17.297710418701172,5.500701904296875,3.9054975509643555
-11.909653663635254,3.266714096069336,2.6571767330169678
-11.821290969848633,2.737039089202881,2.610801935195923
-17.843032836914062,3.3824682235717773,3.907531499862671
-17.778278350830078,2.635335922241211,3.8670458793640137
-19.009496688842773,2.0414395332336426,4.113661289215088
-20.485942840576172,1.3704806566238403,4.4176716804504395
-21.159290313720703,0.5633238554000854,4.5543293952941895
-21.497671127319336,-0.2916317582130432,4.625950336456299
-21.83010482788086,-1.1744239330291748,4.703841686248779
-22.156564712524414,-2.087278366088867,4.7883992195129395
-22.71708869934082,-3.0649821758270264,4.93218469619751
-23.034765243530273,-4.0559282302856445,5.032496452331543
-23.34612464904785,-5.085354328155518,5.1410322189331055
-23.65094566345215,-6.156498908996582,5.258412837982178
-23.948986053466797,-7.273035049438477,5.385340213775635
-24.239910125732422,-8.43891716003418,5.522584438323975
-24.523311614990234,-9.658684730529785,5.67103910446167
-24.79869842529297,-10.937335968017578,5.831697940826416
-24.800539016723633,-12.15065860748291,5.942206859588623
-25.05523681640625,-13.549635887145996,6.128799915313721
-25.299833297729492,-15.025744438171387,6.331283092498779
-23.448511123657227,-15.232641220092773,6.016385078430176
-25.96990966796875,-18.395111083984375,6.8475422859191895
-23.662797927856445,-18.23142433166504,6.4272918701171875
-21.616886138916016,-18.084352493286133,6.064163684844971
-19.78480339050293,-17.950843811035156,5.748023986816406
-17.88920783996582,-17.591856002807617,5.398419380187988
-16.94117546081543,-18.054460525512695,5.327063083648682
-17.315744400024414,-20.007007598876953,5.693171501159668
-17.06561279296875,-21.398056030273438,5.889017105102539
-17.94593620300293,-24.456157684326172,6.526810646057129
-17.73093605041504,-26.317916870117188,6.8279128074646
-17.496803283691406,-28.366540908813477,7.171121597290039
-17.09939956665039,-30.39056396484375,7.502948760986328
-16.552608489990234,-32.39926528930664,7.828245162963867
-16.661842346191406,-36.125701904296875,8.559854507446289
-15.682931900024414,-37.94104766845703,8.833463668823242
-14.910021781921387,-40.621585845947266,9.310463905334473
-15.855668067932129,-49.22730255126953,11.127799987792969
-14.705423355102539,-52.84326171875,11.80201244354248
-14.112349510192871,-59.938663482666016,13.24928092956543
-13.199886322021484,-68.24742126464844,14.95651912689209
-14.412485122680664,-94.80256652832031,20.63247299194336
-10.553008079528809,-94.9488754272461,20.55536651611328
21.852088928222656,-50.048038482666016,11.750235557556152
70.48466491699219,-13.904019355773926,15.45801067352295
78.9992904663086,19.93950653076172,17.53087043762207
92.90623474121094,27.463459014892578,20.845169067382812
90.74689483642578,30.839996337890625,20.622207641601562
68.79898834228516,26.509214401245117,15.863935470581055
66.49732971191406,28.740995407104492,15.587055206298828
63.891998291015625,30.71737289428711,15.253511428833008
63.461517333984375,33.71343994140625,15.461828231811523
62.51408004760742,36.503021240234375,15.575966835021973
28.910030364990234,18.47708511352539,7.382325172424316
25.807331085205078,17.993982315063477,6.769297122955322
23.172136306762695,17.581026077270508,6.258426189422607
20.904523849487305,17.226451873779297,5.8283209800720215
18.902406692504883,16.896312713623047,5.455100059509277
17.1309871673584,16.598094940185547,5.132314205169678
15.548556327819824,16.325937271118164,4.850951671600342
14.479181289672852,16.480924606323242,4.72022819519043
13.152738571166992,16.24319839477539,4.497060775756836
7.64043664932251,10.251867294311523,2.7510461807250977
7.071273326873779,10.329689025878906,2.6934661865234375
12.71180248260498,20.270898818969727,5.148217678070068
12.345449447631836,21.565534591674805,5.346651554107666
12.051719665527344,23.16372299194336,5.618220329284668
11.724609375,24.933021545410156,5.928233623504639
11.390867233276367,26.988618850708008,6.3030104637146
10.940752029418945,29.137493133544922,6.69672966003418
9.80215835571289,29.67679214477539,6.724671363830566
8.30679988861084,29.015106201171875,6.493814468383789
6.901264190673828,28.36656379699707,6.281496524810791
5.5769782066345215,27.72991180419922,6.0859479904174805
4.32644510269165,27.104000091552734,5.905632019042969
3.143012523651123,26.487751007080078,5.73919153213501
2.020808696746826,25.88020133972168,5.585435390472412
0.9550490379333496,25.290966033935547,5.445583343505859
-0.060202181339263916,24.69817352294922,5.314170837402344
-1.0282384157180786,24.111482620239258,5.1926374435424805
-1.9527840614318848,23.530168533325195,5.080247402191162
-2.8372037410736084,22.953500747680664,4.976351737976074
-3.6845123767852783,22.380815505981445,4.880364418029785
-4.497439384460449,21.81145477294922,4.7917680740356445
-5.278465270996094,21.24479866027832,4.710095405578613
-6.029842376708984,20.680248260498047,4.634932518005371
-6.753625869750977,20.117202758789062,4.565905570983887
-7.451670169830322,19.555091857910156,4.502684116363525
-8.125694274902344,18.99334716796875,4.444969177246094
-8.77656364440918,18.429929733276367,4.392141819000244
-9.406942367553711,17.86709213256836,4.344625473022461
-10.009896278381348,17.28963851928711,4.298594951629639
-10.492648124694824,16.55221176147461,4.216726303100586
-11.061169624328613,15.990243911743164,4.183473587036133
-11.61353874206543,15.425357818603516,4.154482364654541
-12.286192893981934,15.022637367248535,4.1756792068481445
-12.814793586730957,14.44375228881836,4.154618740081787
-13.228032112121582,13.754443168640137,4.106000900268555
-13.59090805053711,13.040229797363281,4.05263090133667
-13.937657356262207,12.336715698242188,4.0048980712890625
-14.26940631866455,11.642372131347656,3.962528944015503
-14.587164878845215,10.955806732177734,3.925283908843994
-14.891843795776367,10.275666236877441,3.8929593563079834
-15.184273719787598,9.600654602050781,3.8653812408447266
-15.465201377868652,8.92953872680664,3.842402458190918
-15.767681121826172,8.278115272521973,3.831773281097412
-16.127952575683594,7.657251358032227,3.841409206390381
-16.48183250427246,7.028496265411377,3.855283260345459
-16.82985496520996,6.3907151222229,3.8734591007232666
-17.172481536865234,5.74275016784668,3.8960318565368652
-17.510173797607422,5.083380222320557,3.9231135845184326
-11.853445053100586,2.9304192066192627,2.6272175312042236
-17.78680992126465,3.645956039428711,3.906641721725464
-18.089397430419922,2.956369400024414,3.9438061714172363
-8.79806137084961,1.0770771503448486,1.9071589708328247
-19.9169921875,1.6295446157455444,4.299718379974365
-21.0328369140625,0.8723757266998291,4.5293989181518555
-21.373430252075195,0.027164220809936523,4.598794460296631
-21.708053588867188,-0.8451025485992432,4.6743292808532715
-22.036727905273438,-1.746580719947815,4.756374835968018
-22.359386444091797,-2.6796231269836426,4.84536075592041
-22.91820526123047,-3.6857407093048096,4.99453067779541
-23.231914520263672,-4.700582981109619,5.099961280822754
-23.539180755615234,-5.7559380531311035,5.213999271392822
-23.83975601196289,-6.855253219604492,5.337313652038574
-24.133350372314453,-8.002443313598633,5.470657825469971
-24.419586181640625,-9.201776504516602,5.614865779876709
-24.697996139526367,-10.458057403564453,5.770894527435303
-24.87547492980957,-11.733036041259766,5.9178009033203125
-24.962331771850586,-13.024521827697754,6.05813455581665
-25.210752487182617,-14.471259117126465,6.254572868347168
-24.086984634399414,-15.144079208374023,6.121880054473877
-23.55096435546875,-16.16242027282715,6.145826816558838
-24.481273651123047,-18.28973388671875,6.57517671585083
-22.345094680786133,-18.13692855834961,6.192279815673828
-20.438873291015625,-17.998722076416016,5.859816074371338
-18.421552658081055,-17.585460662841797,5.4797258377075195
-17.238590240478516,-17.833656311035156,5.336793899536133
-17.377656936645508,-19.48663902282715,5.617849349975586
-17.13141441345215,-20.83872413635254,5.804394721984863
-16.765043258666992,-22.150333404541016,5.97715950012207
-17.812360763549805,-25.610532760620117,6.712215423583984
-17.58570098876953,-27.586267471313477,7.0390472412109375
-17.228290557861328,-29.583946228027344,7.366101264953613
-16.8738956451416,-31.852802276611328,7.755845069885254
-16.78469467163086,-35.0167121887207,8.355167388916016
-16.278717041015625,-37.78466796875,8.852313041687012
-14.668411254882812,-38.20154571533203,8.804705619812012
-16.691144943237305,-49.302696228027344,11.199588775634766
-14.981369972229004,-50.89900588989258,11.41616439819336
-14.319746017456055,-57.01453399658203,12.648476600646973
-13.573468208312988,-64.99243927001953,14.285744667053223
-13.470861434936523,-80.54768371582031,17.571653366088867
-6.400539398193359,-74.81455993652344,16.156192779541016
9.959747314453125,-63.430442810058594,13.815164566040039
10.733899116516113,-13.32512092590332,3.6816022396087646
92.6943359375,24.86457061767578,21.485626220703125
90.36624908447266,32.21384048461914,21.477811813354492
66.7147445678711,26.849424362182617,16.099987030029297
64.98197174072266,29.237648010253906,15.95259952545166
55.82415771484375,27.86561393737793,13.968165397644043
63.02492141723633,34.68998336791992,16.105878829956055
30.643707275390625,18.508363723754883,8.014610290527344
27.27980613708496,18.010696411132812,7.318277359008789
24.435232162475586,17.581707000732422,6.739350318908691
