-42.07010269165039,27.649452209472656,8.661222457885742
-30.261497497558594,18.191272735595703,6.074640274047852
-29.63213348388672,16.22940444946289,5.812631607055664
-29.057706832885742,14.428866386413574,5.581650257110596
-28.529945373535156,12.7649507522583,5.377347469329834
-28.04209327697754,11.217507362365723,5.196194171905518
-28.13051986694336,9.961737632751465,5.134224891662598
-29.20832633972168,9.040422439575195,5.2603559494018555
-33.394920349121094,8.883122444152832,5.945234775543213
-36.05721664428711,8.055525779724121,6.356400489807129
-37.41563034057617,6.793743133544922,6.542437553405762
-37.22578048706055,5.2245378494262695,6.467286109924316
-36.75328063964844,3.659968376159668,6.354504108428955
-36.07521438598633,2.1335458755493164,6.217411518096924
-34.97460174560547,0.660804033279419,6.01828670501709
-34.66398239135742,-0.7381227016448975,5.96512508392334
-34.2275505065918,-2.1066925525665283,5.899814605712891
-34.187339782714844,-3.4872701168060303,5.912275314331055
-12.385296821594238,-1.7685556411743164,2.152446746826172
-12.276430130004883,-2.2595341205596924,2.147578239440918
-18.537315368652344,-4.188111782073975,3.269641876220703
-32.893001556396484,-8.834126472473145,5.859619140625
-33.8454704284668,-10.564704895019531,6.10004186630249
-33.22359085083008,-11.855056762695312,6.0689568519592285
-32.58901596069336,-13.127140998840332,6.044559478759766
-32.12787628173828,-14.467308044433594,6.062013626098633
-31.46146011352539,-15.716614723205566,6.050602436065674
-30.779552459716797,-16.95390510559082,6.045665264129639
-30.081138610839844,-18.18117904663086,6.0471673011779785
-29.36506462097168,-19.4003849029541,6.055121421813965
-28.630163192749023,-20.613401412963867,6.069564342498779
-27.712902069091797,-21.695114135742188,6.055120468139648
-26.94081687927246,-22.894376754760742,6.082620143890381
-26.14580726623535,-24.093055725097656,6.116879463195801
-24.770771026611328,-24.738332748413086,6.0229997634887695
-24.623580932617188,-26.651363372802734,6.2426886558532715
-22.52863311767578,-26.440128326416016,5.976237773895264
-20.176456451416016,-25.70352554321289,5.621858596801758
-18.085060119628906,-25.04924964904785,5.315433025360107
-16.50983428955078,-24.918766021728516,5.142743110656738
-15.190824508666992,-25.059276580810547,5.041629314422607
-15.054070472717285,-27.245899200439453,5.355459213256836
-15.507722854614258,-30.941797256469727,5.9545674324035645
-14.993864059448242,-33.18097686767578,6.2644147872924805
-14.424989700317383,-35.67595291137695,6.620627403259277
-13.788792610168457,-38.48335266113281,7.033055782318115
-12.7949800491333,-40.802268981933594,7.356893062591553
-11.402409553527832,-42.23457336425781,7.526412010192871
-14.860868453979492,-28.88909912109375,5.867691993713379
-15.204448699951172,-32.72591781616211,6.517566204071045
-14.652236938476562,-35.16979217529297,6.881404399871826
-14.036195755004883,-37.914161682128906,7.302066326141357
-12.883514404296875,-39.621185302734375,7.524991035461426
-11.531806945800781,-40.99666976928711,7.691964626312256
-10.109182357788086,-42.4066162109375,7.87388801574707
-8.608868598937988,-43.855098724365234,8.072052001953125
-7.023183822631836,-45.34673309326172,8.28794002532959
-5.343414306640625,-46.88663864135742,8.523237228393555
-3.5596415996551514,-48.48058319091797,8.779884338378906
-1.6066429615020752,-48.50478744506836,8.765487670898438
0.36442768573760986,-51.540313720703125,9.30918025970459
2.537273645401001,-53.65582275390625,9.70186996459961
4.868542194366455,-55.540374755859375,10.0698823928833
7.380855083465576,-57.52217102050781,10.474533081054688
10.098074913024902,-59.61430358886719,10.92060661315918
13.048492431640625,-61.83221435546875,11.413787841796875
16.171113967895508,-63.8206672668457,11.891241073608398
19.67520523071289,-66.33390808105469,12.496808052062988
7.692092418670654,-22.565635681152344,4.305975914001465
17.14486312866211,-44.37356185913086,8.591958045959473
31.472492218017578,-72.63279724121094,14.2971773147583
29.462127685546875,-61.13642120361328,12.257460594177246
24.861000061035156,-46.6937255859375,9.554466247558594
27.04885482788086,-46.22503662109375,9.673262596130371
28.65968894958496,-44.751033782958984,9.598169326782227
30.815876007080078,-44.109859466552734,9.718522071838379
33.024818420410156,-43.44394302368164,9.85637092590332
59.19465637207031,-71.69845581054688,16.792987823486328
38.149269104003906,46.84566879272461,10.911704063415527
-37.171875,64.6196517944336,13.464536666870117
-44.97943878173828,71.39430236816406,15.240608215332031
-44.48047637939453,64.68618774414062,14.178915023803711
-44.096160888671875,58.91019821166992,13.290691375732422
-22.844472885131836,28.09183120727539,6.539708137512207
-38.95875549316406,44.1581916809082,10.635950088500977
-37.19938659667969,38.89603805541992,9.720866203308105
-36.98411560058594,35.68399429321289,9.282218933105469
-39.29792785644531,34.979732513427734,9.502313613891602
-42.0930061340332,34.539363861083984,9.834458351135254
-41.70124435424805,31.502119064331055,9.439399719238281
-41.30432891845703,28.67098617553711,9.081304550170898
-30.83036231994629,19.613727569580078,6.599761009216309
-30.151979446411133,17.52179718017578,6.298657417297363
-29.536001205444336,15.611665725708008,6.033991813659668
-28.97274398803711,13.854718208312988,5.800445556640625
-28.454374313354492,12.22779655456543,5.59372615814209
-27.722248077392578,10.615252494812012,5.361571311950684
-28.26702880859375,9.540549278259277,5.388403415679932
-29.34490966796875,8.607786178588867,5.523443222045898
-34.29167175292969,8.579052925109863,6.384471893310547
-36.99275207519531,7.69022798538208,6.824286460876465
-36.44947814941406,6.061243534088135,6.6737213134765625
-35.9455451965332,4.502198219299316,6.543027877807617
-35.86015701293945,3.0345311164855957,6.500025749206543
-35.210044860839844,1.5586527585983276,6.365684509277344
-34.108482360839844,0.13835406303405762,6.160548686981201
-33.76103210449219,-1.2201616764068604,6.101722717285156
-33.49361801147461,-2.5607476234436035,6.067086219787598
-33.4293098449707,-3.911841869354248,6.079012870788574
-12.370888710021973,-1.9541722536087036,2.2620725631713867
-18.417245864868164,-3.673046112060547,3.3919355869293213
-24.239784240722656,-5.855747222900391,4.503999710083008
-33.074100494384766,-9.410964012145996,6.210782527923584
-33.05001449584961,-10.857049942016602,6.283159255981445
-32.436676025390625,-12.119705200195312,6.254140377044678
-31.996091842651367,-13.443354606628418,6.268332481384277
-31.35126495361328,-14.680852890014648,6.252588272094727
-30.69123649597168,-15.905099868774414,6.243433952331543
-30.015045166015625,-17.118022918701172,6.240835189819336
-29.32166290283203,-18.321514129638672,6.244778633117676
-28.610034942626953,-19.517358779907227,6.255275726318359
-27.878944396972656,-20.707372665405273,6.272385120391846
-26.969261169433594,-21.765932083129883,6.259538650512695
-26.199840545654297,-22.942691802978516,6.289959907531738
-25.334314346313477,-24.049985885620117,6.309195041656494
-23.86275863647461,-24.54933738708496,6.183523654937744
-23.88309097290039,-26.631898880004883,6.461008548736572
-21.651363372802734,-26.187814712524414,6.137142181396484
-19.397851943969727,-25.48107147216797,5.78408145904541
-17.387073516845703,-24.851139068603516,5.477989673614502
-15.893392562866211,-24.779062271118164,5.316956520080566
-15.44350814819336,-26.350217819213867,5.516406059265137
-15.024772644042969,-28.17228126525879,5.766739368438721
-15.394577026367188,-31.888471603393555,6.395569801330566
-14.862885475158691,-34.23561096191406,6.741029739379883
-14.354789733886719,-37.07582473754883,7.180840969085693
-13.365865707397461,-39.12129211425781,7.46689510345459
-12.038812637329102,-40.48500061035156,7.628637313842773
-10.643121719360352,-41.88176345825195,7.804898738861084
-9.17231559753418,-43.315521240234375,7.996906757354736
-7.619101524353027,-44.7906494140625,8.20606803894043
-5.9751362800598145,-46.3121223449707,8.433990478515625
-4.230993747711182,-47.88541793823242,8.682512283325195
-2.261445999145508,-47.12977600097656,8.52213191986084
-0.3857901096343994,-49.68437194824219,8.974006652832031
1.7075648307800293,-52.658443450927734,9.515893936157227
3.987828254699707,-54.83384704589844,9.929964065551758
6.430737018585205,-56.778316497802734,10.320576667785645
9.069242477416992,-58.828033447265625,10.750743865966797
11.929969787597656,-60.99756622314453,11.225807189941406
15.044442176818848,-63.30406951904297,11.75210952758789
18.342975616455078,-65.38521575927734,12.265457153320312
22.193403244018555,-68.41386413574219,12.990459442138672
26.32925033569336,-71.2717056274414,13.72301959991455
30.341732025146484,-72.97208404541016,14.273772239685059
28.585302352905273,-61.638771057128906,12.2717924118042
30.94502830505371,-60.25911331176758,12.234918594360352
26.14206886291504,-46.23561477661133,9.59325122833252
27.8976993560791,-45.01806640625,9.56561279296875
30.013364791870117,-44.34835433959961,9.671886444091797
32.20573806762695,-43.697181701660156,9.804330825805664
-47.08317565917969,84.73344421386719,17.50806427001953
-45.8561897277832,75.23814392089844,15.914179801940918
-44.63594436645508,67.02057647705078,14.54383659362793
-44.26116943359375,60.9963264465332,13.61170768737793
-43.645751953125,55.328147888183594,12.728080749511719
-39.69812774658203,46.36489486694336,11.024384498596191
-37.8115348815918,40.72890853881836,10.037636756896973
-37.061309814453125,36.83563232421875,9.43772029876709
-38.43427658081055,35.24661636352539,9.41888427734375
-25.922922134399414,21.922521591186523,6.1318559646606445
-41.846519470214844,32.59812927246094,9.580709457397461
-41.451454162597656,29.693904876708984,9.209500312805176
-41.05146789550781,26.97998046875,8.87247371673584
-30.39459800720215,18.271276473999023,6.405263900756836
-29.756820678710938,16.29768943786621,6.127828598022461
-29.17510223388672,14.487157821655273,5.88334321975708
-28.640974044799805,12.81463623046875,5.66716194152832
-28.14753532409668,11.259695053100586,5.475531578063965
-27.879863739013672,9.872980117797852,5.341935157775879
-28.94172477722168,8.95791244506836,5.47197151184082
-33.356014251708984,8.87276840209961,6.234087944030762
-36.01230239868164,8.04549503326416,6.664700984954834
-36.63420104980469,6.651856422424316,6.72486686706543
-36.13221740722656,5.071056842803955,6.589974403381348
-36.11997604370117,3.59690260887146,6.556069374084473
-35.437496185302734,2.095829963684082,6.411718368530273
-34.77655792236328,0.6570664644241333,6.282284259796143
-33.97196960449219,-0.7233931422233582,6.137228012084961
-33.55265808105469,-2.0651497840881348,6.071558952331543
-33.50790023803711,-3.417968988418579,6.0834150314331055
-12.422104835510254,-1.7738105058670044,2.26637601852417
-12.284183502197266,-2.260960578918457,2.2559757232666016
-18.5692195892334,-4.195320129394531,3.4384069442749023
-32.25977325439453,-8.66404914855957,6.033057689666748
-33.2732048034668,-10.386072158813477,6.295607566833496
-32.66465377807617,-11.655614852905273,6.264067649841309
-32.04292297363281,-12.907169342041016,6.239306449890137
-31.59107780456543,-14.225584030151367,6.257628917694092
-30.936756134033203,-15.454501152038574,6.246052265167236
-30.266643524169922,-16.671384811401367,6.241036415100098
-29.579744338989258,-17.878135681152344,6.242560386657715
-28.874980926513672,-19.076602935791016,6.250634670257568
-28.151216506958008,-20.26856231689453,6.265295505523682
-27.247722625732422,-21.330947875976562,6.250022888183594
-26.486574172973633,-22.50836181640625,6.277932167053223
-25.702531814575195,-23.684585571289062,6.312687873840332
-23.78017234802246,-23.74903106689453,6.0701422691345215
-24.200115203857422,-26.19301414489746,6.440929889678955
-22.555395126342773,-26.471532821655273,6.281371116638184
-20.19900131225586,-25.732242584228516,5.908476829528809
-18.10416603088379,-25.07571029663086,5.58608865737915
-16.38129234313965,-24.724756240844727,5.356871128082275
-15.124051094055176,-24.949119567871094,5.269488334655762
-15.18347454071045,-27.480104446411133,5.670539855957031
-15.578097343444824,-31.082210540771484,6.279529571533203
-15.06546401977539,-33.33943176269531,6.607853889465332
-14.497815132141113,-35.85603332519531,6.985480308532715
-13.83969783782959,-38.62539291381836,7.410617351531982
-12.536450386047363,-39.977848052978516,7.567290782928467
-11.166828155517578,-41.36195755004883,7.7380523681640625
-15.77525520324707,-30.666627883911133,6.525143146514893
-15.276620864868164,-32.881256103515625,6.860143661499023
-14.725687026977539,-35.34609603881836,7.245023727416992
-13.895975112915039,-37.53539276123047,7.573139667510986
-12.629009246826172,-38.83849334716797,7.727372646331787
-11.299051284790039,-40.1692008972168,7.895374298095703
-9.90041446685791,-41.53085708618164,8.078251838684082
-8.426706314086914,-42.9271125793457,8.277259826660156
-6.870688438415527,-44.36207580566406,8.493825912475586
-5.22415828704834,-45.84029769897461,8.729592323303223
-3.477869749069214,-47.36681365966797,8.986411094665527
-1.5397324562072754,-46.48518371582031,8.800294876098633
0.35522913932800293,-50.2398681640625,9.50613021850586
2.4578962326049805,-51.97740173339844,9.845640182495117
4.740689277648926,-54.0818977355957,10.27208137512207
7.179470062255859,-55.952598571777344,10.673601150512695
9.811144828796387,-57.920345306396484,11.115232467651367
12.661468505859375,-59.99825668334961,11.602310180664062
15.664589881896973,-61.82162857055664,12.06694221496582
19.034448623657227,-64.17362976074219,12.665167808532715
22.860078811645508,-67.0626449584961,13.405887603759766
17.1502685546875,-44.38760757446289,9.003684043884277
31.49270248413086,-72.6794662475586,14.9871826171875
28.51166343688965,-59.164146423339844,12.426531791687012
24.670740127563477,-46.33637237548828,9.93255615234375
26.841346740722656,-45.87040710449219,10.055866241455078
28.6787052154541,-44.78073501586914,10.061606407165527
30.836576461791992,-44.139495849609375,10.187854766845703
33.0536994934082,-43.48194885253906,10.334455490112305
59.12200164794922,-71.61045837402344,17.570556640625
38.058349609375,46.73401641845703,11.403739929199219
-44.47410583496094,77.3138427734375,16.876209259033203
-43.36357498168945,68.82950592041016,15.392339706420898
-43.048980712890625,62.604454040527344,14.375652313232422
-42.69783020019531,57.04210662841797,13.481651306152344
-22.90484046936035,28.166074752807617,6.869032859802246
-39.24626159667969,44.48408126831055,11.22433090209961
-37.450138092041016,39.158233642578125,10.252121925354004
-36.95784378051758,35.658660888671875,9.717052459716797
-39.26938247680664,34.95431137084961,9.947285652160645
-25.493877410888672,20.918962478637695,6.239748001098633
-24.98580551147461,18.874876022338867,5.92487907409668
-40.302520751953125,27.975582122802734,9.282732009887695
-30.971145629882812,19.703289031982422,6.945404529571533
-30.283355712890625,17.59814453125,6.627155303955078
-29.659263610839844,15.676815032958984,6.347525596618652
-29.088958740234375,13.910299301147461,6.100857734680176
-28.56442642211914,12.275081634521484,5.882591724395752
-28.079103469848633,10.751903533935547,5.689026832580566
-28.014493942260742,9.455309867858887,5.594397068023682
-31.812204360961914,9.331520080566406,6.272808074951172
-34.250667572021484,8.568794250488281,6.680305480957031
-36.21699523925781,7.528963088989258,6.9991302490234375
-35.707176208496094,5.937806129455566,6.848935604095459
-35.22755432128906,4.412267684936523,6.717487812042236
-35.161376953125,2.975395441055298,6.676664352416992
-34.64590835571289,1.5336787700653076,6.561775207519531
-33.91197204589844,0.13755738735198975,6.416541576385498
-33.21275329589844,-1.2003462314605713,6.2882914543151855
-32.89054489135742,-2.5146405696868896,6.2413716316223145
-32.76432418823242,-3.8340280055999756,6.241629600524902
-12.407803535461426,-1.9600023031234741,2.376793622970581
-18.487085342407227,-3.6869747638702393,3.5668296813964844
-24.290660858154297,-5.868038177490234,4.728246688842773
-32.47876739501953,-9.241569519042969,6.389232635498047
-32.49993896484375,-10.676345825195312,6.472620010375977
-31.89925765991211,-11.918902397155762,6.443220138549805
-31.467836380004883,-13.221406936645508,6.458221435546875
-30.83493995666504,-14.43907356262207,6.442265510559082
-30.186500549316406,-15.643532752990723,6.4329938888549805
-29.521629333496094,-16.836624145507812,6.43035888671875
-28.83935546875,-18.0201473236084,6.434351921081543
-28.13865852355957,-19.195789337158203,6.4449896812438965
-27.41836929321289,-20.36528205871582,6.4623284339904785
-26.52205467224121,-21.40500831604004,6.448688983917236
-25.763320922851562,-22.56043815612793,6.4795050621032715
-24.981163024902344,-23.7147216796875,6.517314434051514
-23.73874282836914,-24.42174530029297,6.444120407104492
-23.47686767578125,-26.178924560546875,6.653358459472656
-21.676597595214844,-26.218334197998047,6.436694622039795
-19.419153213500977,-25.509057998657227,6.065991401672363
-17.095626831054688,-24.434581756591797,5.642490386962891
-15.771142959594727,-24.588483810424805,5.527148723602295
-15.50904369354248,-26.46202278137207,5.803444862365723
-15.091436386108398,-28.297279357910156,6.067978382110596
-15.466278076171875,-32.036983489990234,6.731129169464111
-14.93586540222168,-34.40371322631836,7.096500396728516
-14.348898887634277,-37.06060028076172,7.519472599029541
-13.103836059570312,-38.354339599609375,7.668877601623535
-11.797786712646484,-39.674461364746094,7.831672191619873
-10.425211906433105,-41.02426528930664,8.008920669555664
-8.98000431060791,-42.407325744628906,8.201814651489258
-7.455255508422852,-43.82748794555664,8.411727905273438
-5.84315824508667,-45.2891960144043,8.64019775390625
-4.134848117828369,-46.79726028442383,8.889015197753906
-2.23142147064209,-46.50419998168945,8.809189796447754
-0.3853766918182373,-49.63075637817383,9.390928268432617
1.6648759841918945,-51.341976165771484,9.719529151916504
3.884514331817627,-53.41340637207031,10.133049011230469
6.257774353027344,-55.251220703125,10.520930290222168
8.815428733825684,-57.18168640136719,10.94717788696289
11.581764221191406,-59.21728515625,11.416797637939453
14.58537483215332,-61.37249755859375,11.935720443725586
17.756298065185547,-63.293968200683594,12.43819808959961
21.44727325439453,-66.11380004882812,13.151144027709961
25.395904541015625,-68.74517822265625,13.866472244262695
29.766576766967773,-71.58879852294922,14.669587135314941
33.43548583984375,-72.09728240966797,15.037094116210938
28.218887329101562,-54.95052719116211,11.688024520874023
25.933231353759766,-45.86625289916992,9.969500541687012
27.89510726928711,-45.0139045715332,10.019903182983398
30.033443450927734,-44.37801742553711,10.13893985748291
32.22758483886719,-43.726810455322266,10.277877807617188
-44.67721939086914,80.40354919433594,17.404033660888672
-43.66168212890625,71.6375503540039,15.873687744140625
-43.14449691772461,64.78117370605469,14.726883888244629
-42.81453323364258,59.00271987915039,13.7933988571167
-42.3997917175293,53.74869155883789,12.953156471252441
-41.32105255126953,48.26034164428711,12.021154403686523
-38.074764251708984,41.0124397277832,10.588521957397461
-37.03521728515625,36.80968475341797,9.87988567352295
-38.43034362792969,35.24300003051758,9.866106033325195
-25.69347381591797,21.728479385375977,6.366804599761963
-25.168195724487305,19.605833053588867,6.036444187164307
-40.4322395324707,28.963783264160156,9.41054630279541
-40.041221618652344,26.316024780273438,9.065967559814453
-30.5292911529541,18.352256774902344,6.739821910858154
-29.88294792175293,16.36676788330078,6.446656703948975
-29.293811798095703,14.546109199523926,6.188405513763428
-28.753210067749023,12.864852905273438,5.960124492645264
-28.25409507751465,11.30232048034668,5.7578229904174805
-27.73935317993164,9.82321834564209,5.5679473876953125
-28.67919158935547,8.876652717590332,5.6803741455078125
-33.310306549072266,8.860611915588379,6.521817207336426
-35.967376708984375,8.035457611083984,6.973158836364746
-35.88251876831055,6.515373229980469,6.9003472328186035
-35.405418395996094,4.969050884246826,6.764719009399414
-35.376609802246094,3.5228781700134277,6.726718425750732
-34.83956527709961,2.060464382171631,6.603513717651367
-34.215087890625,0.646454930305481,6.474997520446777
-33.067874908447266,-0.7041393518447876,6.25819206237793
-32.993587493896484,-2.0307364463806152,6.254517555236816
-32.83464431762695,-3.3492960929870605,6.244866371154785
-12.459242820739746,-1.77911376953125,2.3813304901123047
-12.320737838745117,-2.2676892280578613,2.370366096496582
-18.60132598876953,-4.202572345733643,3.6082653999328613
-31.649110794067383,-8.500046730041504,6.200532913208008
-32.718345642089844,-10.212878227233887,6.485226154327393
-32.12262725830078,-11.462202072143555,6.453274726867676
-31.51327133178711,-12.69382095336914,6.428191184997559
-31.070384979248047,-13.99111270904541,6.4473772048950195
-30.427785873413086,-15.200242042541504,6.435641288757324
-29.769088745117188,-16.397321701049805,6.430560111999512
-29.09335708618164,-17.58416175842285,6.432107448577881
-28.39957618713379,-18.76252555847168,6.4402875900268555
-27.68667221069336,-19.93408966064453,6.455141544342041
-26.79657554626465,-20.977766036987305,6.439047813415527
-26.046113967895508,-22.134052276611328,6.467319011688232
-25.272777557373047,-23.288572311401367,6.50252628326416
-23.537769317626953,-23.506946563720703,6.294195175170898
-22.641260147094727,-24.50580596923828,6.3128204345703125
-22.58229637145996,-26.50310707092285,6.588141441345215
-20.221656799316406,-25.761110305786133,6.196598529815674
-18.123369216918945,-25.102304458618164,5.858131408691406
-16.25436782836914,-24.533180236816406,5.568314552307129
-15.654860496520996,-25.824766159057617,5.713998317718506
-15.249713897705078,-27.599994659423828,5.966314792633057
-15.649328231811523,-31.224340438842773,6.60844612121582
-15.137970924377441,-33.49989318847656,6.955632209777832
-14.571595191955566,-36.03852081298828,7.355157852172852
-13.570377349853516,-37.873748779296875,7.612208366394043
-12.287430763244629,-39.183773040771484,7.7699456214904785
-10.940113067626953,-40.5222053527832,7.941722869873047
-15.7263822555542,-30.571638107299805,6.801366329193115
-15.349712371826172,-33.03856658935547,7.20707893371582
-14.800113677978516,-35.524749755859375,7.613472938537598
-13.631233215332031,-36.82029342651367,7.767402172088623
-12.3836030960083,-38.083797454833984,7.922515869140625
-11.074808120727539,-39.37201690673828,8.09134292602539
-9.699479103088379,-40.68795394897461,8.274950981140137
-8.251551628112793,-42.03485107421875,8.474568367004395
-6.7242207527160645,-43.416378021240234,8.691570281982422
-5.109765529632568,-44.83654022216797,8.927545547485352
-3.2447965145111084,-44.19257354736328,8.766265869140625
-1.5131515264511108,-45.68218994140625,9.042378425598145
0.3467135429382324,-49.03615188598633,9.701189041137695
2.3970117568969727,-50.689674377441406,10.03927230834961
4.6190080642700195,-52.69380187988281,10.464521408081055
6.988177299499512,-54.46186447143555,10.862661361694336
9.539228439331055,-56.315101623535156,11.299664497375488
12.29562759399414,-58.26465606689453,11.780515670776367
15.28499984741211,-60.32356262207031,12.311107635498047
18.43226432800293,-62.14341735839844,12.82338809967041
22.10030174255371,-64.83375549316406,13.550928115844727
26.003334045410156,-67.30071258544922,14.27353286743164
30.335172653198242,-70.00804901123047,15.094181060791016
27.61787986755371,-57.30949783325195,12.585518836975098
24.482789993286133,-45.98335647583008,10.306061744689941
26.588457107543945,-45.438255310058594,10.415054321289062
28.697813034057617,-44.810569763183594,10.527132034301758
30.85738754272461,-44.16927719116211,10.659310340881348
33.07632064819336,-43.5117073059082,10.812795639038086
59.27447509765625,-71.79515075683594,18.41863441467285
37.96758270263672,46.62255096435547,11.894979476928711
-43.171539306640625,82.55490112304688,18.430410385131836
-42.003326416015625,73.01861572265625,16.664968490600586
-41.918617248535156,66.53595733642578,15.557497024536133
-41.6916618347168,60.63056945800781,14.556835174560547
-41.364654541015625,55.26105499267578,13.65589714050293
-22.96571922302246,28.240928649902344,7.20114803314209
-39.538963317871094,44.81584167480469,11.823352813720703
-37.705078125,39.42478942871094,10.79228401184082
-37.0032958984375,35.7025146484375,10.172355651855469
-39.24078369140625,34.92885208129883,10.393017768859863
-25.273944854736328,20.738500595092773,6.467817306518555
-24.781044006347656,18.720195770263672,6.144113063812256
-24.327407836914062,16.886619567871094,5.858583450317383
-31.113672256469727,19.793968200683594,7.295332431793213
-30.416301727294922,17.675395965576172,6.959574222564697
-29.78395652770996,15.742729187011719,6.664690017700195
-29.20647621154785,13.966485977172852,6.404640197753906
-28.67568588256836,12.322895050048828,6.174622058868408
-28.184856414794922,10.792394638061523,5.970682144165039
-27.765640258789062,9.371319770812988,5.797381401062012
-31.776412963867188,9.321019172668457,6.5512800216674805
-34.20964050292969,8.558527946472168,6.976360321044922
-35.47081756591797,7.373836994171143,7.167305946350098
-34.992286682128906,5.818926811218262,7.017675399780273
-34.535545349121094,4.325595378875732,6.8856353759765625
-34.07060241699219,2.883089780807495,6.764361381530762
-34.067779541015625,1.5080881118774414,6.74631404876709
-33.34006881713867,0.13523554801940918,6.5958051681518555
-32.370479583740234,-1.1699057817459106,6.408115386962891
-32.291419982910156,-2.4688360691070557,6.406920909881592
-32.1362419128418,-3.7605271339416504,6.400956630706787
-12.445055961608887,-1.9658868312835693,2.492565631866455
-18.557682037353516,-3.701054096221924,3.743614912033081
-24.34191131591797,-5.8804216384887695,4.954148769378662
-31.88028907775879,-9.071273803710938,6.557294845581055
-31.96622657775879,-10.501021385192871,6.656445026397705
-31.37775421142578,-11.724050521850586,6.626702308654785
-30.955154418945312,-13.006000518798828,6.642513751983643
-30.333791732788086,-14.204401969909668,6.626368522644043
-29.696596145629883,-15.3896484375,6.616983413696289
-29.042701721191406,-16.563488006591797,6.61431884765625
-28.3712158203125,-17.72762680053711,6.618359088897705
-27.681135177612305,-18.883678436279297,6.629127502441406
-26.971385955810547,-20.03327751159668,6.646668434143066
-26.08810043334961,-21.054773330688477,6.632234573364258
-25.33979034423828,-22.189565658569336,6.663409233093262
-24.56814193725586,-23.32264518737793,6.7016448974609375
-22.708019256591797,-23.361377716064453,6.445235729217529
-22.260311126708984,-24.822359085083008,6.596078395843506
-21.701953887939453,-26.2490177154541,6.737893581390381
-19.440568923950195,-25.53719139099121,6.349422454833984
-17.42333984375,-24.902971267700195,6.012713432312012
-15.650396347045898,-24.400224685668945,5.734776020050049
-15.575345993041992,-26.57515525817871,6.093852996826172
-15.158906936645508,-28.42378807067871,6.372864246368408
-15.538873672485352,-32.18737030029297,7.070908546447754
-15.00979995727539,-34.57402801513672,7.456630706787109
-14.077434539794922,-36.359466552734375,7.7133941650390625
-12.85109806060791,-37.61456298828125,7.863701343536377
-11.565505981445312,-38.893314361572266,8.027342796325684
-10.215400695800781,-40.198631286621094,8.205365180969238
-8.795011520385742,-41.53371810913086,8.398920059204102
-7.297837734222412,-42.902015686035156,8.609333038330078
-5.716488838195801,-44.30744552612305,8.838107109069824
-4.042698383331299,-45.75425720214844,9.086945533752441
-2.2220966815948486,-46.30978012084961,9.172125816345215
-0.3762471675872803,-48.455726623535156,9.586406707763672
1.624145269393921,-50.085880279541016,9.913825988769531
3.786149501800537,-52.0605583190918,10.326478958129883
6.093364715576172,-53.79966354370117,10.711371421813965
8.574713706970215,-55.62023162841797,11.133484840393066
11.2523193359375,-57.5328369140625,11.597511291503906
14.152206420898438,-59.54973602294922,12.108999252319336
17.199260711669922,-61.308349609375,12.59702205657959
20.747516632080078,-63.95676803588867,13.301836013793945
24.523845672607422,-66.38455200195312,14.000516891479492
28.6873779296875,-68.99327087402344,14.78199577331543
30.201210021972656,-65.12318420410156,14.201481819152832
25.901519775390625,-50.43791961669922,11.217073440551758
25.727060317993164,-45.501609802246094,10.340941429138184
27.913625717163086,-45.04376983642578,10.483469009399414
30.053607940673828,-44.40781021118164,10.60809326171875
32.249515533447266,-43.75657272338867,10.753559112548828
59.359737396240234,-74.1109848022461,18.784740447998047
-43.82217788696289,86.91511535644531,19.256540298461914
-42.92466735839844,77.24955749511719,17.483322143554688
-42.06896209716797,69.02428436279297,15.991612434387207
-41.80174255371094,62.765071868896484,14.918780326843262
-41.49470138549805,57.18385314941406,13.977388381958008
-41.193965911865234,52.22011184692383,13.158287048339844
-40.09342575073242,46.82657241821289,12.19554328918457
-38.342533111572266,41.300872802734375,11.148906707763672
-37.009063720703125,36.78369903564453,10.322824478149414
-38.370391845703125,35.18805694580078,10.299627304077148
-25.467344284057617,21.537254333496094,6.598360061645508
-24.958086013793945,19.442161560058594,6.258838176727295
-24.490751266479492,17.544048309326172,5.959952354431152
-24.058591842651367,15.811863899230957,5.695483684539795
-30.665603637695312,18.43419647216797,7.078421592712402
-30.010547637939453,16.436655044555664,6.769215106964111
-29.41386604309082,14.605720520019531,6.496931552886963
-28.866682052612305,12.915621757507324,6.256322860717773
-28.36179542541504,11.345401763916016,6.043157577514648
-27.639572143554688,9.787878036499023,5.80073881149292
-30.952598571777344,9.580307960510254,6.410034656524658
-33.271339416503906,8.850245475769043,6.811042785644531
-35.68049621582031,7.9713640213012695,7.2327752113342285
-35.15884017944336,6.383967876434326,7.069293975830078
-34.70512390136719,4.870767593383789,6.933091163635254
-34.24320983886719,3.4100091457366943,6.807929039001465
-34.22889709472656,2.024353504180908,6.783419609069824
-33.633174896240234,0.635459303855896,6.654919624328613
-32.893524169921875,-0.7004261016845703,6.508882999420166
-32.4250602722168,-1.9957449436187744,6.426851272583008
-32.122493743896484,-3.276658296585083,6.38783597946167
-12.496721267700195,-1.7844655513763428,2.4973363876342773
-12.357629776000977,-2.2744789123535156,2.485804796218872
-18.63364601135254,-4.209875106811523,3.7792510986328125
-31.06243896484375,-8.342487335205078,6.362917423248291
-32.180023193359375,-10.044840812683105,6.669193267822266
-31.596668243408203,-11.274528503417969,6.636873245239258
-30.999267578125,-12.486776351928711,6.611495018005371
-30.56502342224121,-13.763545989990234,6.631538391113281
-29.93375015258789,-14.953449249267578,6.61966609954834
-29.2861328125,-16.131301879882812,6.6145219802856445
-28.621246337890625,-17.298816680908203,6.616089820861816
-27.93815040588379,-18.45767593383789,6.6243672370910645
-27.235801696777344,-19.60947608947754,6.639398097991943
-26.5130558013916,-20.755813598632812,6.66124963760376
-25.618724822998047,-21.770856857299805,6.6510844230651855
-24.855867385864258,-22.90439224243164,6.686691761016846
-23.570240020751953,-23.539369583129883,6.59010648727417
-22.3652286529541,-24.207046508789062,6.5200276374816895
-22.54637336730957,-26.460948944091797,6.877401351928711
-20.244441986083984,-25.790136337280273,6.486278533935547
-18.14266586303711,-25.129037857055664,6.131613731384277
-16.12899398803711,-24.34395980834961,5.777159214019775
-15.720746994018555,-25.9334659576416,5.999536037445068
-15.316744804382324,-27.72130584716797,6.265618324279785
-15.482596397399902,-30.89167022705078,6.8359856605529785
-15.21141242980957,-33.66240692138672,7.307884216308594
-14.516189575195312,-35.901485443115234,7.661086559295654
-13.310531616210938,-37.148536682128906,7.806704521179199
-12.047384262084961,-38.418251037597656,7.965307712554932
-10.721752166748047,-39.71338653564453,8.137890815734863
-15.552749633789062,-30.234086990356445,7.020397663116455
-15.423749923706055,-33.19792938232422,7.558516502380371
-14.549606323242188,-34.923423767089844,7.811882495880127
-13.37558364868164,-36.12972640991211,7.954998016357422
-12.146794319152832,-37.355525970458984,8.110822677612305
-10.85860538482666,-38.60337448120117,8.280289649963379
-9.505899429321289,-39.875953674316406,8.46444034576416
-8.082985877990723,-41.1761589050293,8.66445541381836
-6.583413124084473,-42.50720977783203,8.88167667388916
-4.99992561340332,-43.87271499633789,9.117621421813965
-3.1854188442230225,-43.38389587402344,8.98216724395752
-1.5315018892288208,-46.236122131347656,9.552224159240723
0.3385787010192871,-47.88508605957031,9.887718200683594
2.337050437927246,-49.421669006347656,10.216154098510742
4.503050327301025,-51.37094497680664,10.647918701171875
6.806248664855957,-53.0439567565918,11.04249095916748
9.281142234802246,-54.791542053222656,11.474705696105957
11.949222564697266,-56.62318801879883,11.949251174926758
14.835559844970703,-58.54979705810547,12.47161865234375
17.85997200012207,-60.21394729614258,12.968565940856934
21.38710594177246,-62.74154281616211,13.687070846557617
25.116830825805664,-65.0062484741211,14.389785766601562
29.239276885986328,-67.47891235351562,15.18508243560791
26.616695404052734,-55.231956481933594,12.65966510772705
25.02958106994629,-47.01034164428711,10.996964454650879
26.626060485839844,-45.502525329589844,10.885860443115234
28.717012405395508,-44.84054946899414,10.994810104370117
30.878292083740234,-44.19919204711914,11.132953643798828
33.09904861450195,-43.541603088378906,11.293371200561523
60.0766716003418,-72.76679992675781,19.484224319458008
65.19629669189453,-72.8016357421875,20.17906951904297
68.10724639892578,-70.16412353515625,20.190654754638672
37.8769416809082,46.51124954223633,12.385483741760254
-41.3768424987793,87.51434326171875,19.988182067871094
-41.451778411865234,79.26626586914062,18.470043182373047
-40.893157958984375,71.08873748779297,16.933979034423828
-40.68858337402344,64.58358001708984,15.761327743530273
-40.429962158203125,58.79570388793945,14.733580589294434
-40.14750289916992,53.63499069213867,13.833651542663574
-39.24872970581055,48.26415252685547,12.844992637634277
-38.96497344970703,44.16524887084961,12.161211967468262
-37.964385986328125,39.69594192504883,11.34167766571045
-37.32939910888672,36.01713180541992,10.710728645324707
-39.16515350341797,34.861549377441406,10.826576232910156
-25.057065963745117,20.560535430908203,6.6927103996276855
-24.578948974609375,18.567523956298828,6.360483646392822
-24.138168334960938,16.755264282226562,6.067201614379883
-23.72879981994629,15.095841407775879,5.807065963745117
-23.346080780029297,13.56678295135498,5.575420379638672
-29.910112380981445,15.80940055847168,6.985584259033203
-29.325347900390625,14.023336410522461,6.711916923522949
-28.788183212280273,12.371248245239258,6.469908237457275
-28.291763305664062,10.833331108093262,6.255402565002441
-27.779050827026367,9.375843048095703,6.053805351257324
-31.740583419799805,9.310507774353027,6.830041885375977
-34.168575286865234,8.548253059387207,7.272680282592773
-34.752437591552734,7.22450065612793,7.329216003417969
-34.30324935913086,5.704343795776367,7.18031644821167
-33.8680534362793,4.241985321044922,7.047824382781982
-33.42346954345703,2.828331470489502,6.926053047180176
-33.515235900878906,1.4836299419403076,6.927112579345703
-32.80968475341797,0.13308453559875488,6.774709701538086
-32.18955612182617,-1.1633646488189697,6.650947570800781
-31.72062110900879,-2.4252004623413086,6.568882942199707
-31.44449234008789,-3.6795876026153564,6.537055492401123
-12.482656478881836,-1.971827507019043,2.6094212532043457
-18.62904930114746,-3.7152881622314453,3.922337055206299
-24.393545150756836,-5.892893314361572,5.181750297546387
-31.297847747802734,-8.905543327331543,6.718993186950684
-31.448091506958008,-10.330810546875,6.834904193878174
-30.871402740478516,-11.5348539352417,6.8048553466796875
-30.280057907104492,-12.7223539352417,6.781777381896973
-29.847103118896484,-13.97650146484375,6.805159568786621
-29.220794677734375,-15.143073081970215,6.795675754547119
-28.57756233215332,-16.298208236694336,6.792983055114746
-27.916545867919922,-17.443531036376953,6.797067642211914
-27.236827850341797,-18.58057975769043,6.807945728302002
-26.537343978881836,-19.710886001586914,6.825671195983887
-25.666749954223633,-20.7147216796875,6.810449123382568
-24.92864227294922,-21.829532623291016,6.841937065124512
-24.16726303100586,-22.94208335876465,6.880557537078857
-22.606388092041016,-23.256816864013672,6.696964740753174
-21.93317222595215,-24.457576751708984,6.7833356857299805
-21.72747802734375,-26.27988052368164,7.040794372558594
-19.46210289001465,-25.565479278564453,6.634408950805664
-17.44161605834961,-24.929094314575195,6.28222131729126
-15.547135353088379,-24.23923683166504,5.946055889129639
-15.642435073852539,-26.68964195251465,6.387724876403809
-15.227209091186523,-28.551860809326172,6.681506156921387
-15.612398147583008,-32.33969497680664,7.415032386779785
-14.966119766235352,-34.4734001159668,7.760036945343018
-13.81519889831543,-35.68217086791992,7.900726318359375
-12.607137680053711,-36.90050506591797,8.0517578125
-11.341461181640625,-38.13991165161133,8.21606731414795
-10.013222694396973,-39.40302276611328,8.394661903381348
-8.616911888122559,-40.69269561767578,8.588676452636719
-7.146442413330078,-42.011959075927734,8.79937744140625
-5.5948166847229,-43.36433029174805,9.028223037719727
-3.792081356048584,-42.91792678833008,8.896364212036133
-2.1045761108398438,-43.86058807373047,9.066903114318848
-0.3675163984298706,-47.3314208984375,9.773445129394531
1.5839886665344238,-48.847774505615234,10.091553688049316
3.6923110485076904,-50.770423889160156,10.510932922363281
5.936881065368652,-52.418006896972656,10.892643928527832
8.346052169799805,-54.137027740478516,11.310454368591309
10.94010066986084,-55.936466217041016,11.768776893615723
13.74268627166748,-57.82661819458008,12.272794723510742
16.679054260253906,-59.45402145385742,12.75019359588623
20.089914321899414,-61.92962646484375,13.443446159362793
23.70707130432129,-64.1736068725586,14.126054763793945
27.670406341552734,-66.54750061035156,14.881448745727539
29.884319305419922,-64.43988800048828,14.666963577270508
25.633441925048828,-49.915889739990234,11.586400985717773
25.762022018432617,-45.56343460083008,10.807798385620117
27.932228088378906,-45.07377624511719,10.949180603027344
30.073871612548828,-44.437744140625,11.079427719116211
32.27155685424805,-43.78647232055664,11.231459617614746
58.141639709472656,-72.5901870727539,19.203826904296875
64.10277557373047,-73.75355529785156,20.17708969116211
67.0411148071289,-71.1479721069336,20.185319900512695
-41.536521911621094,82.3818130493164,19.050308227539062
-40.70965576171875,73.26326751708984,17.306194305419922
-40.72708511352539,66.82264709472656,16.158510208129883
-40.552398681640625,60.88917541503906,15.105748176574707
-40.242279052734375,55.45790100097656,14.148259162902832
-39.302337646484375,49.822120666503906,13.10301399230957
-23.875864028930664,27.885475158691406,7.5800933837890625
-37.75259017944336,40.665401458740234,11.457378387451172
-37.05498504638672,36.829341888427734,10.787588119506836
-38.34263229370117,35.16257858276367,10.74222469329834
-25.24443817138672,21.34874153137207,6.826607704162598
-24.750783920288086,19.28067970275879,6.478266716003418
-24.29696273803711,17.40522003173828,6.171344757080078
-23.87661361694336,15.692266464233398,5.899571418762207
-23.484548568725586,14.117405891418457,5.657890796661377
-23.11656951904297,12.660860061645508,5.442212104797363
-29.535308837890625,14.666024208068848,6.80902624130249
-28.981430053710938,12.966955184936523,6.555850505828857
-28.470687866210938,11.38896369934082,6.331628799438477
-27.94532012939453,9.896162033081055,6.121368885040283
-30.918455123901367,9.56973648071289,6.682950496673584
-33.232330322265625,8.83987045288086,7.1005377769470215
-34.95142364501953,7.808480739593506,7.394793510437012
-34.46153259277344,6.25735330581665,7.232080459594727
-34.02981185913086,4.775990009307861,7.095455169677734
-33.58869934082031,3.344832420349121,6.9698076248168945
-33.138221740722656,1.9598472118377686,6.854446887969971
-33.08146286010742,0.6250370144844055,6.831991195678711
-32.3922119140625,-0.6897525787353516,6.689964771270752
-31.382810592651367,-1.9316173791885376,6.49229097366333
-31.439329147338867,-3.2069575786590576,6.52536678314209
-12.534550666809082,-1.7898675203323364,2.614431142807007
-12.394865989685059,-2.281332492828369,2.602323532104492
-18.666187286376953,-4.217227935791016,3.951399087905884
-30.532289505004883,-8.200096130371094,6.527807235717773
-31.657440185546875,-9.881718635559082,6.847782135009766
-31.086002349853516,-11.092308044433594,6.815133571624756
-30.500139236450195,-12.285720825195312,6.789493560791016
-30.07423973083496,-13.542546272277832,6.810387134552002
-29.453964233398438,-14.71377182006836,6.798386096954346
-28.817075729370117,-15.872939109802246,6.793188571929932
-28.162744522094727,-17.021696090698242,6.794769287109375
-27.490032196044922,-18.161624908447266,6.803137302398682
-26.797975540161133,-19.29424476623535,6.818325996398926
-26.085458755493164,-20.42107391357422,6.840407371520996
-25.20380210876465,-21.418258666992188,6.829490661621094
-24.451173782348633,-22.53147315979004,6.865459442138672
-23.60289192199707,-23.57198715209961,6.887808322906494
-22.252592086791992,-24.085126876831055,6.770859718322754
-22.171154022216797,-26.02057647705078,7.058675765991211
-20.26735496520996,-25.81932258605957,6.777573585510254
-18.162076950073242,-25.155921936035156,6.406582832336426
-16.005142211914062,-24.157026290893555,5.983480930328369
-15.787415504455566,-26.043441772460938,6.288441181182861
-15.384589195251465,-27.844106674194336,6.568570613861084
-15.273172378540039,-30.47378921508789,7.038389682769775
-15.285815238952637,-33.827049255371094,7.66475248336792
-14.247588157653809,-35.2371711730957,7.848134994506836
-13.059651374816895,-36.44834899902344,7.994492530822754
-11.815780639648438,-37.679683685302734,8.153792381286621
-10.511263847351074,-38.933712005615234,8.326988220214844
-15.462112426757812,-30.057893753051758,7.27290153503418
-15.38920783996582,-33.12356948852539,7.858634948730469
-14.28180980682373,-34.2806510925293,7.990472793579102
-13.12850570678711,-35.462318420410156,8.136302947998047
-11.918106079101562,-36.6522216796875,8.29267692565918
-10.649980545043945,-37.86167907714844,8.462613105773926
-9.319280624389648,-39.09310531616211,8.647124290466309
-7.920626640319824,-40.349063873291016,8.847350120544434
-6.447932720184326,-41.63242721557617,9.064591407775879
-4.894347190856934,-42.94633865356445,9.300314903259277
-3.172898054122925,-43.213233947753906,9.322955131530762
-1.5026572942733765,-45.365257263183594,9.766321182250977
0.33078527450561523,-46.78312683105469,10.066291809082031
2.281517505645752,-48.247459411621094,10.392709732055664
4.392413139343262,-50.108673095703125,10.822919845581055
6.632967948913574,-51.6934928894043,11.213765144348145
9.035848617553711,-53.343448638916016,11.641081809997559
11.620706558227539,-55.06648254394531,12.109270095825195
14.41037654876709,-56.87178039550781,12.623464584350586
17.431684494018555,-58.77000045776367,13.189702033996582
20.716312408447266,-60.77366256713867,13.815130233764648
24.289512634277344,-62.865013122558594,14.500821113586426
28.219528198242188,-65.12552642822266,15.271600723266602
25.987098693847656,-53.92546081542969,12.8798246383667
24.820016860961914,-46.61675262451172,11.363329887390137
26.64375877380371,-45.53276443481445,11.35103988647461
28.757919311523438,-44.9044189453125,11.473352432250977
30.8992862701416,-44.22925567626953,11.608871459960938
33.12188720703125,-43.5716438293457,11.776264190673828
60.17694854736328,-72.88827514648438,20.33722496032715
63.276729583740234,-70.65813446044922,20.40829086303711
66.10086059570312,-68.0971450805664,20.419662475585938
41.42442321777344,46.88729476928711,13.461770057678223
-34.16337203979492,72.25748443603516,17.197341918945312
-39.858524322509766,76.21956634521484,18.506759643554688
-39.669132232666016,68.96090698242188,17.117704391479492
-39.45012664794922,62.617801666259766,15.924016952514648
-39.22196960449219,57.03896713256836,14.894257545471191
-37.86598587036133,50.58698654174805,13.596033096313477
-38.5161247253418,47.36326217651367,13.135159492492676
-37.60227966308594,42.620704650878906,12.229277610778809
-37.744590759277344,39.46611404418945,11.750045776367188
-37.56813049316406,36.247467041015625,11.232382774353027
-38.166011810302734,33.97218322753906,10.993911743164062
-24.843151092529297,20.385013580322266,6.9145379066467285
-24.379451751708984,18.416824340820312,6.574085235595703
-23.95120620727539,16.6254825592041,6.27329683303833
-23.552831649780273,14.983899116516113,6.006322860717773
-23.179807662963867,13.470159530639648,5.768434524536133
-22.828407287597656,12.066272735595703,5.555774688720703
-29.445600509643555,14.080842018127441,7.022761344909668
-28.901962280273438,12.420138359069824,6.76854944229126
-28.399856567382812,10.87471866607666,6.543282985687256
-29.560396194458008,9.97707462310791,6.712831020355225
-31.704710006713867,9.299985885620117,7.109134674072266
-34.12746047973633,8.537969589233398,7.569307327270508
-34.060272216796875,7.080608367919922,7.4852166175842285
-33.63859939575195,5.593817710876465,7.337200164794922
-33.22370147705078,4.161280632019043,7.20439338684082
-32.798370361328125,2.7754342555999756,7.0822434425354
-32.362709045410156,1.4326056241989136,6.970101356506348
-32.30044174194336,0.1310211420059204,6.9499430656433105
-31.729616165161133,-1.1467270851135254,6.831509590148926
-30.677783966064453,-2.3454835414886475,6.6200151443481445
-30.57248878479004,-3.5775375366210938,6.622959613800049
-12.52061653137207,-1.9778223037719727,2.727388381958008
-18.701221466064453,-3.7296817302703857,4.103067874908447
-24.44558334350586,-5.905466079711914,5.411109447479248
-30.77001953125,-8.755346298217773,6.883378982543945
-30.944786071777344,-10.165472984313965,7.008255481719971
-30.379453659057617,-11.351041793823242,6.977937698364258
-29.799152374267578,-12.520299911499023,6.954648017883301
-29.374187469482422,-13.755048751831055,6.978890895843506
-28.75843048095703,-14.903465270996094,6.969320297241211
-28.12555503845215,-16.040422439575195,6.966602325439453
-27.4747371673584,-17.167469024658203,6.9707255363464355
-26.805091857910156,-18.286056518554688,6.9817047119140625
-26.115625381469727,-19.39764976501465,6.999589920043945
-25.405263900756836,-20.503684997558594,7.024457931518555
-24.529268264770508,-21.479801177978516,7.015354156494141
-23.777935028076172,-22.572498321533203,7.054314136505127
-22.636991500854492,-23.288301467895508,6.987956523895264
-22.01300811767578,-24.54659652709961,7.094236373901367
-21.49551010131836,-25.999298095703125,7.258456707000732
