2.477109432220459,-21.121774673461914,2.0388150215148926
3.375361204147339,-21.332412719726562,2.070573329925537
4.0449090003967285,-20.254873275756836,1.9801692962646484
5.3326191902160645,-22.049610137939453,2.1748292446136475
6.340326309204102,-22.26090431213379,2.2190146446228027
7.388589859008789,-22.472280502319336,2.267864465713501
8.482378005981445,-22.684206008911133,2.3217921257019043
9.627278327941895,-22.89714241027832,2.3812766075134277
7.040769577026367,-15.025703430175781,1.5908119678497314
12.096925735473633,-23.328201293945312,2.5192716121673584
12.528096199035645,-21.953916549682617,2.4232990741729736
12.54817008972168,-20.070613861083984,2.269270420074463
12.56548023223877,-18.409318923950195,2.136827230453491
13.681377410888672,-18.4097900390625,2.1989498138427734
14.391175270080566,-17.82217788696289,2.196096897125244
15.596362113952637,-17.801368713378906,2.2689647674560547
16.887619018554688,-17.7803955078125,2.350926160812378
15.363476753234863,-14.926197052001953,2.0535545349121094
19.789175033569336,-17.737525939941406,2.5477371215820312
21.438274383544922,-17.715396881103516,2.666200637817383
23.25330352783203,-17.692596435546875,2.801204204559326
21.51137924194336,-15.042251586914062,2.516479730606079
37.38088607788086,-23.962806701660156,4.256819725036621
38.062007904052734,-22.294647216796875,4.228892803192139
51.8703727722168,-27.646400451660156,5.635033130645752
58.324256896972656,-28.138477325439453,6.208250522613525
66.28081512451172,-28.75467872619629,6.926523208618164
76.13349151611328,-29.454622268676758,7.826091766357422
83.46448516845703,-28.492136001586914,8.455095291137695
88.267822265625,-26.223241806030273,8.827751159667969
89.4740219116211,-22.713159561157227,8.849910736083984
52.02105712890625,38.36112976074219,6.196598529815674
-23.41016960144043,27.123218536376953,3.4348971843719482
-23.395244598388672,25.000804901123047,3.2825756072998047
-23.03326416015625,22.712196350097656,3.101163148880005
-24.352821350097656,22.155982971191406,3.15635085105896
-25.713056564331055,21.570751190185547,3.217649459838867
-27.11933135986328,20.95350456237793,3.2855570316314697
-28.577739715576172,20.30080795288086,3.3606507778167725
-30.753259658813477,20.037595748901367,3.518911123275757
-33.354373931884766,19.870906829833984,3.7221240997314453
-33.53010940551758,18.191865921020508,3.657165050506592
-33.52348327636719,16.481040954589844,3.581277847290039
-33.57848358154297,14.864339828491211,3.5204694271087646
-33.17564010620117,13.11875057220459,3.420175313949585
-32.761383056640625,11.455703735351562,3.327300786972046
-13.068860054016113,3.9883244037628174,1.309952974319458
-13.234992980957031,3.4644217491149902,1.311584711074829
-40.75594711303711,8.935802459716797,4.000067710876465
-10.470897674560547,1.858416199684143,1.0195306539535522
-24.680456161499023,3.3641295433044434,2.387986183166504
-48.82000732421875,4.666247367858887,4.701680660247803
-35.80744934082031,1.9753246307373047,3.4380674362182617
-44.116939544677734,0.6586064696311951,4.229940891265869
-40.88288497924805,-1.0326820611953735,3.9206817150115967
-36.46244812011719,-2.3893721103668213,3.503140449523926
-36.66884231567383,-3.8873519897460938,3.5351309776306152
-34.65029525756836,-5.088085174560547,3.3575363159179688
-32.803375244140625,-6.1721391677856445,3.20003342628479
-31.102506637573242,-7.156671524047852,3.0597076416015625
-29.52677345275879,-8.055688858032227,2.934183120727539
-28.058908462524414,-8.880701065063477,2.8215172290802
-26.684627532958984,-9.64122486114502,2.7201035022735596
-25.391874313354492,-10.345257759094238,2.628598928451538
-24.170446395874023,-10.999532699584961,2.5458781719207764
-22.748125076293945,-11.476746559143066,2.4426889419555664
-21.65714454650879,-12.04127025604248,2.3756041526794434
-20.614307403564453,-12.571234703063965,2.314784288406372
-19.614049911499023,-13.07022762298584,2.2596421241760254
-18.651405334472656,-13.541388511657715,2.2096757888793945
-17.722091674804688,-13.987442970275879,2.164449691772461
-16.822221755981445,-14.410786628723145,2.1235909461975098
-15.675836563110352,-14.560434341430664,2.051115036010742
-14.384361267089844,-14.479863166809082,1.956720232963562
-10.26092529296875,-11.194626808166504,1.4558508396148682
-9.864336967468262,-11.670421600341797,1.4649689197540283
-12.17194652557373,-15.633468627929688,1.8994816541671753
-11.862115859985352,-16.567943572998047,1.9534990787506104
-11.087806701660156,-16.88010025024414,1.9361801147460938
-10.322344779968262,-17.18132781982422,1.921579360961914
-9.679759979248047,-17.68433380126953,1.9327492713928223
-8.917428016662598,-17.969989776611328,1.9232349395751953
-8.158586502075195,-18.247102737426758,1.9162404537200928
-7.40151309967041,-18.51637077331543,1.9117224216461182
-6.644522190093994,-18.7784481048584,1.9096589088439941
-5.885973930358887,-19.0339298248291,1.9100334644317627
-5.124148845672607,-19.28338623046875,1.9128481149673462
-4.357348918914795,-19.527341842651367,1.9181199073791504
-3.583872079849243,-19.766277313232422,1.9258836507797241
-2.8018510341644287,-20.000690460205078,1.9361826181411743
-2.0094552040100098,-20.231006622314453,1.9490864276885986
-1.2046830654144287,-20.457677841186523,1.9646673202514648
-0.38546809554100037,-20.68109130859375,1.9830368757247925
0.4442346394062042,-20.615962982177734,1.9769046306610107
1.2874523401260376,-20.830820083618164,2.0008559226989746
2.1519827842712402,-21.043638229370117,2.0279695987701416
3.0405852794647217,-21.254796981811523,2.0584328174591064
3.613572835922241,-19.60515022277832,1.911199927330017
4.969911098480225,-21.971532821655273,2.159614324569702
5.963776111602783,-22.182903289794922,2.2021796703338623
6.996529579162598,-22.394195556640625,2.249264717102051
8.072884559631348,-22.605863571166992,2.3012614250183105
9.198217391967773,-22.8183650970459,2.358635902404785
6.773759365081787,-15.032350540161133,1.580702304840088
11.620976448059082,-23.247947692871094,2.4917116165161133
12.519857406616211,-22.715839385986328,2.4866228103637695
12.541111946105957,-20.737518310546875,2.3233790397644043
12.559375762939453,-18.999727249145508,2.183488130569458
10.833452224731445,-15.038619995117188,1.7768845558166504
13.965463638305664,-17.829833984375,2.1712684631347656
15.142007827758789,-17.80906867980957,2.2410614490509033
16.39996910095215,-17.788164138793945,2.3195266723632812
15.067310333251953,-15.079387664794922,2.043647289276123
19.216747283935547,-17.745561599731445,2.507662057876587
20.81161880493164,-17.7236328125,2.620682716369629
22.561901092529297,-17.70110511779785,2.7492504119873047
14.882426261901855,-17.88121795654297,2.42562198638916
16.124574661254883,-17.862571716308594,2.509002447128296
14.957091331481934,-15.287084579467773,2.2299094200134277
18.900785446166992,-17.825448989868164,2.708829879760742
20.46955108642578,-17.80684471130371,2.8287768363952637
22.188602447509766,-17.788118362426758,2.965118646621704
34.17366409301758,-25.2098388671875,4.427685737609863
21.91701316833496,-14.846697807312012,2.7601020336151123
37.32887649536133,-23.155412673950195,4.580053329467773
37.99516677856445,-21.504899978637695,4.5520453453063965
51.24856948852539,-26.346294403076172,6.008127212524414
57.47854995727539,-26.68666648864746,6.607381343841553
65.1238021850586,-27.112016677856445,7.354984760284424
66.83353424072266,-24.723045349121094,7.429832935333252
83.38713073730469,-27.091222763061523,9.141609191894531
88.71389770507812,-24.92960548400879,9.607938766479492
89.92263793945312,-21.412172317504883,9.637833595275879
52.02811813354492,39.571197509765625,6.815398216247559
47.69615936279297,39.398677825927734,6.450209140777588
-23.43906021118164,26.355892181396484,3.6774635314941406
-23.4233341217041,24.298059463500977,3.5188870429992676
-23.07142448425293,22.084434509277344,3.329946517944336
-24.371707916259766,21.521072387695312,3.3900015354156494
-25.711868286132812,20.927806854248047,3.456587314605713
-27.097118377685547,20.301597595214844,3.5302395820617676
-28.751312255859375,19.78898048400879,3.6391587257385254
-31.53052520751953,19.884056091308594,3.8866162300109863
-33.633514404296875,19.36703872680664,4.0465922355651855
-33.625404357910156,17.603008270263672,3.9572739601135254
-33.61837387084961,15.912843704223633,3.8780221939086914
-33.20917892456055,14.115413665771484,3.7623212337493896
-32.792335510253906,12.407844543457031,3.6556265354156494
-32.39348220825195,10.790458679199219,3.5599277019500732
-13.081768989562988,3.781043291091919,1.4197875261306763
-36.95525360107422,9.089881896972656,3.967949390411377
-42.623172760009766,8.684551239013672,4.535373210906982
-19.0513858795166,3.090503692626953,2.012340784072876
-24.350311279296875,2.9518754482269287,2.557447910308838
-30.27536392211914,2.4410769939422607,3.1668753623962402
-41.52077865600586,1.6730681657791138,4.332639694213867
-40.941158294677734,0.003772139549255371,4.26869010925293
-38.51575469970703,-1.5449237823486328,4.01903772354126
-36.330299377441406,-2.9225897789001465,3.8001813888549805
-34.74336242675781,-4.2053093910217285,3.6489226818084717
-32.90645980834961,-5.331882476806641,3.4757080078125
-31.215099334716797,-6.354170799255371,3.3213605880737305
-29.6484432220459,-7.286859035491943,3.1832633018493652
-28.189298629760742,-8.142006874084473,3.0592737197875977
-26.823486328125,-8.929569244384766,2.9476253986358643
-25.53894805908203,-9.657955169677734,2.846836805343628
-24.32557487487793,-10.33419418334961,2.7556679248809814
-23.17475128173828,-10.96424388885498,2.6730759143829346
-21.826093673706055,-11.42090892791748,2.5684025287628174
-20.791032791137695,-11.966909408569336,2.5011940002441406
-19.798538208007812,-12.480413436889648,2.4401862621307373
-18.843746185302734,-12.96469783782959,2.3848209381103516
-17.922374725341797,-13.422593116760254,2.3346235752105713
-17.030597686767578,-13.85661792755127,2.289175033569336
-16.164979934692383,-14.268976211547852,2.2481179237365723
-15.253059387207031,-14.59518814086914,2.201119899749756
-13.99710750579834,-14.514491081237793,2.102386236190796
-12.848258018493652,-14.441803932189941,2.015408754348755
-12.134197235107422,-14.795608520507812,1.9950933456420898
-12.123968124389648,-16.057714462280273,2.0978598594665527
-11.359827995300293,-16.37424659729004,2.0778684616088867
-10.605002403259277,-16.679122924804688,2.060788631439209
-9.857664108276367,-16.973278045654297,2.046513557434082
-9.22663688659668,-17.46681785583496,2.059631824493408
-8.48034381866455,-17.745532989501953,2.0506372451782227
-7.736534118652344,-18.015731811523438,2.044266700744629
-6.993618965148926,-18.278074264526367,2.040483236312866
-6.249975681304932,-18.53316879272461,2.0392637252807617
-5.504034996032715,-18.78157615661621,2.0405995845794678
-4.7541985511779785,-19.0238037109375,2.0444979667663574
-3.998793363571167,-19.260353088378906,2.0509862899780273
-3.236172914505005,-19.491670608520508,2.0600993633270264
-2.4646060466766357,-19.718177795410156,2.071894407272339
-1.6822388172149658,-19.940298080444336,2.0864410400390625
-0.887184739112854,-20.158401489257812,2.1038312911987305
-0.07743531465530396,-20.37285804748535,2.1241700649261475
0.7389509081840515,-20.302602767944336,2.118232011795044
1.573205590248108,-20.507680892944336,2.1444945335388184
2.4288370609283447,-20.71014404296875,2.1741220951080322
3.3085784912109375,-20.910329818725586,2.20731782913208
3.8501996994018555,-19.279874801635742,2.049889326095581
5.223368167877197,-21.597904205322266,2.316802740097046
6.207859039306641,-21.795799255371094,2.3628926277160645
7.230886459350586,-21.992639541625977,2.41379714012146
8.29712963104248,-22.188785552978516,2.469940423965454
6.606421947479248,-15.712455749511719,1.7771623134613037
10.580718040466309,-22.58029556274414,2.5999605655670166
11.810791015625,-22.776405334472656,2.675051689147949
12.504281997680664,-21.912185668945312,2.630474090576172
12.52583122253418,-20.034889221191406,2.463575839996338
10.572542190551758,-15.48952579498291,1.955344796180725
13.676950454711914,-18.403831481933594,2.3907172679901123
14.444426536560059,-17.888134002685547,2.397224187850952
15.656002044677734,-17.869443893432617,2.4770705699920654
16.954538345336914,-17.850854873657227,2.5669054985046387
15.398193359375,-14.95992660522461,2.2384116649627686
19.87418556213379,-17.813724517822266,2.782719850540161
21.534679412841797,-17.79505157470703,2.9126946926116943
23.363189697265625,-17.776201248168945,3.060875415802002
21.556507110595703,-15.073808670043945,2.7425639629364014
37.351951599121094,-23.94426918029785,4.625959396362305
37.58484649658203,-22.015148162841797,4.541517734527588
49.20272445678711,-26.224571228027344,5.81325626373291
55.03520965576172,-26.55168342590332,6.371090888977051
62.07833480834961,-26.931514739990234,7.055388450622559
67.82982635498047,-26.242094039916992,7.583036422729492
80.80171203613281,-27.583145141601562,8.902063369750977
83.39812469482422,-24.776519775390625,9.071043968200684
89.4754409790039,-22.713520050048828,9.624961853027344
51.843753814697266,38.23039627075195,6.71620512008667
-23.445411682128906,27.1640567779541,3.741281032562256
-23.42890167236328,25.036771774291992,3.5751357078552246
-23.414419174194336,23.088045120239258,3.428513288497925
-23.88724708557129,21.732402801513672,3.367093086242676
-25.212112426757812,21.1505126953125,3.431211233139038
-26.580062866210938,20.536842346191406,3.5021865367889404
-27.996746063232422,19.888086318969727,3.5806028842926025
-30.610891342163086,19.944833755493164,3.8093101978302
-33.19108200073242,19.773630142211914,4.028217315673828
-33.567481994628906,18.21213722229004,3.9818170070648193
-33.5600700378418,16.4990291595459,3.8991053104400635
-33.614444732666016,14.880258560180664,3.832822561264038
-32.944000244140625,13.02714729309082,3.693674325942993
-32.538814544677734,11.377881050109863,3.5940568447113037
-13.082235336303711,3.992405414581299,1.426110029220581
-13.119454383850098,3.4341776371002197,1.413974642753601
-40.352012634277344,8.847240447998047,4.307199954986572
-18.75210189819336,3.328197956085205,1.9857255220413208
-24.796424865722656,3.3799378871917725,2.609281539916992
-45.83854293823242,4.381280422210693,4.80108118057251
-35.84254455566406,1.9772593975067139,3.742767333984375
-42.33465576171875,0.6319919228553772,4.414464950561523
-39.380889892578125,-0.9947434067726135,4.107323169708252
-37.10696792602539,-2.4316067695617676,3.8772192001342773
-35.46324157714844,-3.759544610977173,3.7182631492614746
-33.566505432128906,-4.928940773010254,3.5373101234436035
-31.82404327392578,-5.987873554229736,3.376328945159912
-30.213523864746094,-6.952116012573242,3.2325024604797363
-28.71649169921875,-7.834623336791992,3.103529691696167
-27.31770133972168,-8.64610481262207,2.9875078201293945
-26.004404067993164,-9.39546012878418,2.882866382598877
-24.76584243774414,-10.090198516845703,2.7882771492004395
-23.59283447265625,-10.736673355102539,2.7026286125183105
-22.477602005004883,-11.340265274047852,2.6249780654907227
-21.16796112060547,-11.769286155700684,2.525254249572754
-20.160343170166016,-12.294390678405762,2.4620251655578613
-19.192176818847656,-12.789101600646973,2.4046380519866943
-18.258920669555664,-13.256434440612793,2.352583885192871
-17.356632232666016,-13.69899845123291,2.3054285049438477
-16.48174285888672,-14.11911392211914,2.2627875804901123
-15.631040573120117,-14.51882266998291,2.2243356704711914
-14.447360038757324,-14.543281555175781,2.1373696327209473
-13.261088371276855,-14.467790603637695,2.0462679862976074
-12.129501342773438,-14.35031795501709,1.959099292755127
-12.191519737243652,-15.658609390258789,2.0691211223602295
-11.640772819519043,-16.258790969848633,2.084902763366699
-10.882712364196777,-16.567859649658203,2.066762685775757
-10.132822036743164,-16.865869522094727,2.0514633655548096
-9.503128051757812,-17.361629486083984,2.063624858856201
-8.755491256713867,-17.643661499023438,2.053649425506592
-8.01095962524414,-17.91692352294922,2.046316385269165
-7.267887592315674,-18.182096481323242,2.041581392288208
-6.524694442749023,-18.43979835510254,2.0394163131713867
-5.779804706573486,-18.690608978271484,2.0398075580596924
-5.031586170196533,-18.93506622314453,2.0427591800689697
-4.2784271240234375,-19.173654556274414,2.0482873916625977
-3.5187017917633057,-19.40684700012207,2.0564255714416504
-2.750633478164673,-19.635082244873047,2.0672242641448975
-1.972482442855835,-19.85877799987793,2.080742120742798
-1.182344913482666,-20.07831573486328,2.0970723628997803
-0.3782564103603363,-20.29407501220703,2.1163101196289062
0.43583452701568604,-20.22616195678711,2.1093506813049316
1.2628166675567627,-20.432275772094727,2.134415864944458
2.110264539718628,-20.63567543029785,2.162778377532959
2.9807724952697754,-20.83666229248047,2.1946325302124023
3.550185203552246,-19.261240005493164,2.042081117630005
4.402608871459961,-19.46354866027832,2.080617666244507
5.840095520019531,-21.722867965698242,2.3453352451324463
6.848400115966797,-21.920059204101562,2.3944172859191895
7.898097038269043,-22.11642074584961,2.4485714435577393
8.99421215057373,-22.312284469604492,2.508263111114502
6.795298099517822,-15.080155372619629,1.7245762348175049
11.34903335571289,-22.703927993774414,2.6464717388153076
12.495440483093262,-22.671541213989258,2.69907808303833
12.518255233764648,-20.69972801208496,2.522210121154785
12.537860870361328,-18.967178344726562,2.3706061840057373
10.854475021362305,-15.067792892456055,1.9362187385559082
14.016550064086914,-17.895071029663086,2.370023250579834
15.199201583862305,-17.876333236694336,2.4464941024780273
16.464082717895508,-17.857709884643555,2.5324859619140625
15.101195335388184,-15.113299369812012,2.2275891304016113
19.297998428344727,-17.82059097290039,2.738762855529785
20.903596878051758,-17.80196189880371,2.8627452850341797
22.66652488708496,-17.783187866210938,3.003840684890747
14.938459396362305,-17.94854736328125,2.631119966506958
16.187387466430664,-17.932151794433594,2.721916675567627
14.926067352294922,-15.255382537841797,2.404754638671875
18.980297088623047,-17.900432586669922,2.939612865447998
20.55948257446289,-17.885086059570312,3.0703506469726562
22.290813446044922,-17.870059967041016,3.2190163135528564
32.88397979736328,-24.258440017700195,4.604210376739502
36.084617614746094,-24.443889617919922,4.910783290863037
37.424598693847656,-23.214794158935547,4.9621262550354
37.522857666015625,-21.237573623657227,4.8580193519592285
48.657752990722656,-25.014392852783203,6.164453506469727
54.32459259033203,-25.222320556640625,6.748467445373535
61.07833480834961,-25.427833557128906,7.4544358253479
66.54576873779297,-24.616605758666992,7.99447774887085
79.75311279296875,-25.91057777404785,9.44836139678955
83.32140350341797,-23.414247512817383,9.751703262329102
89.99121856689453,-21.428503036499023,10.423070907592773
24.421171188354492,2.1469836235046387,2.7622182369232178
47.574798583984375,39.29844665527344,6.95268440246582
-23.47385597229004,26.395023345947266,3.979954481124878
-23.456605911254883,24.33258819580078,3.8080899715423584
-23.441450119018555,22.438623428344727,3.656221389770508
-23.910673141479492,21.113962173461914,3.5941054821014404
-25.216110229492188,20.524290084838867,3.6633384227752686
-26.563730239868164,19.901975631713867,3.739861011505127
-28.98988914489746,19.953210830688477,3.965294599533081
-31.382020950317383,19.790414810180664,4.180294990539551
-33.671653747558594,19.38899803161621,4.377910137176514
-33.66269302368164,17.622528076171875,4.281172752380371
-33.594058990478516,15.901338577270508,4.1877570152282715
-32.97426223754883,14.015559196472168,4.036991596221924
-32.56689453125,12.322545051574707,3.9232985973358154
-32.176578521728516,10.718208312988281,3.8212783336639404
-13.095135688781738,3.7849061489105225,1.5358611345291138
-36.62031936645508,9.007497787475586,4.2491044998168945
-42.18221664428711,8.594701766967773,4.850445747375488
-10.560171127319336,1.7130639553070068,1.2054001092910767
-24.463172912597656,2.96555757522583,2.776517391204834
-30.297588348388672,2.442869186401367,3.424795627593994
-41.53900909423828,1.673801064491272,4.6841230392456055
-39.432891845703125,0.0036330819129943848,4.443023681640625
-37.176937103271484,-1.4912225008010864,4.1922078132629395
-35.13395690917969,-2.826350450515747,3.971437931060791
-33.65558624267578,-4.073646068572998,3.819751262664795
-31.923641204833984,-5.172635555267334,3.643845558166504
-30.323017120361328,-6.172576904296875,3.4866528511047363
-28.83539390563965,-7.087032318115234,3.345659017562866
-27.445585250854492,-7.9271955490112305,3.2187821865081787
-26.14097023010254,-8.702359199523926,3.1043035984039307
-24.91078758239746,-9.42040729522705,3.0007681846618652
-23.74596405029297,-10.087958335876465,2.9069597721099854
-22.638729095458984,-10.710648536682129,2.8218460083007812
-21.58232307434082,-11.293349266052246,2.744544506072998
-20.335289001464844,-11.70459270477295,2.6436679363250732
-19.374916076660156,-12.213372230529785,2.5805630683898926
-18.44950294494629,-12.693453788757324,2.5232393741607666
-17.55513572692871,-13.147562026977539,2.471217155456543
-16.688283920288086,-13.578106880187988,2.4240775108337402
-15.845789909362793,-13.98721694946289,2.3814585208892822
-15.024802207946777,-14.376771926879883,2.3430447578430176
-14.057772636413574,-14.577400207519531,2.2817928791046143
-10.33266544342041,-11.614206314086914,1.7515244483947754
-12.153149604797363,-14.818717956542969,2.1593666076660156
-11.900147438049316,-15.76126766204834,2.22520112991333
-11.152077674865723,-16.074787139892578,2.20438289642334
-10.412618637084961,-16.376548767089844,2.1865928173065186
-9.6800537109375,-16.667469024658203,2.1717171669006348
-9.061318397521973,-17.15386390686035,2.1858625411987305
-8.329048156738281,-17.428937911987305,2.1764891147613525
-7.598934173583984,-17.69530487060547,2.169846534729004
-6.8694539070129395,-17.95357322692871,2.165900230407715
-6.1390790939331055,-18.20433235168457,2.164628505706787
-5.406310081481934,-18.448110580444336,2.1660237312316895
-4.669623851776123,-18.68541145324707,2.1700875759124756
-3.927443027496338,-18.916685104370117,2.1768503189086914
-3.178173780441284,-19.142353057861328,2.1863508224487305
-2.4201841354370117,-19.362817764282227,2.1986424922943115
-1.6517109870910645,-19.578462600708008,2.2137978076934814
-0.8709566593170166,-19.789613723754883,2.2319109439849854
-0.07600849866867065,-19.996601104736328,2.2530910968780518
0.7251601219177246,-19.92364501953125,2.2463431358337402
1.543479561805725,-20.120235443115234,2.273667812347412
2.382326364517212,-20.31357765197754,2.3044769763946533
3.244276762008667,-20.503934860229492,2.338979959487915
3.774143934249878,-18.899017333984375,2.171452283859253
5.118337631225586,-21.163604736328125,2.4533069133758545
6.080592155456543,-21.348966598510742,2.501112461090088
7.079525947570801,-21.532270431518555,2.5538697242736816
8.119488716125488,-21.713733673095703,2.6119978427886963
6.590491771697998,-15.67457389831543,1.9158616065979004
10.34253215789795,-22.071985244750977,2.7463977336883545
11.537426948547363,-22.249216079711914,2.8238866329193115
12.480517387390137,-21.870532989501953,2.837219715118408
12.503534317016602,-19.999217987060547,2.6575236320495605
10.478567123413086,-15.351848602294922,2.094261646270752
13.655248641967773,-18.37462615966797,2.5794286727905273
14.49817943572998,-17.954696655273438,2.600203514099121
15.716207504272461,-17.938159942626953,2.6871416568756104
17.022109985351562,-17.921995162963867,2.784982204437256
15.43312931060791,-14.99386978149414,2.4244277477264404
19.9600830078125,-17.890714645385742,3.020143747329712
21.632125854492188,-17.875572204589844,3.161846160888672
23.47430419921875,-17.86074447631836,3.3234682083129883
21.601900100708008,-15.10555362701416,2.9699954986572266
37.521629333496094,-24.05303192138672,5.021755218505859
37.220245361328125,-21.801586151123047,4.860182762145996
38.2147216796875,-20.368074417114258,4.87917423248291
52.118465423583984,-25.144498825073242,6.520037651062012
58.42350387573242,-25.345928192138672,7.175526142120361
66.16566467285156,-25.59823989868164,7.993555545806885
75.69981384277344,-25.841527938842773,9.012598037719727
83.31501007080078,-24.7518310546875,9.792856216430664
89.47686004638672,-22.713876724243164,10.401388168334961
51.6673583984375,38.10031509399414,7.233177185058594
48.179908752441406,38.61027908325195,6.956632137298584
-23.480823516845703,27.205089569091797,4.049124717712402
-23.46271324157715,25.072904586791992,3.8690474033355713
-23.446823120117188,23.119991302490234,3.710151195526123
-23.43837547302246,21.324020385742188,3.570274591445923
-24.729482650756836,20.745637893676758,3.636962652206421
-26.060937881469727,20.135746002197266,3.7107229232788086
-28.16653823852539,20.008718490600586,3.8928511142730713
-30.469589233398438,19.852764129638672,4.097529411315918
-33.02911376953125,19.6771297454834,4.33184814453125
-33.605003356933594,18.23249626159668,4.307762622833252
-33.596805572509766,16.517093658447266,4.2181830406188965
-33.12953567504883,14.665599822998047,4.082190990447998
-32.71518325805664,12.936671257019043,3.9638493061065674
-32.3188591003418,11.300970077514648,3.8576650619506836
-13.095661163330078,3.996502637863159,1.5427078008651733
-13.094335556030273,3.4276037216186523,1.5250866413116455
-39.95532989501953,8.76026725769043,4.608821392059326
-18.71067237854004,3.32084321975708,2.14113450050354
-45.17423629760742,6.1576104164123535,5.136971473693848
-43.31504821777344,4.140093803405762,4.902665615081787
-35.87777328491211,1.979203224182129,4.048599720001221
-40.62579345703125,0.6064927577972412,4.577927589416504
-37.98301696777344,-0.9594334363937378,4.281026363372803
-35.86579513549805,-2.350262403488159,4.049775123596191
-34.33251190185547,-3.63967227935791,3.8900234699249268
-32.54673767089844,-4.7791972160339355,3.7064645290374756
-30.899944305419922,-5.813997745513916,3.542681932449341
-29.372514724731445,-6.75860071182251,3.395970344543457
-27.948192596435547,-7.625010013580322,3.264101028442383
-26.61344337463379,-8.423208236694336,3.1452231407165527
-25.356910705566406,-9.161518096923828,3.0377988815307617
-24.168935775756836,-9.847002983093262,2.940528154373169
-23.041248321533203,-10.48565673828125,2.852316379547119
-21.96684455871582,-11.082581520080566,2.772226572036743
-20.699588775634766,-11.508875846862793,2.66853666305542
-19.72519874572754,-12.02902603149414,2.603161334991455
-18.787378311157227,-12.519354820251465,2.54376482963562
-17.88197135925293,-12.982760429382324,2.489835739135742
-17.005348205566406,-13.421744346618652,2.4409375190734863
-16.154212951660156,-13.838537216186523,2.3966877460479736
-15.325593948364258,-14.235108375549316,2.356755256652832
-14.511030197143555,-14.607369422912598,2.3199284076690674
-13.31702709197998,-14.528817176818848,2.220628023147583
-12.173559188842773,-14.402440071105957,2.1247920989990234
-12.178864479064941,-15.642355918884277,2.2336761951446533
-11.427168846130371,-15.960450172424316,2.211711883544922
-10.684728622436523,-16.26645278930664,2.1928157806396484
-9.949822425842285,-16.56127166748047,2.1768758296966553
-9.332533836364746,-17.04996109008789,2.1900253295898438
-8.599061965942383,-17.32843589782715,2.1796278953552246
-7.868335723876953,-17.597938537597656,2.1719820499420166
-7.138789176940918,-17.859127044677734,2.167046308517456
-6.408921241760254,-18.11259651184082,2.164788007736206
-5.677224159240723,-18.358888626098633,2.1651973724365234
-4.942161560058594,-18.598526000976562,2.168273448944092
-4.202180862426758,-18.831974029541016,2.1740381717681885
-3.455751895904541,-19.059656143188477,2.1825218200683594
-2.7011733055114746,-19.282001495361328,2.1937737464904785
-1.936784267425537,-19.499378204345703,2.2078628540039062
-1.1607816219329834,-19.712142944335938,2.2248740196228027
-0.37129807472229004,-19.920637130737305,2.244907855987549
0.42773300409317017,-19.850189208984375,2.2370972633361816
1.2390714883804321,-20.04804229736328,2.263183355331421
2.0700647830963135,-20.242555618286133,2.2926833629608154
2.9231667518615723,-20.43398666381836,2.3257951736450195
3.532590866088867,-19.16579818725586,2.1958417892456055
4.3316144943237305,-19.149694442749023,2.2121620178222656
5.721248626708984,-21.280780792236328,2.4829041957855225
6.706168174743652,-21.464818954467773,2.533787250518799
7.730438232421875,-21.64693260192871,2.58988094329834
8.79873275756836,-21.827342987060547,2.6516456604003906
6.817017078399658,-15.128348350524902,1.8696192502975464
11.08910083770752,-22.18390655517578,2.7944083213806152
12.324010848999023,-22.360504150390625,2.876741409301758
12.495441436767578,-20.662012100219727,2.7206592559814453
12.516383171081543,-18.9346866607666,2.5574076175689697
10.875608444213867,-15.09713363647461,2.0964505672454834
14.068111419677734,-17.960899353027344,2.570587635040283
15.256922721862793,-17.94422149658203,2.6538467407226562
16.528827667236328,-17.92792320251465,2.7474935054779053
15.13528823852539,-15.14742374420166,2.41267991065979
19.38007926940918,-17.896390914916992,2.972235679626465
20.99654197692871,-17.881122589111328,3.107382297515869
22.77231216430664,-17.866180419921875,3.2612528800964355
14.995026588439941,-18.016510009765625,2.8385586738586426
16.250812530517578,-18.002405166625977,2.936899185180664
14.959794998168945,-15.289856910705566,2.5904014110565186
19.060626983642578,-17.976198196411133,3.1727840900421143
20.650390625,-17.96416664123535,3.314514398574829
22.3941707611084,-17.952919006347656,3.4757471084594727
31.685949325561523,-23.374656677246094,4.7681884765625
34.68585205078125,-23.49636459350586,5.073374271392822
37.59366226196289,-23.319664001464844,5.357241153717041
37.293113708496094,-21.107542037963867,5.1892924308776855
38.14225769042969,-19.608497619628906,5.193557262420654
51.49750900268555,-23.909727096557617,6.875600814819336
57.58039093017578,-23.971582412719727,7.552979946136475
64.9846420288086,-24.039100646972656,8.390658378601074
67.71539306640625,-21.99970817565918,8.622084617614746
83.23863983154297,-23.39098358154297,10.470437049865723
24.397705078125,2.144920825958252,2.9659008979797363
48.312782287597656,39.908050537109375,7.588459014892578
-14.007551193237305,36.62955093383789,4.749028205871582
-23.508821487426758,26.434337615966797,4.283909797668457
-23.490034103393555,24.367258071899414,4.098657131195068
-23.47352409362793,22.46932601928711,3.934978723526001
-23.465940475463867,20.721248626708984,3.7909932136535645
-24.73822593688965,20.135332107543945,3.862637758255005
-26.712093353271484,20.013145446777344,4.041945457458496
-28.860727310180664,19.864307403564453,4.242796421051025
-31.234663009643555,19.69747543334961,4.471759796142578
-33.7099494934082,19.411054611206055,4.710604190826416
-33.639217376708984,17.610239028930664,4.598072052001953
-33.159027099609375,15.695419311523438,4.442596912384033
-32.742218017578125,13.916925430297852,4.308307647705078
-32.3441276550293,12.238253593444824,4.187803745269775
-33.67255783081055,11.216527938842773,4.297943115234375
-13.108552932739258,3.788783550262451,1.652390956878662
-13.52501392364502,3.326747179031372,1.6866657733917236
-41.749473571777344,8.506528854370117,5.159639358520508
-10.50206184387207,1.7036365270614624,1.2883994579315186
-24.57729721069336,2.9793925285339355,2.9980430603027344
-30.31988525390625,2.444666624069214,3.6835832595825195
-39.82509994506836,1.604762315750122,4.82663106918335
-38.02928924560547,0.0035042762756347656,4.605259418487549
-35.92582702636719,-1.4410383701324463,4.354033470153809
-34.01188278198242,-2.736084461212158,4.132063865661621
-32.631988525390625,-3.949751853942871,3.9805009365081787
-30.996137619018555,-5.022351264953613,3.802516222000122
-29.47896957397461,-6.000761985778809,3.6430466175079346
-28.064342498779297,-6.897526264190674,3.499666690826416
-26.73881721496582,-7.723055839538574,3.3703670501708984
-25.491138458251953,-8.486031532287598,3.253476619720459
-24.31170082092285,-9.193851470947266,3.147575855255127
-23.192325592041016,-9.852758407592773,3.0514705181121826
-22.126008987426758,-10.468072891235352,2.9641528129577637
-21.106626510620117,-11.044428825378418,2.8847413063049316
-19.898298263549805,-11.453068733215332,2.780280113220215
-18.96828842163086,-11.957048416137695,2.71530818939209
-18.07072639465332,-12.43285083770752,2.6562299728393555
-17.202007293701172,-12.883087158203125,2.6025657653808594
-16.358867645263672,-13.310079574584961,2.553901195526123
-15.53839111328125,-13.715876579284668,2.5098700523376465
-14.737937927246094,-14.102285385131836,2.4701595306396484
-13.955099105834961,-14.470934867858887,2.4344918727874756
-10.345437049865723,-11.628560066223145,1.884814977645874
-12.172196388244629,-14.841937065124512,2.324460506439209
-11.684041976928711,-15.47504711151123,2.3481507301330566
-10.951415061950684,-15.785553932189941,2.326577663421631
-10.226751327514648,-16.084224700927734,2.308136224746704
-9.508414268493652,-16.371931076049805,2.292714834213257
-8.901527404785156,-16.851369857788086,2.3078722953796387
-8.18278694152832,-17.122888565063477,2.2981503009796143
-7.465888500213623,-17.385507583618164,2.291260004043579
-6.749401569366455,-17.639814376831055,2.287165641784668
-6.031856060028076,-17.886375427246094,2.2858457565307617
-5.311819553375244,-18.12569236755371,2.2872931957244873
-4.587867736816406,-18.358240127563477,2.2915096282958984
-3.8584673404693604,-18.584449768066406,2.2985267639160156
-3.1221179962158203,-18.804718017578125,2.308379650115967
-2.377260208129883,-19.019411087036133,2.32112717628479
-1.6222238540649414,-19.228866577148438,2.336843490600586
-0.8552775979042053,-19.433412551879883,2.355618953704834
-0.07462671399116516,-19.63332176208496,2.377567768096924
0.711849570274353,-19.557903289794922,2.369985580444336
1.5148096084594727,-19.74648094177246,2.3982772827148438
2.3374853134155273,-19.931211471557617,2.4301645755767822
3.1823153495788574,-20.112316131591797,2.4658544063568115
3.700894832611084,-18.53223419189453,2.2885220050811768
5.017255783081055,-20.745651245117188,2.5846688747406006
5.958216667175293,-20.91930389404297,2.634023427963257
6.934094429016113,-21.0899600982666,2.688441038131714
7.948989391326904,-21.25775909423828,2.7483479976654053
6.574608325958252,-15.636798858642578,2.054150104522705
10.114418983459473,-21.58517074584961,2.886647939682007
11.275934219360352,-21.744962692260742,2.9662463665008545
12.456799507141113,-21.828977584838867,3.0435664653778076
12.481273651123047,-19.96361541748047,2.8511433601379395
10.499027252197266,-15.381824493408203,2.2552475929260254
13.633573532104492,-18.345462799072266,2.7678966522216797
14.55242919921875,-18.021881103515625,2.8050806522369385
15.77698802947998,-18.007535934448242,2.89923095703125
17.090347290039062,-17.99384307861328,3.0052173137664795
18.50759506225586,-17.980825424194336,3.1247904300689697
20.046886444091797,-17.968521118164062,3.2600817680358887
21.730628967285156,-17.95697593688965,3.4137349128723145
23.58669662475586,-17.946258544921875,3.5890700817108154
21.64757537841797,-15.137490272521973,3.198814630508423
36.768428802490234,-23.570186614990234,5.288885116577148
37.38511657714844,-21.898160934448242,5.246727466583252
37.74262237548828,-20.116443634033203,5.1792120933532715
49.49419021606445,-23.87841796875,6.654697418212891
55.19683074951172,-23.946107864379883,7.286120891571045
62.05760192871094,-24.00892448425293,8.057840347290039
67.70918273925781,-23.1137752532959,8.664010047912598
80.08208465576172,-23.791362762451172,10.116669654846191
83.24942016601562,-21.133033752441406,10.401061058044434
51.4918327331543,37.97087478637695,7.747596263885498
48.057342529296875,38.51205825805664,7.4577717781066895
-23.516407012939453,27.246305465698242,4.358475208282471
-23.496685028076172,25.10919952392578,4.164357662200928
-23.47937774658203,23.152095794677734,3.993102788925171
-23.00901985168457,20.933395385742188,3.766936779022217
-24.264148712158203,20.35525894165039,3.8353466987609863
-25.575912475585938,19.760997772216797,3.9139537811279297
-28.043312072753906,19.921188354492188,4.165621757507324
-30.092594146728516,19.60712432861328,4.349416732788086
-32.868404388427734,19.58139419555664,4.633094310760498
-33.64268112182617,18.2529354095459,4.6350507736206055
-33.318233489990234,16.380130767822266,4.495988845825195
-32.89377975463867,14.561240196228027,4.356201648712158
-32.48910140991211,12.847270011901855,4.2307891845703125
-32.14654541015625,11.240715026855469,4.124001502990723
-13.109140396118164,4.000616073608398,1.6597645282745361
-13.107659339904785,3.4310896396636963,1.6407862901687622
-39.56565856933594,8.674830436706543,4.905116558074951
-18.77015495300293,3.3314011096954346,2.308546543121338
-42.18506622314453,5.750144958496094,5.155744552612305
-41.392539978027344,3.9563350677490234,5.035369873046875
-35.91313552856445,1.9811549186706543,4.355607509613037
-39.055137634277344,0.583036482334137,4.73000431060791
-36.678627014160156,-0.9264838695526123,4.443113327026367
-34.69847106933594,-2.273768901824951,4.21091890335083
-33.26971435546875,-3.527003288269043,4.051464080810547
-31.585376739501953,-4.638028144836426,3.865931749343872
-30.026405334472656,-5.649637222290039,3.6999335289001465
-28.575605392456055,-6.575233459472656,3.550868034362793
-27.218605041503906,-7.425960540771484,3.4165821075439453
-25.94337272644043,-8.211127281188965,3.2952823638916016
-24.739744186401367,-8.938536643981934,3.1854724884033203
-23.599069595336914,-9.614828109741211,3.0858798027038574
-22.513914108276367,-10.245674133300781,2.9954235553741455
-21.477893829345703,-10.835897445678711,2.9131903648376465
-20.433517456054688,-11.36093521118164,2.8311994075775146
-19.307666778564453,-11.774406433105469,2.7385833263397217
-18.398588180541992,-12.260278701782227,2.677389144897461
-17.51961326599121,-12.719675064086914,2.621776580810547
-16.667388916015625,-13.154998779296875,2.571310043334961
-15.838863372802734,-13.56839656829834,2.525608539581299
-15.031311988830566,-13.961767196655273,2.48433518409729
-14.242237091064453,-14.33679485321045,2.4472062587738037
-13.373537063598633,-14.590476036071777,2.3967978954315186
-12.223180770874023,-14.461140632629395,2.292973041534424
-11.95687484741211,-15.357234001159668,2.356930732727051
-11.220888137817383,-15.672338485717773,2.3341727256774902
-10.493471145629883,-15.975275993347168,2.3145883083343506
-9.772984504699707,-16.26693344116211,2.2980635166168213
-9.167654037475586,-16.748735427856445,2.3121914863586426
-8.447848320007324,-17.023717880249023,2.301405668258667
-7.730445861816406,-17.2895450592041,2.293476104736328
-7.013966083526611,-17.54685401916504,2.2883548736572266
-6.296966552734375,-17.796218872070312,2.2860119342803955
-5.578044414520264,-18.038148880004883,2.28643536567688
-4.855696678161621,-18.273143768310547,2.2896296977996826
-4.12847375869751,-18.501651763916016,2.2956080436706543
-3.394899845123291,-18.724058151245117,2.3044090270996094
-2.6533679962158203,-18.94076919555664,2.3160784244537354
-1.9022910594940186,-19.15212631225586,2.3306875228881836
-1.139955759048462,-19.358444213867188,2.348323345184326
-0.3645747900009155,-19.560033798217773,2.369086742401123
0.4199153482913971,-19.48726463317871,2.360410213470459
1.2161602973937988,-19.677310943603516,2.387423038482666
2.031296968460083,-19.86343765258789,2.4179608821868896
2.8676412105560303,-20.045860290527344,2.452219247817993
3.5151381492614746,-19.071107864379883,2.348367929458618
4.262747764587402,-18.845233917236328,2.339768409729004
5.606916904449463,-20.85554313659668,2.615231513977051
6.569482803344727,-21.027301788330078,2.6677322387695312
7.569453239440918,-21.196136474609375,2.7255585193634033
8.611226081848145,-21.362173080444336,2.7891762256622314
6.838912487030029,-15.176941871643066,2.015866994857788
10.840332984924316,-21.68625831604004,2.935974359512329
12.039603233337402,-21.844457626342773,3.0204825401306152
12.472668647766113,-20.624347686767578,2.918757200241089
12.494937896728516,-18.90224838256836,2.743919849395752
13.410359382629395,-18.61578941345215,2.778355121612549
14.12015438079834,-18.027339935302734,2.773015260696411
15.315191268920898,-18.012758255004883,2.8631703853607178
16.59418487548828,-17.998821258544922,2.9646034240722656
15.16960334777832,-15.181766510009766,2.5989577770233154
19.46302032470703,-17.972978591918945,3.208143711090088
21.09050941467285,-17.961143493652344,3.354670763015747
22.879289627075195,-17.95011329650879,3.5215654373168945
15.052129745483398,-18.08513069152832,3.0479981899261475
16.31485366821289,-18.073352813720703,3.154010057449341
14.99374771118164,-15.324554443359375,2.777266025543213
19.141809463500977,-18.052759170532227,3.408411979675293
20.742280960083008,-18.04410743713379,3.5613465309143066
22.49869155883789,-18.036712646484375,3.735391855239868
30.56997299194336,-22.551414489746094,4.9209370613098145
33.388954162597656,-22.61783790588379,5.224120140075684
36.547462463378906,-22.670698165893555,5.571203231811523
37.457542419433594,-21.20061492919922,5.5755109786987305
37.67459487915039,-19.368080139160156,5.487480640411377
48.92224884033203,-22.714061737060547,6.987093448638916
54.38236999511719,-22.640193939208984,7.63075590133667
61.03031539916992,-22.57632064819336,8.429403305053711
67.64725494384766,-21.97757339477539,9.213845252990723
79.09197998046875,-22.22572898864746,10.642363548278809
83.17337799072266,-19.80506134033203,11.075459480285645
96.01301574707031,-18.82217788696289,12.674198150634766
-13.998144149780273,36.60493850708008,5.076667785644531
-42.8210563659668,52.232627868652344,8.749316215515137
-23.543962478637695,26.473848342895508,4.589389324188232
-23.523624420166016,24.4021053314209,4.3906426429748535
-23.50575065612793,22.50016975402832,4.215059757232666
-23.03659439086914,20.342126846313477,3.9810662269592285
-24.2772274017334,19.760099411010742,4.0548996925354
-26.598966598510742,19.928386688232422,4.305394649505615
-28.732446670532227,19.77601432800293,4.5183868408203125
-31.088388442993164,19.605224609375,4.761078834533691
-33.694400787353516,19.402097702026367,5.036653518676758
-33.34689712524414,17.45720863342285,4.87585973739624
-32.91967010498047,15.582121849060059,4.717982769012451
-32.51295471191406,13.819478988647461,4.57636833190918
-32.19551086425781,12.182022094726562,4.4591498374938965
-33.70760726928711,11.228204727172852,4.6023383140563965
-13.122026443481445,3.7926788330078125,1.769395112991333
-13.404152870178223,3.2970199584960938,1.788119912147522
-41.32465744018555,8.419976234436035,5.463156700134277
-10.512564659118652,1.7053407430648804,1.3795913457870483
-24.692724227905273,2.993385076522827,3.2220957279205322
-30.34225845336914,2.4464709758758545,3.9432716369628906
-36.17987060546875,1.4578611850738525,4.690519332885742
-36.719627380371094,0.003381967544555664,4.756636619567871
-34.75389862060547,-1.3940305709838867,4.505618095397949
-32.957176208496094,-2.6512396335601807,4.283044815063477
-31.66693687438965,-3.8329434394836426,4.1320576667785645
-30.11930274963379,-4.880275249481201,3.9525210857391357
-28.679079055786133,-5.837934970855713,3.791257858276367
-27.33201789855957,-6.717540264129639,3.645939350128174
-26.066211700439453,-7.528786659240723,3.5146241188049316
-24.871620178222656,-8.279790878295898,3.3956923484802246
-23.739622116088867,-8.97751235961914,3.287761688232422
-22.66286849975586,-9.627832412719727,3.1896700859069824
-21.635038375854492,-10.235786437988281,3.1004204750061035
-20.650545120239258,-10.805777549743652,3.0191547870635986
-19.70458221435547,-11.341569900512695,2.945139169692993
-18.577611923217773,-11.710779190063477,2.8447673320770264
-17.70646858215332,-12.18224048614502,2.784118175506592
-16.86212730407715,-12.628546714782715,2.728983163833618
-16.04157829284668,-13.051921844482422,2.6789441108703613
-15.24211311340332,-13.454347610473633,2.6336376667022705
-14.461288452148438,-13.837562561035156,2.592751979827881
-13.696850776672363,-14.203139305114746,2.5560085773468018
-10.358268737792969,-11.642984390258789,2.0187056064605713
-12.191341400146484,-14.865283012390137,2.490408420562744
-11.47523021697998,-15.198490142822266,2.466949701309204
-10.757469177246094,-15.505992889404297,2.444685935974121
-10.047046661376953,-15.801589965820312,2.4256505966186523
-9.34243106842041,-16.086130142211914,2.4097256660461426
-8.746969223022461,-16.558774948120117,2.425888776779175
-8.041298866271973,-16.826814651489258,2.415844202041626
-7.3371758460998535,-17.085777282714844,2.4087281227111816
-6.633247375488281,-17.33623504638672,2.4044976234436035
-5.928104400634766,-17.57872772216797,2.403132915496826
-5.220405578613281,-17.813737869262695,2.4046268463134766
-4.508760929107666,-18.041706085205078,2.4089858531951904
-3.7917368412017822,-18.2630558013916,2.4162323474884033
-3.067899465560913,-18.478139877319336,2.4264135360717773
-2.3357553482055664,-18.68730926513672,2.4395782947540283
-1.5937070846557617,-18.890880584716797,2.455803632736206
-0.8401268720626831,-19.089136123657227,2.4751853942871094
-0.07329243421554565,-19.282323837280273,2.497835874557495
0.6989908218383789,-19.204652786254883,2.489405632019043
1.4871318340301514,-19.38564109802246,2.5185816287994385
2.294215679168701,-19.5622501373291,2.5514461994171143
3.1225528717041016,-19.734638214111328,2.5882132053375244
3.630300521850586,-18.17872428894043,2.4013547897338867
4.919897079467773,-20.343093872070312,2.711195945739746
5.8404412269592285,-20.505786895751953,2.7619409561157227
6.794255256652832,-20.664634704589844,2.817849636077881
7.785179615020752,-20.819684982299805,2.879347324371338
6.558769702911377,-15.59913444519043,2.192049026489258
9.895722389221191,-21.118446350097656,3.0211079120635986
11.025546073913574,-21.262104034423828,3.1025614738464355
12.213071823120117,-21.401859283447266,3.192025661468506
12.459049224853516,-19.92806625366211,3.044464349746704
10.519607543945312,-15.411980628967285,2.4171876907348633
13.61192512512207,-18.31632423400879,2.9561424255371094
14.607196807861328,-18.089706420898438,3.0119144916534424
15.83836841583252,-18.077592849731445,3.113401412963867
17.15927505493164,-18.066415786743164,3.2276763916015625
18.585224151611328,-18.056243896484375,3.356640338897705
20.134626388549805,-18.047163009643555,3.502601385116577
21.830232620239258,-18.039289474487305,3.6684436798095703
29.603103637695312,-22.52391815185547,4.818562030792236
21.69353485107422,-15.169629096984863,3.4290668964385986
35.33753967285156,-22.652925491333008,5.437401294708252
37.551788330078125,-21.99578094482422,5.637492656707764
37.302433013916016,-19.88182830810547,5.47563362121582
47.09479904174805,-22.7208309173584,6.773495674133301
52.30626678466797,-22.69208335876465,7.385865211486816
58.44989013671875,-22.613170623779297,8.118451118469238
65.93085479736328,-22.50669288635254,9.024548530578613
67.68566131591797,-20.108552932739258,9.146703720092773
83.16719055175781,-21.112165451049805,11.11512565612793
51.39799499511719,37.901676177978516,8.272574424743652
47.93516159057617,38.41413116455078,7.957362651824951
-23.55217170715332,27.287742614746094,4.6693925857543945
