-38.7808952331543,14.483894348144531,4.316256523132324
-67.08721160888672,22.0278377532959,7.362195014953613
-70.45500946044922,20.036623001098633,7.637211322784424
-27.978485107421875,6.754708766937256,3.0009608268737793
-33.415985107421875,6.6594061851501465,3.552598714828491
-44.82975387573242,7.0750250816345215,4.7319817543029785
-55.481040954589844,6.484344005584717,5.824053764343262
-79.1522445678711,-16.4661865234375,8.429412841796875
-67.28836059570312,-63.589088439941406,10.43140697479248
-56.28364944458008,-73.58911895751953,10.438655853271484
-26.754440307617188,-55.101383209228516,6.90158748626709
-24.053287506103516,-55.064571380615234,6.770386695861816
-21.448562622070312,-55.028621673583984,6.654567241668701
-18.998275756835938,-55.199501037597656,6.577554225921631
-18.598840713500977,-62.032833099365234,7.296814918518066
-22.882755279541016,-89.20225524902344,10.376112937927246
-18.855321884155273,-88.06153106689453,10.14704704284668
-12.403762817382812,-71.93620300292969,8.224870681762695
4.347010135650635,-61.6966552734375,6.968778133392334
10.904537200927734,-98.26084899902344,11.139311790466309
12.278071403503418,-80.85333251953125,9.214424133300781
13.819864273071289,-71.51679992675781,8.20708179473877
16.814115524291992,-71.46707916259766,8.272266387939453
17.52614974975586,-63.020050048828125,7.370132923126221
17.198007583618164,-53.42531967163086,6.32379150390625
17.015071868896484,-46.38045883178711,5.566386699676514
15.692246437072754,-37.981483459472656,4.63035249710083
8.632209777832031,-18.724302291870117,2.3231256008148193
9.392111778259277,-18.391191482543945,2.3267664909362793
15.339598655700684,-27.273509979248047,3.5256872177124023
15.030561447143555,-24.377254486083984,3.226790189743042
16.21144676208496,-24.07120132446289,3.2699103355407715
16.4471435546875,-22.421485900878906,3.1331026554107666
8.926615715026855,-11.196634292602539,1.613425374031067
14.962544441223145,-17.293859481811523,2.5766303539276123
15.074097633361816,-16.070016860961914,2.482577323913574
15.116475105285645,-14.870135307312012,2.3891661167144775
15.755858421325684,-14.300124168395996,2.3974223136901855
13.213387489318848,-11.05783462524414,1.9413431882858276
17.697778701782227,-13.640251159667969,2.5175976753234863
18.779525756835938,-13.306673049926758,2.5932862758636475
17.614871978759766,-11.447161674499512,2.366995096206665
22.70207405090332,-13.488007545471191,2.9753122329711914
24.852697372436523,-13.445446014404297,3.1837565898895264
32.439186096191406,-15.899786949157715,4.070443630218506
24.504913330078125,-10.812636375427246,3.0178780555725098
32.447998046875,-12.786108016967773,3.9296107292175293
29.419574737548828,-10.247655868530273,3.5101311206817627
30.334598541259766,-9.217750549316406,3.572200298309326
31.906768798828125,-8.311187744140625,3.7149925231933594
31.811004638671875,-6.934717178344727,3.6684200763702393
32.071937561035156,-5.652660369873047,3.6693356037139893
31.935169219970703,-4.314088344573975,3.6309142112731934
31.779220581054688,-2.9990882873535156,3.596567392349243
31.604421615600586,-1.7055190801620483,3.5661463737487793
31.199344635009766,0.8254387378692627,3.516552448272705
30.96933364868164,2.066624879837036,3.4971678256988525
30.36028289794922,3.2553036212921143,3.4403905868530273
30.096839904785156,4.456259727478027,3.4280686378479004
29.81515121459961,5.646839141845703,3.4190831184387207
27.331775665283203,6.323485374450684,3.1608974933624268
29.54319190979004,8.09817886352539,3.45149302482605
29.201251983642578,9.280715942382812,3.4523508548736572
28.839590072631836,10.458855628967285,3.4565136432647705
28.4576416015625,11.634065628051758,3.463991165161133
28.05480194091797,12.807787895202637,3.474827766418457
27.612276077270508,13.972298622131348,3.4867911338806152
27.165769577026367,15.146653175354004,3.504472255706787
25.309986114501953,15.476402282714844,3.342637538909912
23.099376678466797,15.432729721069336,3.130099058151245
21.150392532348633,15.394426345825195,2.94748592376709
19.413890838623047,15.360492706298828,2.7892961502075195
17.85211181640625,15.33015251159668,2.651318073272705
16.435571670532227,15.302807807922363,2.530264139175415
14.86382007598877,14.998388290405273,2.3792004585266113
14.85464096069336,16.245359420776367,2.4802699089050293
14.860718727111816,17.624343872070312,2.5974924564361572
14.868117332458496,19.143651962280273,2.7311060428619385
8.91364574432373,12.48132038116455,1.728112816810608
16.018463134765625,24.450244903564453,3.2934536933898926
16.03258514404297,26.758413314819336,3.514704704284668
16.049766540527344,29.405452728271484,3.774587869644165
16.104373931884766,32.55057144165039,4.091892242431641
15.814021110534668,35.48279571533203,4.377037525177002
14.722707748413086,36.960079193115234,4.482635498046875
13.563612937927246,38.47918701171875,4.597027778625488
12.330665588378906,40.04436111450195,4.720980167388916
11.01997184753418,41.67156982421875,4.856662750244141
9.617853164672852,43.345970153808594,5.002701282501221
8.123909950256348,45.11383819580078,5.164861679077148
6.308576583862305,45.42890167236328,5.167728424072266
4.721479415893555,48.121437072753906,5.448022365570068
2.887728452682495,50.06016159057617,5.6498026847839355
0.9214043617248535,52.82931137084961,5.953339099884033
-1.250889539718628,54.9931640625,6.197845458984375
-3.609206438064575,57.28204345703125,6.466938018798828
-5.874230861663818,56.77069854736328,6.430674076080322
-8.85953426361084,61.4066162109375,6.990505695343018
-11.695610046386719,63.029998779296875,7.22299337387085
-14.401349067687988,63.31489181518555,7.31608247756958
-17.19511604309082,63.65510559082031,7.4292755126953125
-12.400734901428223,39.52549743652344,4.667496681213379
-20.97892189025879,58.524314880371094,7.004970073699951
-13.352690696716309,33.01052474975586,4.012153625488281
-13.864533424377441,30.670162200927734,3.792386531829834
-14.317452430725098,28.556760787963867,3.5993292331695557
-14.720779418945312,26.633743286132812,3.428772449493408
-15.081982612609863,24.87175178527832,3.277350902557373
-15.40706729888916,23.24715232849121,3.142360210418701
-16.725149154663086,23.158710479736328,3.2186951637268066
-21.190160751342773,26.987049102783203,3.8660523891448975
-21.200096130371094,24.873788833618164,3.6824405193328857
-21.955699920654297,23.75701904296875,3.6448423862457275
-23.772314071655273,23.734464645385742,3.7849526405334473
-25.737796783447266,23.710330963134766,3.942932605743408
-27.685625076293945,23.52054786682129,4.09316349029541
-30.22662353515625,23.656105041503906,4.324734210968018
-31.200069427490234,22.456989288330078,4.331334590911865
-11.125204086303711,7.347733497619629,1.5022287368774414
-11.24415111541748,6.79384708404541,1.4802134037017822
-31.20271873474121,17.181228637695312,4.013442516326904
-31.16380500793457,15.562394142150879,3.9247939586639404
-30.667285919189453,13.804373741149902,3.789306640625
-16.944368362426758,6.822540283203125,2.058119058609009
-39.697940826416016,14.158958435058594,4.748873233795166
-22.194929122924805,6.924589157104492,2.619652271270752
-72.51001739501953,19.46306037902832,8.459118843078613
-80.8041000366211,18.243938446044922,9.333609580993652
-81.11483764648438,14.91757583618164,9.292720794677734
-81.35160827636719,11.604715347290039,9.258916854858398
-42.39742660522461,4.318662166595459,4.801762580871582
-54.46542739868164,-75.08129119873047,10.451098442077637
-27.741697311401367,-55.04109573364258,6.944828987121582
-25.038606643676758,-55.07805252075195,6.816969394683838
-22.399869918823242,-55.04180145263672,6.695615291595459
-19.849233627319336,-55.00631332397461,6.588899612426758
-18.622873306274414,-58.921058654785156,6.962517738342285
-24.414409637451172,-89.62714385986328,10.466516494750977
-20.322473526000977,-88.48111724853516,10.229013442993164
-17.742206573486328,-94.5020523071289,10.833857536315918
12.606328010559082,-92.21072387695312,10.486300468444824
12.405305862426758,-69.73440551757812,7.980541706085205
15.703089714050293,-71.485595703125,8.24653434753418
18.72933006286621,-71.43498992919922,8.320838928222656
17.36355972290039,-56.81569290161133,6.693870544433594
17.077083587646484,-48.77553176879883,5.822782516479492
15.295199394226074,-38.63480758666992,4.681816101074219
14.969751358032227,-33.78045654296875,4.163130760192871
9.033818244934082,-18.35696792602539,2.305225372314453
15.159951210021973,-27.915416717529297,3.579198122024536
15.299845695495605,-25.65843391418457,3.3659636974334717
15.772164344787598,-24.185752868652344,3.253324270248413
16.464570999145508,-23.157907485961914,3.201521396636963
8.934938430786133,-11.554656982421875,1.6457329988479614
9.266393661499023,-11.036931037902832,1.623741865158081
15.085214614868164,-16.56772232055664,2.524611473083496
14.771692276000977,-14.968588829040527,2.3695123195648193
15.718027114868164,-14.696915626525879,2.424579381942749
12.980573654174805,-11.194612503051758,1.9313287734985352
17.312793731689453,-13.757739067077637,2.4915969371795654
18.373180389404297,-13.432562828063965,2.5644118785858154
20.17057991027832,-13.537803649902344,2.7371044158935547
17.825496673583984,-10.951708793640137,2.357234001159668
24.024452209472656,-13.461861610412598,3.102898120880127
26.372787475585938,-13.41524600982666,3.333848476409912
24.182554244995117,-11.101863861083984,2.9981319904327393
32.45378875732422,-13.347941398620605,3.95386004447937
32.4306755065918,-11.838854789733887,3.889914035797119
29.097137451171875,-9.31543254852295,3.4423763751983643
31.93694305419922,-8.827027320861816,3.7333452701568604
31.848726272583008,-7.4395365715026855,3.6850907802581787
31.740293502807617,-6.08104133605957,3.64131760597229
31.9879207611084,-4.805449962615967,3.6446163654327393
31.839006423950195,-3.4819998741149902,3.6087846755981445
31.67113494873047,-2.1807684898376465,3.576930284500122
31.484609603881836,-0.8996500968933105,3.5489132404327393
31.27965545654297,0.36334028840065,3.5246076583862305
31.0563907623291,1.6100717782974243,3.5039124488830566
30.814861297607422,2.8423380851745605,3.4867396354675293
30.19622230529785,4.014151573181152,3.4322268962860107
29.921287536621094,5.208378314971924,3.4220149517059326
29.58516502380371,6.383979320526123,3.4101715087890625
29.664531707763672,7.660179138183594,3.4520163536071777
29.329771041870117,8.844722747802734,3.451648712158203
28.975446701049805,10.024312973022461,3.4545881748199463
28.601055145263672,11.200429916381836,3.4608452320098877
28.206016540527344,12.374506950378418,3.4704337120056152
27.771427154541016,13.53913688659668,3.4811413288116455
27.33328628540039,14.71279525756836,3.497537612915039
26.2047176361084,15.49413776397705,3.4300646781921387
23.882047653198242,15.448165893554688,3.204744577407837
21.842926025390625,15.408013343811035,3.011807680130005
20.03289794921875,15.372566223144531,2.845149517059326
18.41042137145996,15.340975761413574,2.700131416320801
16.94326400756836,15.312588691711426,2.573164939880371
15.380171775817871,15.065659523010254,2.425802230834961
14.30336856842041,15.183884620666504,2.350351095199585
14.858330726623535,17.10017204284668,2.55245041847229
14.865218162536621,18.5647029876709,2.6796820163726807
9.200181007385254,12.486637115478516,1.7475558519363403
8.594901084899902,12.70387077331543,1.7282023429870605
16.02705192565918,25.870786666870117,3.4289698600769043
16.092390060424805,28.470870971679688,3.6848645210266113
16.09609031677246,31.35474967956543,3.971148729324341
16.120113372802734,34.772865295410156,4.318491458892822
15.13320541381836,36.410003662109375,4.442663669586182
13.999807357788086,37.91320037841797,4.55372428894043
12.794881820678711,39.460845947265625,4.674051761627197
11.51187515258789,41.0575065612793,4.80447244644165
10.146130561828613,42.71971893310547,4.947251319885254
8.6900634765625,44.465213775634766,5.10480260848999
6.761382579803467,43.898990631103516,5.004552364349365
5.364865303039551,47.42726135253906,5.377851486206055
3.5808780193328857,49.33401107788086,5.573232173919678
1.6807552576065063,52.05754852294922,5.868533611297607
-0.428386390209198,54.18142318725586,6.1049723625183105
-2.715327262878418,56.42209243774414,6.364602565765381
-5.203289031982422,58.794097900390625,6.650399208068848
-7.808064937591553,60.45126724243164,6.867804527282715
-9.792510986328125,57.518272399902344,6.574007511138916
-13.384171485900879,63.161476135253906,7.274599075317383
-16.16997718811035,63.592735290527344,7.393173694610596
-11.66571044921875,39.210025787353516,4.609295845031738
-20.565250396728516,60.16558837890625,7.164109706878662
-13.146549224853516,33.940853118896484,4.101069450378418
-13.682987213134766,31.505599975585938,3.8701603412628174
-14.156451225280762,29.313129425048828,3.6677863597869873
-14.57713508605957,27.323551177978516,3.489352226257324
-14.953126907348633,25.505128860473633,3.331211566925049
-15.29091739654541,23.832279205322266,3.190436363220215
-16.63609504699707,23.770551681518555,3.2690677642822266
-21.185983657836914,27.821706771850586,3.9401614665985107
-21.196645736694336,25.630428314208984,3.7474846839904785
-21.318161010742188,23.764997482299805,3.597144365310669
-22.925891876220703,23.578794479370117,3.7054786682128906
-24.820383071899414,23.555431365966797,3.8555071353912354
-27.06574058532715,23.694171905517578,4.053045272827148
-29.333080291748047,23.666810989379883,4.24666166305542
-31.19902801513672,23.166555404663086,4.3784260749816895
-31.201459884643555,21.278717041015625,4.25527286529541
-11.125439643859863,6.949491024017334,1.4779967069625854
-31.20290756225586,17.78963851928711,4.046971797943115
-31.164348602294922,16.14466667175293,3.9545958042144775
-31.16259002685547,14.587105751037598,3.8768231868743896
-16.685949325561523,7.007931232452393,2.0391361713409424
-37.65884017944336,14.064826965332031,4.529408931732178
-22.584423065185547,7.4155192375183105,2.6783156394958496
-67.68556213378906,19.249019622802734,7.928738117218018
-27.954940795898438,6.749022960662842,3.240259885787964
-33.37150192260742,6.650540828704834,3.8340067863464355
-44.739261627197266,7.060740947723389,5.103296279907227
-55.41316223144531,6.47641134262085,6.2860636711120605
-78.92996215820312,-16.41994857788086,9.08366870880127
-78.99771881103516,-15.56966781616211,9.750466346740723
-67.26688385009766,-63.56877136230469,11.207796096801758
-56.284828186035156,-73.59063720703125,11.219400405883789
-23.99588394165039,-49.42009735107422,6.652823448181152
-23.43412208557129,-53.647132873535156,7.089308261871338
-21.440349578857422,-55.00755310058594,7.1493988037109375
-18.91971206665039,-54.9712028503418,7.040126800537109
-18.735370635986328,-62.48820877075195,7.899978160858154
-22.442096710205078,-87.4844970703125,10.937193870544434
-20.75749969482422,-96.9453125,12.005948066711426
-12.388067245483398,-71.84506225585938,8.828658103942871
4.353069305419922,-61.78275680541992,7.500296592712402
9.93704605102539,-89.54267883300781,10.909977912902832
10.863739967346191,-71.53965759277344,8.762604713439941
13.814891815185547,-71.49104309082031,8.817556381225586
16.80801773071289,-71.4411392211914,8.887565612792969
17.62316131591797,-63.368831634521484,7.965043544769287
17.28002166748047,-53.68008041381836,6.829037189483643
17.215599060058594,-46.92708969116211,6.053101539611816
15.751102447509766,-38.12393569946289,4.99523401260376
8.623674392700195,-18.705785751342773,2.494359016418457
9.376412391662598,-18.360454559326172,2.4965615272521973
15.383615493774414,-27.351768493652344,3.8001816272735596
14.884793281555176,-24.14084243774414,3.434429168701172
16.033655166625977,-23.80721092224121,3.475865125656128
16.486936569213867,-22.47572898864746,3.3755135536193848
8.946484565734863,-11.221552848815918,1.7379220724105835
15.137286186218262,-17.495826721191406,2.8016293048858643
15.104531288146973,-16.10245704650879,2.673588275909424
14.953878402709961,-14.710187911987305,2.5401885509490967
15.900890350341797,-14.43175220489502,2.600397825241089
13.218297004699707,-11.061944007873535,2.087275505065918
17.489524841308594,-13.479740142822266,2.674001455307007
19.122879028320312,-13.549965858459473,2.8381476402282715
17.66292381286621,-11.478384017944336,2.550917148590088
22.686784744262695,-13.478923797607422,3.1956281661987305
24.83479118347168,-13.435757637023926,3.419344186782837
31.313190460205078,-15.347884178161621,4.2229413986206055
24.515491485595703,-10.817300796508789,3.2449281215667725
31.359363555908203,-12.35713005065918,4.0817341804504395
29.123760223388672,-10.144613265991211,3.7346553802490234
30.299814224243164,-9.207179069519043,3.8348982334136963
30.881223678588867,-8.044053077697754,3.864433765411377
30.800962448120117,-6.714529991149902,3.8175251483917236
31.0649356842041,-5.4751787185668945,3.8198742866516113
30.942644119262695,-4.180009365081787,3.781118392944336
30.800594329833984,-2.906733274459839,3.7464523315429688
30.639169692993164,-1.6534298658370972,3.7157299518585205
30.25931167602539,0.8005685210227966,3.665613889694214
30.041227340698242,2.0046908855438232,3.6460120677948
29.45443344116211,3.1581759452819824,3.5873074531555176
29.20196533203125,4.323762893676758,3.5748424530029297
28.930919647216797,5.4793701171875,3.5657482147216797
26.76598358154297,6.192585468292236,3.326916456222534
28.669034957885742,7.858565807342529,3.5998034477233887
28.33701515197754,9.00604248046875,3.600674867630005
27.985042572021484,10.148957252502441,3.6048803329467773
27.612640380859375,11.288616180419922,3.612452745437622
27.219242095947266,12.42631721496582,3.6234214305877686
26.786619186401367,13.5545015335083,3.6354479789733887
26.349472045898438,14.691515922546387,3.6533279418945312
25.327919006347656,15.487366676330566,3.5951156616210938
23.114696502685547,15.442968368530273,3.366372585296631
21.16360855102539,15.404043197631836,3.1698520183563232
19.42536163330078,15.369571685791016,2.9996275901794434
17.862138748168945,15.338766098022461,2.8511600494384766
16.44438934326172,15.311013221740723,2.720913887023926
15.699905395507812,15.842041969299316,2.700932264328003
14.884453773498535,16.27796745300293,2.6710736751556396
14.891956329345703,17.661401748657227,2.797581195831299
14.900981903076172,19.18596839904785,2.9418044090270996
8.917617797851562,12.486886024475098,1.8581544160842896
16.058156967163086,24.510835647583008,3.548482656478882
16.074993133544922,26.829191207885742,3.7874948978424072
16.095365524291992,29.489004135131836,4.06834602355957
16.153881072998047,32.65061569213867,4.411360740661621
15.227350234985352,34.16645050048828,4.529797077178955
14.161323547363281,35.550777435302734,4.634102821350098
13.033745765686035,36.97597122192383,4.747741222381592
9.944746971130371,32.29597473144531,4.092184543609619
8.517998695373535,32.210472106933594,4.0346999168396
8.2831449508667,37.33063888549805,4.630599498748779
7.769411087036133,43.14522171020508,5.308817386627197
6.219022274017334,44.78398895263672,5.475277900695801
4.501766204833984,45.8820686340332,5.582890033721924
2.748601198196411,47.648441314697266,5.7797064781188965
0.8753741383552551,50.19072341918945,6.078904151916504
-1.185985803604126,52.13995361328125,6.315659523010254
-3.4139299392700195,54.1827392578125,6.574416160583496
-5.829484939575195,56.33831787109375,6.858864784240723
-8.337383270263672,57.787601470947266,7.070402145385742
-11.065996170043945,59.63686752319336,7.34515380859375
-13.58518123626709,59.72663879394531,7.41748571395874
-16.183795928955078,59.91130828857422,7.515149116516113
-18.341102600097656,58.45956802368164,7.419543266296387
-20.898801803588867,58.30073928833008,7.499980449676514
-13.215731620788574,32.671905517578125,4.267914295196533
-13.565603256225586,30.008926391601562,3.988070011138916
-14.024154663085938,27.971763610839844,3.789208173751831
-14.433232307434082,26.113468170166016,3.6131606101989746
-14.800145149230957,24.40696907043457,3.4565789699554443
-15.768223762512207,23.792095184326172,3.456486940383911
-16.977706909179688,23.5084228515625,3.511600971221924
-21.14542007446289,26.930072784423828,4.1463494300842285
-21.157453536987305,24.823762893676758,3.9498212337493896
-21.966276168823242,23.768465042114258,3.919259548187256
-23.78421401977539,23.746339797973633,4.06999397277832
-25.751209259033203,23.72269058227539,4.239959239959717
-27.700702667236328,23.533363342285156,4.401610374450684
-30.24390411376953,23.66963005065918,4.650757312774658
-31.149824142456055,22.420822143554688,4.647697448730469
-11.10777473449707,7.336221694946289,1.6120226383209229
-11.251776695251465,6.798456192016602,1.5919691324234009
-31.156152725219727,17.15558624267578,4.307095527648926
-31.155956268310547,15.558484077453613,4.217190265655518
-31.154733657836914,14.023799896240234,4.137368202209473
-16.93514633178711,6.81882905960083,2.210803508758545
-38.52702331542969,13.741333961486816,4.95340633392334
-22.178159713745117,6.919358730316162,2.8133997917175293
-69.58625030517578,18.678266525268555,8.725025177001953
-79.86840057373047,18.032678604125977,9.915332794189453
-39.046661376953125,7.180946350097656,4.807754039764404
-80.4027328491211,11.469356536865234,9.835153579711914
-66.4263687133789,6.766281604766846,8.085701942443848
-54.34404754638672,-74.9139404296875,11.207503318786621
-27.7679443359375,-55.09317398071289,7.471163272857666
-23.67763900756836,-52.084259033203125,6.928439140319824
-22.391218185424805,-55.020599365234375,7.193478107452393
-19.841197967529297,-54.98402404785156,7.078690052032471
-18.815561294555664,-59.53074264526367,7.560542106628418
-23.621475219726562,-86.71622467041016,10.88376235961914
-19.936553955078125,-86.80093383789062,10.785080909729004
8.832390785217285,-92.02213287353516,11.19487476348877
11.686877250671387,-85.48528289794922,10.448363304138184
3.1944141387939453,-17.956876754760742,2.2086756229400635
15.697409629821777,-71.45972442626953,8.859931945800781
18.238590240478516,-69.56333923339844,8.708678245544434
17.4508113861084,-57.101158142089844,7.230526447296143
17.152042388916016,-48.9896125793457,6.2856268882751465
17.609344482421875,-44.48019790649414,5.7932000160217285
15.677574157714844,-35.37773513793945,4.685978889465332
9.024740219116211,-18.33851432800293,2.475099563598633
15.365056991577148,-28.29311180114746,3.8988664150238037
15.341753959655762,-25.728713989257812,3.627549171447754
15.61795711517334,-23.94929313659668,3.4623920917510986
16.50525665283203,-23.215116500854492,3.4494011402130127
8.955224990844727,-11.580891609191895,1.7728022336959839
9.262166976928711,-11.031893730163574,1.7443543672561646
15.116185188293457,-16.601743698120117,2.718951940536499
14.614095687866211,-14.808895111083984,2.519514322280884
15.546483993530273,-14.536518096923828,2.5774261951446533
12.985371589660645,-11.198753356933594,2.076505184173584
17.111148834228516,-13.597498893737793,2.64670729637146
18.15300941467285,-13.271591186523438,2.7231268882751465
20.158084869384766,-13.529417991638184,2.9399397373199463
17.830440521240234,-10.95474910736084,2.534188747406006
24.00757598876953,-13.452408790588379,3.332566022872925
26.352895736694336,-13.405123710632324,3.580420732498169
24.24148178100586,-11.128922462463379,3.2301599979400635
31.35845947265625,-12.897443771362305,4.106072902679443
28.207563400268555,-10.297211647033691,3.6363587379455566
28.85192108154297,-9.23692798614502,3.6685874462127686
30.905529022216797,-8.54195499420166,3.882906913757324
30.83303451538086,-7.20228385925293,3.8343207836151123
30.739707946777344,-5.889340400695801,3.7902097702026367
30.99012565612793,-4.655552864074707,3.7949419021606445
30.855310440063477,-3.374420166015625,3.7587857246398926
30.701004028320312,-2.113968849182129,3.7266225814819336
30.527524948120117,-0.8723015785217285,3.698319911956787
30.33509635925293,0.3523685932159424,3.6737587451934814
30.12391471862793,1.5617297887802124,3.6528351306915283
29.894039154052734,2.7574024200439453,3.635467290878296
29.29733657836914,3.8946585655212402,3.5790493488311768
29.033161163330078,5.0537824630737305,3.568716526031494
28.75031280517578,6.203824043273926,3.5617284774780273
28.786653518676758,7.43349027633667,3.6003339290618896
28.461894989013672,8.583002090454102,3.599961042404175
28.117341995239258,9.72744369506836,3.602940082550049
27.75255012512207,10.868149757385254,3.6092679500579834
27.366971969604492,12.006402015686035,3.618971347808838
26.94232940673828,13.134933471679688,3.6297314167022705
26.513526916503906,14.2715425491333,3.6463165283203125
26.061853408813477,15.409661293029785,3.666433334350586
23.898265838623047,15.458659172058105,3.446707248687744
21.856868743896484,15.417848587036133,3.239069700241089
20.04497528076172,15.3818359375,3.0597288608551025
18.420957565307617,15.34975528717041,2.9036853313446045
16.952505111694336,15.320938110351562,2.7670717239379883
16.044479370117188,15.716379165649414,2.719794273376465
14.882023811340332,15.798163414001465,2.6282849311828613
14.889020919799805,17.135488510131836,2.7489657402038574
14.897456169128418,18.604961395263672,2.8862903118133545
9.204328536987305,12.492267608642578,1.879068374633789
8.621265411376953,12.742841720581055,1.86311936378479
16.068405151367188,25.937541961669922,3.6948678493499756
16.13324546813965,28.54314613342285,3.970438003540039
16.14411163330078,31.44829750061035,4.280810832977295
15.6047945022583,33.66126251220703,4.493017673492432
14.56856918334961,35.0515022277832,4.596691608428955
13.457850456237793,36.44551467895508,4.70474910736084
10.683690071105957,32.949703216552734,4.194639205932617
8.960925102233887,31.959495544433594,4.019472122192383
9.720952033996582,40.92949676513672,5.09434175491333
8.315077781677246,42.54649353027344,5.249748229980469
6.437027454376221,41.79303741455078,5.120715618133545
5.118266582489014,45.247310638427734,5.514288425445557
3.410595655441284,46.9879264831543,5.7050981521606445
1.597954511642456,49.492706298828125,5.9965739250183105
-0.40647217631340027,51.40990447998047,6.225813388824463
-2.5707099437713623,53.416934967041016,6.47615385055542
-4.914433479309082,55.53029251098633,6.75087308883667
-7.355504035949707,56.94746017456055,6.953493595123291
-9.564231872558594,56.177398681640625,6.900843143463135
-12.680036544799805,59.83847427368164,7.407197952270508
-15.244877815246582,59.95451736450195,7.491377830505371
-11.650416374206543,39.15859603881836,4.9474406242370605
-19.818260192871094,57.980186462402344,7.420091152191162
-20.936363220214844,54.05207061767578,7.0194411277771
-13.382059097290039,30.812686920166016,4.068055629730225
-13.86104965209961,28.701457977294922,3.8597729206085205
-14.287458419799805,26.78058624267578,3.6757302284240723
-14.669188499450684,25.02081871032715,3.512305498123169
-15.012614250183105,23.398517608642578,3.3665788173675537
-16.643301010131836,23.780847549438477,3.515021562576294
-21.140398025512695,27.761837005615234,4.225659370422363
-21.153263092041016,25.57797622680664,4.019444942474365
-21.328296661376953,23.77629852294922,3.8679442405700684
-22.93719482421875,23.590425491333008,3.9845049381256104
-24.833120346069336,23.56751823425293,4.145913600921631
-27.08024787902832,23.706867218017578,4.358430862426758
-29.34953498840332,23.680099487304688,4.5667500495910645
-31.148239135742188,23.128843307495117,4.698145866394043
-31.1520938873291,21.245058059692383,4.566208839416504
-11.108292579650879,6.938777923583984,1.5860594511032104
-31.15595245361328,17.76287078857422,4.343023777008057
-31.156152725219727,16.14042854309082,4.2491655349731445
-31.155302047729492,14.58370304107666,4.165719509124756
-16.676950454711914,7.004153251647949,2.190423011779785
-36.59796905517578,13.668609619140625,4.730942726135254
-22.524883270263672,7.395968914031982,2.8709871768951416
-66.89295196533203,19.023618698120117,8.421791076660156
-28.037702560424805,6.7690043449401855,3.4928483963012695
-33.327056884765625,6.641684055328369,4.115191459655762
-44.64897537231445,7.04649543762207,5.473806858062744
-55.34532165527344,6.468483924865723,6.747808933258057
-78.70849609375,-16.37388038635254,9.7354736328125
-78.77591705322266,-15.52595043182373,10.40087890625
-74.09772491455078,-50.30378341674805,11.60150146484375
-56.30036163330078,-73.61099243164062,12.00481128692627
-23.90121841430664,-44.573490142822266,6.551748752593994
-23.426502227783203,-48.24745559692383,6.947723865509033
-21.884511947631836,-50.099647521972656,7.082030773162842
-19.417219161987305,-49.816993713378906,6.9261274337768555
-18.949743270874023,-55.0584831237793,7.542847633361816
-18.656461715698242,-62.22505187988281,8.41508960723877
-21.840456008911133,-85.13921356201172,11.385974884033203
-20.749916076660156,-96.90998077392578,12.838190078735352
-12.37235164642334,-71.75399780273438,9.43212604522705
2.8511898517608643,-94.50646209716797,12.247872352600098
6.12473726272583,-86.92784118652344,11.288488388061523
7.941595077514648,-71.56159973144531,9.326948165893555
10.859843254089355,-71.5140151977539,9.370077133178711
13.809931755065918,-71.46525573730469,9.428820610046387
15.88965129852295,-67.5376968383789,8.987649917602539
17.62108039855957,-63.361419677734375,8.519286155700684
17.362995147705078,-53.9378776550293,7.340170383453369
17.288280487060547,-47.125205993652344,6.502397537231445
18.36468505859375,-44.449867248535156,6.230090141296387
8.638445854187012,-18.73782730102539,2.6728105545043945
9.365724563598633,-18.33951187133789,2.667548418045044
15.504329681396484,-27.5664005279541,4.096988201141357
14.839136123657227,-24.066787719726562,3.6625726222991943
15.895642280578613,-23.602277755737305,3.6861586570739746
16.525890350341797,-22.528825759887695,3.619349241256714
8.966482162475586,-11.24663257598877,1.8632266521453857
15.169441223144531,-17.532991409301758,3.0032942295074463
15.135147094726562,-16.13509750366211,2.8657593727111816
14.794431686401367,-14.553336143493652,2.6882894039154053
15.727373123168945,-14.274259567260742,2.751312494277954
13.223221778869629,-11.066065788269043,2.233609199523926
17.285703659057617,-13.322652816772461,2.8270716667175293
19.11142921447754,-13.541850090026855,3.0341756343841553
20.78621482849121,-13.508082389831543,3.211254119873047
22.671489715576172,-13.469837188720703,3.416088581085205
24.816877365112305,-13.426063537597656,3.6550650596618652
30.260692596435547,-14.832015991210938,4.365483283996582
24.526098251342773,-10.821978569030762,3.4726314544677734
30.33941650390625,-11.955219268798828,4.224258899688721
26.540130615234375,-9.244668006896973,3.640589714050293
29.962387084960938,-9.104656219482422,4.056544303894043
29.917692184448242,-7.793067932128906,4.0048394203186035
29.85123062133789,-6.5074920654296875,3.957726240158081
30.11741065979004,-5.308177471160889,3.961521863937378
30.008132934570312,-4.053767204284668,3.9225430488586426
29.87864875793457,-2.8197267055511475,3.8876562118530273
29.72934913635254,-1.604332447052002,3.8567233085632324
29.372539520263672,0.7771072387695312,3.8062288761138916
29.165401458740234,1.9462463855743408,3.786470890045166
28.599411010742188,3.066497325897217,3.7259814739227295
28.357120513916016,4.198671817779541,3.7134103775024414
28.095991134643555,5.321238994598389,3.704235076904297
26.563589096069336,6.145758152008057,3.531923770904541
27.843503952026367,7.632275104522705,3.7398645877838135
27.520870208740234,8.74665641784668,3.7407352924346924
27.1781063079834,9.856315612792969,3.7449862957000732
26.814828872680664,10.962441444396973,3.7526283264160156
26.43047332763672,12.066232681274414,3.7636878490448
26.00739860534668,13.160201072692871,3.7757437229156494
25.57930564880371,14.262099266052246,3.793771743774414
25.12808609008789,15.365171432495117,3.815387010574341
23.130075454711914,15.453240394592285,3.603435516357422
21.176860809326172,15.413691520690918,3.392944097518921
19.436874389648438,15.378681182861328,3.2106306552886963
17.872203826904297,15.347406387329102,3.0516295433044434
16.45322608947754,15.319244384765625,2.9121522903442383
15.70799732208252,15.850198745727539,2.89070200920105
14.914445877075195,16.310758590698242,2.863027811050415
14.923388481140137,17.698684692382812,2.9989144802093506
14.93405818939209,19.228557586669922,3.1538610458374023
8.92160701751709,12.492467880249023,1.9885731935501099
16.098129272460938,24.57184410095215,3.8052918910980225
16.117708206176758,26.90049171447754,4.062285423278809
16.14131736755371,29.573190689086914,4.364370822906494
15.65942096710205,31.651212692260742,4.574438571929932
14.684158325195312,32.947689056396484,4.672717094421387
13.647148132324219,34.259986877441406,4.777157306671143
11.28203010559082,32.00645446777344,4.396131992340088
9.762824058532715,31.705183029174805,4.29736852645874
8.436088562011719,31.900732040405273,4.274452209472656
8.266578674316406,37.25600051879883,4.943493843078613
7.443921089172363,41.33774185180664,5.440991401672363
5.870728969573975,42.27585983276367,5.528936862945557
4.301201343536377,43.837921142578125,5.706001281738281
2.622023820877075,45.45420837402344,5.897894859313965
0.8336560726165771,47.79859161376953,6.192738056182861
-1.1273683309555054,49.56290817260742,6.422007083892822
-3.238631010055542,51.40065383911133,6.671609878540039
-5.517148971557617,53.319671630859375,6.943869590759277
-7.8724822998046875,54.56531524658203,7.14154052734375
-9.6633882522583,52.07796096801758,6.86129903793335
-12.951125144958496,56.9390983581543,7.56423282623291
-15.360543251037598,56.86360549926758,7.630079746246338
-17.575101852416992,56.01805877685547,7.605287551879883
-19.69188690185547,54.933895111083984,7.559473514556885
-13.527860641479492,33.44356918334961,4.673254013061523
-13.278731346130371,29.374311447143555,4.175860404968262
-13.74207592010498,27.40914535522461,3.9718236923217773
-14.15615463256836,25.612171173095703,3.790834903717041
-14.528109550476074,23.95834732055664,3.6295723915100098
-15.774959564208984,23.8022518157959,3.6990156173706055
-17.177125930786133,23.784555435180664,3.800513744354248
-21.100778579711914,26.87321662902832,4.426024913787842
-21.114900588989258,24.773832321166992,4.216662406921387
-21.976892471313477,23.779945373535156,4.194492816925049
-23.7961368560791,23.758249282836914,4.355894088745117
-25.76466178894043,23.73508644104004,4.537894248962402
-27.715829849243164,23.546218872070312,4.711014270782471
-30.261245727539062,23.683197021484375,4.977811336517334
-31.040403366088867,22.342071533203125,4.954221248626709
-11.090367317199707,7.324727535247803,1.7216933965682983
-11.259429931640625,6.803081512451172,1.7041025161743164
-31.10963249206543,17.12997055053711,4.600460052490234
-31.11040496826172,15.535740852355957,4.50457239151001
-31.110044479370117,14.003683090209961,4.419432163238525
-16.92591667175293,6.815112113952637,2.363628625869751
-37.42107009887695,13.346868515014648,5.146602630615234
-22.16138458251953,6.914123058319092,3.0072438716888428
-66.88396453857422,17.952911376953125,8.970796585083008
-78.95230102539062,17.825847625732422,10.484868049621582
-38.97529220581055,7.167820453643799,5.1334991455078125
-79.47390747070312,11.33686351776123,10.39921760559082
-66.30160522460938,6.753570079803467,8.633106231689453
-54.233306884765625,-74.76127624511719,11.964341163635254
-23.566936492919922,-46.75814437866211,6.782869815826416
-23.072078704833984,-50.75224304199219,7.221871852874756
-20.315982818603516,-49.92124938964844,6.981760025024414
-19.833663940429688,-54.96311569213867,7.569263935089111
-18.739707946777344,-59.29072570800781,8.054973602294922
-22.217355728149414,-81.56163024902344,10.950408935546875
-19.8507137298584,-86.42729187011719,11.487238883972168
-17.69412612915039,-94.24581909179688,12.421839714050293
1.4879424571990967,-97.08639526367188,12.577981948852539
4.957131385803223,-89.21504211425781,11.574681282043457
8.086774826049805,-84.25365447998047,10.964315414428711
9.779252052307129,-71.53170776367188,9.352360725402832
3.1932690143585205,-17.950416564941406,2.361790180206299
15.1878080368042,-69.1397705078125,9.169857025146484
17.00680923461914,-64.86524200439453,8.686605453491211
17.539121627807617,-57.39017868041992,7.773711204528809
17.22781753540039,-49.20606994628906,6.75350284576416
17.6026554107666,-44.463314056396484,6.19468879699707
15.73304271697998,-35.50291442871094,5.030372619628906
9.024596214294434,-18.338233947753906,2.6475956439971924
15.576241493225098,-28.68196678161621,4.227974891662598
15.46012020111084,-25.92721939086914,3.9103639125823975
15.466444969177246,-23.716947555541992,3.6678214073181152
16.545108795166016,-23.27117919921875,3.69877028465271
8.975645065307617,-11.607295989990234,1.9007070064544678
9.257935523986816,-11.026850700378418,1.8650983572006226
15.14734935760498,-16.635963439941406,2.9144840240478516
14.565402030944824,-14.759552955627441,2.686168909072876
15.378308296203613,-14.379268646240234,2.7272729873657227
12.99018383026123,-11.202903747558594,2.222080707550049
16.913753509521484,-13.44063663482666,2.7985458374023438
18.538394927978516,-13.553353309631348,2.9747984409332275
20.145580291748047,-13.521023750305176,3.142930269241333
17.83540153503418,-10.957797050476074,2.711599349975586
23.990694046020508,-13.442949295043945,3.562368631362915
26.332975387573242,-13.394998550415039,3.827117681503296
24.300811767578125,-11.156160354614258,3.463787794113159
30.332670211791992,-12.475534439086914,4.248619079589844
28.02471923828125,-10.230461120605469,3.8646302223205566
28.82023811340332,-9.226784706115723,3.920012950897217
29.9367618560791,-8.274199485778809,4.023385524749756
29.878259658813477,-6.979258060455322,3.974599599838257
30.064231872558594,-5.759926795959473,3.965331554412842
30.050865173339844,-4.514449119567871,3.9364490509033203
29.928781509399414,-3.2730917930603027,3.900068998336792
29.78676414489746,-2.0510165691375732,3.867691993713379
29.625139236450195,-0.8465166091918945,3.839186429977417
29.44419288635254,0.3420199751853943,3.814436912536621
29.244096755981445,1.5161170959472656,3.7933478355407715
29.02497100830078,2.6772408485412598,3.7758350372314453
28.448762893676758,3.781853199005127,3.717653512954712
28.194602966308594,4.907815456390381,3.7072298526763916
27.921506881713867,6.02498197555542,3.7001795768737793
25.204391479492188,6.508447647094727,3.3720574378967285
27.642305374145508,8.335844993591309,3.7400262355804443
27.307018280029297,9.447113037109375,3.743023157119751
26.951370239257812,10.554409980773926,3.7494068145751953
26.574874877929688,11.658896446228027,3.7591984272003174
26.176925659179688,12.761798858642578,3.772437334060669
25.740007400512695,13.855178833007812,3.786703586578369
25.29743003845215,14.95767879486084,3.806983470916748
23.9145450592041,15.46918773651123,3.6894876956939697
21.870853424072266,15.427715301513672,3.467078685760498
20.057092666625977,15.391135215759277,3.2749979496002197
18.4315242767334,15.358561515808105,3.1078813076019287
16.961776733398438,15.329315185546875,2.961581230163574
16.074996948242188,15.746275901794434,2.914924144744873
14.911530494689941,15.829476356506348,2.8170723915100098
14.919898986816406,17.171022415161133,2.9466896057128906
14.929899215698242,18.645490646362305,3.0942180156707764
9.208487510681152,12.49791431427002,2.010967254638672
8.647847175598145,12.782129287719727,1.9991414546966553
16.110057830810547,26.004770278930664,3.962679147720337
16.13996696472168,28.555038452148438,4.248984336853027
16.007850646972656,31.182859420776367,4.5405755043029785
15.05255126953125,32.46999740600586,4.636130332946777
14.036866188049316,33.772239685058594,4.737665176391602
12.961950302124023,35.10254669189453,4.847263813018799
10.324646949768066,31.842388153076172,4.336251735687256
8.931726455688477,31.8553409576416,4.285654067993164
9.330345153808594,39.28486251831055,5.23049259185791
7.970455646514893,40.78316116333008,5.382959365844727
6.352517127990723,41.2443733215332,5.405765533447266
4.892913818359375,43.255130767822266,5.638974666595459
3.255464553833008,44.85078048706055,5.825223445892334
1.5227653980255127,47.164302825927734,6.112814426422119
-0.38665997982025146,48.90333557128906,6.335102558135986
-2.4405746459960938,50.71308898925781,6.576940536499023
-4.655203819274902,52.601112365722656,6.8405442237854
-6.962802410125732,53.9071044921875,7.041098117828369
-9.511469841003418,55.86751174926758,7.341175079345703
-12.058165550231934,56.90388488769531,7.534952640533447
-14.449831008911133,56.827781677246094,7.595673084259033
-11.663069725036621,39.201114654541016,5.298072338104248
-18.71169662475586,54.74287414550781,7.494157314300537
-20.86164665222168,53.85917663574219,7.481969356536865
-13.093513488769531,30.148305892944336,4.25780725479126
-13.577171325683594,28.113618850708008,4.044273376464844
-14.008525848388672,26.257740020751953,3.855198383331299
-14.395296096801758,24.553646087646484,3.686995506286621
-14.886295318603516,23.201631546020508,3.5709590911865234
-16.650524139404297,23.79117202758789,3.761683225631714
-21.094913482666016,27.702112197875977,4.51050329208374
-21.109966278076172,25.52562141418457,4.290838241577148
-21.338457107543945,23.787630081176758,4.139548301696777
-22.94852638244629,23.60209083557129,4.264369010925293
-24.845895767211914,23.57964515686035,4.437204837799072
-27.094789505004883,23.719600677490234,4.664758682250977
-29.162975311279297,23.52957534790039,4.854044437408447
-31.097517013549805,23.0911808013916,5.017467975616455
-31.102785110473633,21.211427688598633,4.8767852783203125
-11.091163635253906,6.928077220916748,1.6940065622329712
-31.109045028686523,17.736125946044922,4.6387786865234375
-31.11025619506836,16.116655349731445,4.5386738777160645
-31.110307693481445,14.562646865844727,4.449674606323242
-16.667945861816406,7.00037145614624,2.341850757598877
-35.5932502746582,13.29337215423584,4.921800136566162
-22.465534210205078,7.3764801025390625,3.063030481338501
-66.8020248413086,18.99774932861328,8.996622085571289
-28.121129989624023,6.7891459465026855,3.747450351715088
-33.28263854980469,6.632831573486328,4.396191596984863
-44.55886459350586,7.0322699546813965,5.843565940856934
-55.27750778198242,6.460556983947754,7.209351062774658
-78.55487823486328,-15.482385635375977,11.04904842376709
-74.03317260742188,-50.259944915771484,12.348397254943848
-56.34137725830078,-73.66461181640625,12.798130989074707
-21.23063087463379,-32.936424255371094,5.407644271850586
-19.37208366394043,-32.882896423339844,5.266729831695557
-24.15352439880371,-45.04399108886719,7.053302764892578
-22.85646629333496,-47.07339859008789,7.221356391906738
-21.67713737487793,-49.62496566772461,7.473053455352783
-19.237255096435547,-49.355281829833984,7.310070037841797
-18.912260055541992,-54.949581146240234,8.019556999206543
-18.578044891357422,-61.96351623535156,8.926979064941406
-20.051284790039062,-78.1646499633789,11.13591194152832
-18.362762451171875,-85.7611083984375,12.10321044921875
-12.356656074523926,-71.6629638671875,10.035367012023926
-4.905855655670166,-97.6376953125,13.490918159484863
-0.9256986379623413,-92.3656997680664,12.747031211853027
2.60489559173584,-86.34268951416016,11.92064094543457
5.698651313781738,-80.88050079345703,11.189111709594727
7.938753128051758,-71.53602600097656,9.932515144348145
10.828277587890625,-71.30620574951172,9.953003883361816
12.96192741394043,-67.07696533203125,9.427791595458984
14.84365463256836,-63.091796875,8.944336891174316
16.533145904541016,-59.44939422607422,8.515314102172852
17.44694709777832,-54.198646545410156,7.85734224319458
17.361732482910156,-47.32542037963867,6.95648193359375
18.35767364501953,-44.432865142822266,6.6344194412231445
8.65651798248291,-18.77703094482422,2.8533220291137695
9.356664657592773,-18.321779251098633,2.8390114307403564
15.549263000488281,-27.64628028869629,4.377199649810791
15.477840423583984,-25.102663040161133,4.069705486297607
15.741827011108398,-23.373889923095703,3.8888943195343018
16.565113067626953,-22.582305908203125,3.864872932434082
8.986613273620605,-11.271886825561523,1.9893659353256226
15.201803207397461,-17.570398330688477,3.206258773803711
15.165952682495117,-16.16794204711914,3.059129476547241
14.638009071350098,-14.399465560913086,2.833575963973999
15.55722713470459,-14.11983871459961,2.899286985397339
13.22816276550293,-11.070198059082031,2.380368232727051
17.599124908447266,-13.564217567443848,3.0663065910339355
19.099964141845703,-13.533726692199707,3.230391263961792
20.77301788330078,-13.499505996704102,3.4188034534454346
22.656169891357422,-13.46074104309082,3.636725425720215
24.7989444732666,-13.416365623474121,3.8909568786621094
29.27459144592285,-14.348686218261719,4.499035358428955
24.536733627319336,-10.826672554016113,3.701023817062378
29.381723403930664,-11.577847480773926,4.35808801651001
26.48053550720215,-9.223907470703125,3.8696377277374268
29.042530059814453,-8.825142860412598,4.188797950744629
29.010570526123047,-7.556776523590088,4.13702392578125
28.956451416015625,-6.312431335449219,4.089815616607666
29.22411346435547,-5.150733470916748,4.095062255859375
29.12657356262207,-3.934678316116333,4.0559539794921875
29.008468627929688,-2.7376058101654053,4.020931243896484
28.870214462280273,-1.557969331741333,3.9898622035980225
28.534507751464844,0.7549352645874023,3.9391160011291504
28.33748435974121,1.890998363494873,3.9192469120025635
27.790922164916992,2.9798102378845215,3.857107639312744
27.55811882019043,4.080368518829346,3.8444595336914062
27.306238174438477,5.171663761138916,3.83522891998291
27.03516960144043,6.254858493804932,3.8293814659118652
27.062562942504883,7.418205261230469,3.87235951423645
26.748788833618164,8.501273155212402,3.873243808746338
26.414813995361328,9.579496383666992,3.877518892288208
26.060232162475586,10.653952598571777,3.8852057456970215
25.684568405151367,11.72570514678955,3.896332263946533
25.28724479675293,12.795809745788574,3.9109365940093994
24.851348876953125,13.856217384338379,3.926518201828003
24.40901756286621,14.925487518310547,3.9482481479644775
23.1455020904541,15.463547706604004,3.8413262367248535
21.190168380737305,15.423372268676758,3.616797924041748
19.44843292236328,15.387822151184082,3.4223403930664062
17.882301330566406,15.356075286865234,3.252760171890259
16.46209716796875,15.327502250671387,3.1040093898773193
15.716099739074707,15.858382225036621,3.0810747146606445
14.944626808166504,16.343769073486328,3.056178569793701
14.955022811889648,17.736194610595703,3.201536178588867
14.967353820800781,19.271421432495117,3.3673207759857178
8.925605773925781,12.498065948486328,2.1193909645080566
16.13838768005371,24.633304595947266,4.063946723937988
16.16074562072754,26.97231101989746,4.339138031005859
16.037256240844727,29.38253402709961,4.61942195892334
15.13018798828125,30.58151626586914,4.708486080169678
14.172892570495605,31.80051612854004,4.804557800292969
13.161735534667969,33.04140090942383,4.908127307891846
11.188339233398438,31.740657806396484,4.644340515136719
9.755570411682129,31.681631088256836,4.574620723724365
8.414106369018555,31.817602157592773,4.541740417480469
7.283182144165039,32.82403564453125,4.639856338500977
6.873380661010742,38.169334411621094,5.3520588874816895
5.627272129058838,40.52273178100586,5.645766258239746
4.117363929748535,41.96428680419922,5.818844318389893
2.5420374870300293,44.06755065917969,6.091394424438477
0.7956685423851013,45.6196174621582,6.296426296234131
