-73.82864379882812,13.35410213470459,-5.309041976928711
-69.33440399169922,9.683348655700684,-4.953859329223633
-66.34190368652344,6.561379909515381,-4.717391014099121
-62.95969009399414,3.6810178756713867,-4.462764739990234
-59.96052169799805,1.0925185680389404,-4.243633270263672
-56.68305206298828,-1.2451040744781494,-4.0119733810424805
-49.96001052856445,-3.10874080657959,-3.542112112045288
-50.19623947143555,-5.154385089874268,-3.5706686973571777
-50.283931732177734,-7.214777946472168,-3.5946342945098877
-48.71243667602539,-8.999614715576172,-3.5053253173828125
-28.896486282348633,-6.5489959716796875,-2.096630573272705
-26.154043197631836,-7.043123722076416,-1.9166460037231445
-23.846555709838867,-7.461209297180176,-1.768099069595337
-21.872041702270508,-7.821135997772217,-1.6436851024627686
-20.151643753051758,-8.133025169372559,-1.5377275943756104
-19.300678253173828,-8.706808090209961,-1.4982929229736328
-18.915264129638672,-9.465073585510254,-1.496704339981079
-20.193769454956055,-11.140807151794434,-1.631990909576416
-20.236055374145508,-12.249382972717285,-1.6738555431365967
-20.27999496459961,-13.417851448059082,-1.7207210063934326
-20.325868606567383,-14.65514850616455,-1.7731698751449585
-20.374013900756836,-15.97195816040039,-1.8319091796875
-19.986190795898438,-17.00748062133789,-1.8570175170898438
-20.461620330810547,-18.880590438842773,-1.9701281785964966
-20.503305435180664,-20.504016876220703,-2.0518579483032227
-20.599477767944336,-22.32596206665039,-2.1495699882507324
-20.666688919067383,-24.28797149658203,-2.2566542625427246
-20.74015235900879,-26.458234786987305,-2.378901958465576
-19.81775665283203,-27.48809814453125,-2.397923469543457
-19.702457427978516,-29.780956268310547,-2.5268030166625977
-22.30475425720215,-36.85052490234375,-3.048081636428833
-20.373001098632812,-36.9310302734375,-2.9845852851867676
-20.273662567138672,-40.51904296875,-3.2060844898223877
-18.302173614501953,-40.57483673095703,-3.1497368812561035
-18.692928314208984,-46.32111358642578,-3.5346148014068604
-17.36349868774414,-48.562957763671875,-3.6494624614715576
-15.98746109008789,-51.1034049987793,-3.789022445678711
-14.474289894104004,-53.75664520263672,-3.9394190311431885
-11.560445785522461,-51.01706314086914,-3.701594829559326
-10.95042610168457,-59.283443450927734,-4.265983581542969
-7.733717441558838,-53.91426467895508,-3.8541321754455566
-6.9377665519714355,-67.58694458007812,-4.807722568511963
-4.492586135864258,-72.24114990234375,-5.1218061447143555
-1.702375054359436,-77.62409973144531,-5.494158744812012
1.515891671180725,-83.03363800048828,-5.876612186431885
5.34744119644165,-91.40560913085938,-6.4791107177734375
14.329119682312012,-79.20264434814453,-5.695523262023926
15.749211311340332,-70.70646667480469,-5.125951766967773
18.758838653564453,-70.70262908935547,-5.1761627197265625
15.096760749816895,-48.885719299316406,-3.620450258255005
14.424184799194336,-40.81446075439453,-3.0631697177886963
16.315845489501953,-40.86258316040039,-3.113494873046875
18.06307601928711,-40.44043731689453,-3.1341300010681152
19.358476638793945,-39.047794342041016,-3.0840249061584473
21.349210739135742,-39.03916549682617,-3.148590564727783
-7.465505599975586,11.56101131439209,-0.9738209843635559
-9.764167785644531,13.864936828613281,-1.1999855041503906
-29.708860397338867,35.709571838378906,-3.287039041519165
-31.717910766601562,35.15061950683594,-3.350261688232422
-32.324527740478516,33.05078887939453,-3.2713403701782227
-29.380449295043945,27.719932556152344,-2.858304023742676
-15.658492088317871,13.627093315124512,-1.4688665866851807
-29.606727600097656,23.744749069213867,-2.6855781078338623
-29.225858688354492,21.568836212158203,-2.5702965259552
-31.097980499267578,21.07493019104004,-2.658276319503784
-33.3058967590332,20.669105529785156,-2.773738384246826
-37.06836700439453,20.990041732788086,-3.0143697261810303
-26.895200729370117,13.833276748657227,-2.1401402950286865
-65.7500991821289,30.542953491210938,-5.130099296569824
-65.91272735595703,27.455793380737305,-5.052582740783691
-38.06098556518555,14.088119506835938,-2.871851682662964
-43.65288162231445,14.191757202148438,-3.248108148574829
-41.725284576416016,11.73420238494873,-3.067099094390869
-60.38736343383789,14.391962051391602,-4.392812252044678
-75.12352752685547,14.742539405822754,-5.417299270629883
-70.8802719116211,10.973600387573242,-5.075384616851807
-67.70458984375,7.711997032165527,-4.821893215179443
-64.15962982177734,4.707221031188965,-4.5522661209106445
-61.027976989746094,2.0179519653320312,-4.320821762084961
-57.631324768066406,-0.41075658798217773,-4.078212261199951
-55.142723083496094,-2.6107122898101807,-3.9063804149627686
-48.631534576416016,-4.265720844268799,-3.454482078552246
-50.25034713745117,-6.450695991516113,-3.584993362426758
-49.38385772705078,-8.368016242980957,-3.544314384460449
-30.04652214050293,-6.342510223388672,-2.173006296157837
-27.109346389770508,-6.870696067810059,-1.9789648056030273
-24.655088424682617,-7.314436435699463,-1.8198026418685913
-22.567399978637695,-7.694122791290283,-1.6871769428253174
-20.764249801635742,-8.024145126342773,-1.5752164125442505
-19.856706619262695,-8.60544204711914,-1.5313756465911865
-18.404830932617188,-8.870715141296387,-1.4457411766052246
-18.39897918701172,-9.797446250915527,-1.4750311374664307
-20.220266342163086,-11.83354377746582,-1.6578434705734253
-20.26356315612793,-12.97890853881836,-1.7027995586395264
-20.308685302734375,-14.18969440460205,-1.7531137466430664
-20.3559513092041,-15.47580337524414,-1.8094419240951538
-20.39011573791504,-16.836130142211914,-1.87113618850708
-20.42548370361328,-18.29379653930664,-1.940305471420288
-20.48160171508789,-19.883438110351562,-2.019939422607422
-20.541793823242188,-21.611183166503906,-2.109860897064209
-20.641206741333008,-23.54135513305664,-2.2154905796051025
-20.71222496032715,-25.630218505859375,-2.33182692527771
-20.427392959594727,-27.46542739868164,-2.4221181869506836
-19.669897079467773,-28.79422950744629,-2.4675707817077637
-23.054298400878906,-36.843727111816406,-3.0754709243774414
-21.053857803344727,-36.86157989501953,-3.003883123397827
-21.028884887695312,-40.51496124267578,-3.2300965785980225
-18.9990291595459,-40.50550079345703,-3.165886402130127
-17.29557228088379,-41.091156005859375,-3.1547634601593018
-17.86310386657715,-47.71513748168945,-3.6052699089050293
-16.520240783691406,-50.18135452270508,-3.738415241241455
-15.045682907104492,-52.748939514160156,-3.8815014362335205
-13.45994758605957,-55.56192398071289,-4.045403003692627
-11.739479064941406,-58.6684684753418,-4.233804702758789
-9.75320816040039,-61.48825454711914,-4.405430316925049
-7.768467903137207,-66.02134704589844,-4.704039573669434
-5.43126916885376,-70.44681549072266,-4.999754905700684
-2.778355598449707,-75.54016876220703,-5.348994731903076
0.27854180335998535,-81.48467254638672,-5.766054630279541
3.8625621795654297,-88.53451538085938,-6.270847320556641
8.144024848937988,-96.97708129882812,-6.886452674865723
14.190773010253906,-85.67456817626953,-6.145105361938477
14.651915550231934,-70.70745086669922,-5.109696388244629
3.056636333465576,-12.250994682312012,-0.8934803605079651
20.68944549560547,-70.6993408203125,-5.212648868560791
13.777713775634766,-40.90702819824219,-3.0544381141662598
15.542072296142578,-40.666412353515625,-3.080638885498047
17.68861198425293,-41.23417663574219,-3.1749560832977295
18.550077438354492,-38.855159759521484,-3.0467374324798584
20.60459327697754,-39.042503356933594,-3.1238584518432617
16.97220802307129,-40.74088668823242,-2.754629373550415
17.94289779663086,-38.62229919433594,-2.6580100059509277
20.120166778564453,-39.11506271362305,-2.7453720569610596
22.146499633789062,-39.10744857788086,-2.805065631866455
-9.81725788116455,13.510038375854492,-1.042332410812378
-28.18346405029297,35.67777633666992,-2.837756633758545
-29.93947982788086,34.91985321044922,-2.870889186859131
-31.93609619140625,34.35377502441406,-2.927541732788086
-28.898738861083984,28.68413734436035,-2.5413479804992676
-29.4971981048584,27.014249801635742,-2.4964516162872314
-15.920923233032227,13.445659637451172,-1.3006458282470703
-29.713939666748047,23.114797592163086,-2.349632978439331
-29.327442169189453,20.97896385192871,-2.2505593299865723
-21.059850692749023,13.820731163024902,-1.5722030401229858
-34.80766677856445,20.89224624633789,-2.5337793827056885
-38.286678314208984,20.93596649169922,-2.723559617996216
-65.77992248535156,32.60841369628906,-4.582361221313477
-65.94513702392578,29.452112197875977,-4.507737636566162
-66.10369873046875,26.39145851135254,-4.442464351654053
-68.9650650024414,24.370071411132812,-4.565230369567871
-74.35659790039062,22.95966339111328,-4.857102870941162
-54.83987045288086,14.547996520996094,-3.541167736053467
-66.2596435546875,14.756220817565918,-4.236843109130859
-69.31658935546875,12.537982940673828,-4.396531105041504
-66.25997161865234,9.253971099853516,-4.175687789916992
-62.830570220947266,6.214099884033203,-3.9406418800354004
-59.79818344116211,3.496175527572632,-3.7386159896850586
-57.08684539794922,1.040157675743103,-3.563608407974243
-36.28902816772461,-0.7971360087394714,-2.2654917240142822
-50.15229797363281,-3.1207046508789062,-3.136263132095337
-47.261993408203125,-4.853085517883301,-2.965322494506836
-48.49603271484375,-6.958247661590576,-3.0578324794769287
-46.76765060424805,-8.640313148498535,-2.9683563709259033
-28.408658981323242,-6.438438415527344,-1.818066954612732
-25.749826431274414,-6.934271335601807,-1.6644049882888794
-23.506166458129883,-7.354706764221191,-1.5372511148452759
-21.581510543823242,-7.717245101928711,-1.4305171966552734
-19.898149490356445,-8.030717849731445,-1.339255928993225
-19.07813262939453,-8.606414794921875,-1.3062963485717773
-18.956392288208008,-9.485654830932617,-1.3230044841766357
-18.453857421875,-10.180906295776367,-1.3154350519180298
-20.28224754333496,-12.27734375,-1.4797559976577759
-20.327587127685547,-13.449342727661133,-1.5212832689285278
-20.375024795532227,-14.690589904785156,-1.5677671432495117
-20.392013549804688,-15.986076354980469,-1.6172221899032593
-20.4447021484375,-17.39765167236328,-1.675519585609436
-20.509584426879883,-18.92484474182129,-1.7417792081832886
-20.560800552368164,-20.561513900756836,-1.8148682117462158
-20.659900665283203,-22.391462326049805,-1.9015384912490845
-20.730337142944336,-24.362768173217773,-1.996559977531433
-20.807497024536133,-26.54414939880371,-2.105072021484375
-19.8201847076416,-27.4914608001709,-2.115293025970459
-19.774612426757812,-29.89002227783203,-2.236870765686035
-22.346385955810547,-36.91930389404297,-2.693509101867676
-20.375192642211914,-36.93498992919922,-2.6327672004699707
-18.57708740234375,-37.12825012207031,-2.59121036529541
-18.350664138793945,-40.68233108520508,-2.785513401031494
-17.939716339111328,-44.45465087890625,-2.9920029640197754
-16.642061233520508,-46.545230865478516,-3.085181713104248
-15.26660442352295,-48.79923629760742,-3.1913259029388428
-13.828628540039062,-51.3586540222168,-3.319672107696533
-11.458044052124023,-50.56519317626953,-3.2359893321990967
-10.418177604675293,-56.40196228027344,-3.579826593399048
-7.634502410888672,-53.22248077392578,-3.3558332920074463
-6.5637383460998535,-63.94333267211914,-4.011934280395508
-4.235486030578613,-68.10674285888672,-4.259032726287842
-1.59830641746521,-72.8783950805664,-4.549727916717529
1.4316831827163696,-78.42098236083984,-4.895387172698975
4.970334053039551,-84.9593505859375,-5.3117289543151855
8.842998504638672,-89.37838745117188,-5.605703830718994
11.380812644958496,-81.46736907958984,-5.134084224700928
14.197233200073242,-78.47368621826172,-4.977370738983154
15.901467323303223,-71.38987731933594,-4.564921855926514
18.789934158325195,-70.81982421875,-4.573085784912109
15.194907188415527,-49.203514099121094,-3.2140932083129883
14.307997703552246,-40.48570251464844,-2.6800384521484375
16.183406829833984,-40.53090286254883,-2.723897695541382
17.599275588989258,-39.40203857421875,-2.6934053897857666
19.39307403564453,-39.117576599121094,-2.72505521774292
21.38817024230957,-39.11039733886719,-2.782208204269409
-7.450869083404541,11.538344383239746,-0.8572535514831543
-9.794154167175293,13.907512664794922,-1.0616689920425415
-10.268445014953613,13.403020858764648,-1.0538207292556763
-29.222713470458984,35.12523651123047,-2.851815700531006
-31.1890811920166,34.564552307128906,-2.9057538509368896
-31.97410774230957,32.692474365234375,-2.854133129119873
-29.45372772216797,27.78907585144043,-2.527388095855713
-15.654815673828125,13.623895645141602,-1.2952756881713867
-29.676095962524414,23.80037498474121,-2.37430477142334
-29.776567459106445,21.97526741027832,-2.3097903728485107
-30.48143768310547,20.6571044921875,-2.298187255859375
-33.64219284057617,20.877796173095703,-2.4712188243865967
-36.94287872314453,20.918983459472656,-2.649754762649536
-26.945049285888672,13.85891342163086,-1.8911616802215576
-65.88495635986328,30.605588912963867,-4.534172058105469
-32.82648849487305,13.673803329467773,-2.219475507736206
-38.06556701660156,14.089816093444824,-2.5333564281463623
-43.82362747192383,14.247271537780762,-2.8761253356933594
-71.26823425292969,20.04244613647461,-4.620707988739014
-60.47369384765625,14.412527084350586,-3.880121946334839
-70.83631896972656,13.901201248168945,-4.505520343780518
-66.81159210205078,10.34368896484375,-4.219658374786377
-64.0460205078125,7.295263290405273,-4.0232157707214355
-60.8765754699707,4.46635103225708,-3.809760570526123
-58.0523567199707,1.919560194015503,-3.6252615451812744
-54.94770050048828,-0.3916304111480713,-3.429593086242676
-52.678340911865234,-2.4940357208251953,-3.291551113128662
-47.55518341064453,-4.171307563781738,-2.9795074462890625
-49.21259689331055,-6.317470550537109,-3.0967695713043213
-47.391239166259766,-8.03036880493164,-3.0000462532043457
-45.738624572753906,-9.654951095581055,-2.9176414012908936
-26.676971435546875,-6.761111259460449,-1.7176611423492432
-24.293012619018555,-7.207019329071045,-1.5815421342849731
-22.259811401367188,-7.58925199508667,-1.46785306930542
-20.499778747558594,-7.921940326690674,-1.371687889099121
-19.622758865356445,-8.50405502319336,-1.3348023891448975
-18.434743881225586,-8.885130882263184,-1.2772551774978638
-18.731426239013672,-9.97447681427002,-1.3245265483856201
-20.265981674194336,-11.860296249389648,-1.4655680656433105
-20.310619354248047,-13.009052276611328,-1.5054023265838623
-20.357242584228516,-14.223618507385254,-1.549992561340332
-20.373310089111328,-15.489002227783203,-1.5973387956619263
-20.424884796142578,-16.864839553833008,-1.653207778930664
-20.47963523864746,-18.34229850769043,-1.7159409523010254
-20.538137435913086,-19.938322067260742,-1.7865599393844604
-20.601028442382812,-21.673507690429688,-1.8663184642791748
-20.703615188598633,-23.612529754638672,-1.9600322246551514
-20.77814483642578,-25.711788177490234,-2.0632808208465576
-20.468000411987305,-27.520017623901367,-2.140622615814209
-19.7402400970459,-28.897207260131836,-2.1842451095581055
-23.026565551757812,-36.799407958984375,-2.7093899250030518
-21.09258270263672,-36.929378509521484,-2.6543798446655273
-19.175479888916016,-36.944114685058594,-2.5979299545288086
-19.06241226196289,-40.64060974121094,-2.801713228225708
-17.3022518157959,-41.107025146484375,-2.7836639881134033
-17.129539489746094,-45.75566864013672,-3.0493619441986084
-15.784423828125,-47.946266174316406,-3.1505136489868164
-14.383955955505371,-50.42898178100586,-3.273017406463623
-11.949399948120117,-49.32646942138672,-3.1677117347717285
-11.06324577331543,-55.288963317871094,-3.5192160606384277
-8.400076866149902,-52.95753479003906,-3.346611499786377
-7.358201503753662,-62.53483200073242,-3.929975986480713
-5.1274333000183105,-66.50579071044922,-4.163215637207031
-2.612708330154419,-71.03660583496094,-4.436680316925049
0.2607300281524658,-76.27220916748047,-4.7604851722717285
3.5564990043640137,-81.5189208984375,-5.092766284942627
7.3309125900268555,-87.29497528076172,-5.467615127563477
9.201770782470703,-73.848876953125,-4.644851207733154
14.050456047058105,-84.82740020751953,-5.366556644439697
14.793448448181152,-71.39051818847656,-4.550434112548828
3.035033941268921,-12.164408683776855,-0.7825044393539429
20.723995208740234,-70.81735229492188,-4.605369567871094
14.192316055297852,-42.13801574707031,-2.77517032623291
15.409492492675781,-40.31950378417969,-2.6940290927886963
17.33275032043457,-40.404640197753906,-2.744060516357422
18.67648696899414,-39.11994171142578,-2.7056195735931396
20.641889572143555,-39.113182067871094,-2.760316848754883
16.695919036865234,-40.077674865722656,-2.3477232456207275
18.206941604614258,-39.19065856933594,-2.336754322052002
20.156415939331055,-39.18553161621094,-2.382840871810913
22.187274932861328,-39.17945098876953,-2.4347469806671143
-9.846918106079102,13.550856590270996,-0.9057914018630981
-27.718046188354492,35.088592529296875,-2.4179954528808594
-29.454769134521484,34.35451889038086,-2.4470300674438477
-31.40902328491211,33.786808013916016,-2.4945218563079834
-29.1842041015625,28.967487335205078,-2.223538637161255
-29.56997299194336,27.08090591430664,-2.168229341506958
-15.917174339294434,13.442496299743652,-1.126596450805664
-29.78292465209961,23.168458938598633,-2.040417432785034
-29.879501342773438,21.373876571655273,-1.9865586757659912
-21.20283317565918,13.91456413269043,-1.3713842630386353
-34.69546127319336,20.824901580810547,-2.18815541267395
-38.154052734375,20.86344337463379,-2.3514821529388428
-65.91642761230469,32.67608642578125,-3.9783334732055664
-66.07975006103516,29.51223373413086,-3.913419723510742
-66.2366714477539,26.44455909729004,-3.8566346168518066
-38.66385269165039,13.662581443786621,-2.2174320220947266
-68.92176818847656,21.281538009643555,-3.900568962097168
-63.43040466308594,16.826906204223633,-3.548619031906128
-62.980682373046875,14.02598762512207,-3.4890925884246826
-65.40865325927734,11.831117630004883,-3.594344139099121
-62.744590759277344,8.763008117675781,-3.425823211669922
-59.67536926269531,5.902042388916016,-3.2426743507385254
-56.93656539916992,3.3288679122924805,-3.08408522605896
-54.48069381713867,0.9926728010177612,-2.9465150833129883
-36.27577590942383,-0.7968462705612183,-1.9620749950408936
-49.70475387573242,-3.0928449630737305,-2.6929678916931152
-44.15608596801758,-4.534154415130615,-2.4002842903137207
-46.58222579956055,-6.683653831481934,-2.54472017288208
-44.97398376464844,-8.308932304382324,-2.473111867904663
-29.4486083984375,-6.674126148223877,-1.6328098773956299
-25.35832405090332,-6.828843116760254,-1.420094609260559
-23.175697326660156,-7.251307010650635,-1.31313157081604
-21.29889488220215,-7.616184711456299,-1.2231526374816895
-19.651201248168945,-7.9310526847839355,-1.1459121704101562
-18.860883712768555,-8.508414268493652,-1.118870735168457
-18.99765968322754,-9.506301879882812,-1.1487290859222412
-18.511240005493164,-10.212565422058105,-1.1432204246520996
-20.32860565185547,-12.305407524108887,-1.284971833229065
-20.37535285949707,-13.480942726135254,-1.3211181163787842
-20.391460418701172,-14.702444076538086,-1.3593907356262207
-20.44304084777832,-16.02607536315918,-1.4046461582183838
-20.497713088989258,-17.44276237487793,-1.4554109573364258
-20.55771255493164,-18.96925926208496,-1.5125975608825684
-20.618558883666992,-20.6192684173584,-1.576794981956482
-20.72061538696289,-22.457252502441406,-1.65231192111969
-20.794313430786133,-24.437955856323242,-1.7351317405700684
-20.875213623046875,-26.630542755126953,-1.8297407627105713
-19.859195709228516,-27.54557228088379,-1.8362693786621094
-19.84722137451172,-29.99976921081543,-1.9451104402542114
-21.829814910888672,-36.06584930419922,-2.279676914215088
-20.412391662597656,-37.00242233276367,-2.285160541534424
-18.520559310913086,-37.01527786254883,-2.2381603717803955
-16.842180252075195,-37.338138580322266,-2.214951515197754
-17.245548248291016,-42.734493255615234,-2.491927146911621
-15.978849411010742,-44.690330505371094,-2.566439390182495
-14.638140678405762,-46.79035186767578,-2.6511011123657227
-13.209491729736328,-49.059234619140625,-2.747344732284546
-11.575069427490234,-51.081626892089844,-2.832251787185669
-9.935747146606445,-53.79019546508789,-2.957895040512085
-7.51233434677124,-52.37083053588867,-2.8609232902526855
-6.2283172607421875,-60.675682067871094,-3.2982635498046875
-4.006429195404053,-64.42356872558594,-3.4904189109802246
-1.5063118934631348,-68.68367767333984,-3.714946746826172
1.3434010744094849,-73.58544158935547,-3.9797770977020264
4.637347221374512,-79.26760864257812,-4.293704986572266
8.517406463623047,-86.08751678466797,-4.677883625030518
9.086758613586426,-65.04578399658203,-3.5514888763427734
14.06788444519043,-77.75878143310547,-4.273044109344482
15.92756462097168,-71.50712585449219,-3.961488962173462
18.971878051757812,-71.50555419921875,-4.000426769256592
13.58707046508789,-43.99711227416992,-2.4899978637695312
14.193794250488281,-40.16252517700195,-2.3034162521362305
16.053226470947266,-40.20488357543945,-2.340967893600464
17.28221321105957,-38.69218063354492,-2.291489362716675
19.427759170532227,-39.187538146972656,-2.3651740550994873
21.427223205566406,-39.18181228637695,-2.4148709774017334
-7.436301231384277,11.515789031982422,-0.7412599325180054
-9.824294090270996,13.950313568115234,-0.922646164894104
-10.247182846069336,13.375266075134277,-0.9111258387565613
-28.869243621826172,34.70033645629883,-2.4408926963806152
-30.67811393737793,33.99828338623047,-2.4762611389160156
-31.63155746459961,32.34224319458008,-2.4462900161743164
-29.527294158935547,27.858476638793945,-2.195167064666748
-15.651144981384277,13.620702743530273,-1.1219468116760254
-29.745718002319336,23.856220245361328,-2.0618908405303955
-29.84452247619629,22.025419235229492,-2.005739688873291
-30.66425132751465,20.78099822998047,-2.003061532974243
-33.53641128540039,20.81215476989746,-2.134298801422119
-36.81835174560547,20.84847640991211,-2.2879738807678223
-26.995033264160156,13.884620666503906,-1.6415164470672607
-66.02023315429688,30.66843605041504,-3.9364118576049805
-32.68364715576172,13.614303588867188,-1.9145561456680298
-38.22572326660156,14.14909553527832,-2.204101085662842
-44.05363082885742,14.322044372558594,-2.5049147605895996
-49.697139739990234,13.976086616516113,-2.7916064262390137
-60.751705169677734,14.478796005249023,-3.3771378993988037
-67.62535858154297,13.27107048034668,-3.7265806198120117
-63.18818664550781,9.782722473144531,-3.457585573196411
-60.76582336425781,6.921626091003418,-3.3071393966674805
-57.910438537597656,4.248733043670654,-3.1399073600769043
-55.35841369628906,1.8304818868637085,-2.9951274394989014
-52.50531005859375,-0.37422144412994385,-2.839280605316162
-50.42702865600586,-2.3874497413635254,-2.7298786640167236
-46.912193298339844,-4.1149091720581055,-2.546504259109497
-47.248504638671875,-6.065338134765625,-2.5759193897247314
-45.55500411987305,-7.719221591949463,-2.4984920024871826
-44.013267517089844,-9.290746688842773,-2.432452917098999
-26.258583068847656,-6.65507698059082,-1.4648185968399048
-23.941770553588867,-7.10282039642334,-1.3504152297973633
-21.96079444885254,-7.487307071685791,-1.254644513130188
-20.22806167602539,-7.8169403076171875,-1.1726590394973755
-19.394495010375977,-8.405128479003906,-1.1430034637451172
-18.983060836791992,-9.149407386779785,-1.1395124197006226
-19.023025512695312,-10.12975788116455,-1.1654168367385864
-20.31185531616211,-11.887142181396484,-1.2726243734359741
-20.35784339904785,-13.03929615020752,-1.3072938919067383
-20.37310791015625,-14.234707832336426,-1.343941330909729
-20.423664093017578,-15.527289390563965,-1.3873347043991089
-20.47713851928711,-16.907987594604492,-1.4359805583953857
-20.534021377563477,-18.39100456237793,-1.4906158447265625
-20.59493064880371,-19.993453979492188,-1.5521330833435059
-20.660545349121094,-21.736125946044922,-1.6216278076171875
-20.766334533691406,-23.684059143066406,-1.703291893005371
-20.84441566467285,-25.793798446655273,-1.7933018207550049
-20.508718490600586,-27.57476806640625,-1.858296275138855
-19.811012268066406,-29.00079345703125,-1.8991870880126953
-22.218486785888672,-35.50798034667969,-2.2649998664855957
-21.131404876708984,-36.99735641479492,-2.3039517402648926
-19.210018157958984,-37.01067352294922,-2.2548673152923584
-17.36547088623047,-37.02276611328125,-2.211282730102539
-17.69689178466797,-42.04461669921875,-2.46673583984375
-16.454509735107422,-43.95256805419922,-2.537815570831299
-15.142617225646973,-45.9967155456543,-2.6185765266418457
-13.748215675354004,-48.200096130371094,-2.710360527038574
-11.969087600708008,-49.407752990722656,-2.7489871978759766
-10.55921459197998,-52.770103454589844,-2.910093307495117
-8.30698299407959,-52.370582580566406,-2.867326259613037
-6.989471912384033,-59.40116500854492,-3.2342586517333984
-4.856044292449951,-62.98582458496094,-3.4160470962524414
-2.465848684310913,-67.04376220703125,-3.6278252601623535
0.2450547218322754,-71.69097137451172,-3.8766963481903076
3.3630142211914062,-77.08417510986328,-4.172271728515625
7.0071845054626465,-83.43993377685547,-4.527878761291504
9.142426490783691,-73.3726577758789,-3.9982879161834717
13.51589584350586,-81.60003662109375,-4.4726176261901855
14.817656517028809,-71.50738525390625,-3.948892116546631
3.0303804874420166,-12.145766258239746,-0.6769127249717712
20.758590698242188,-70.93563842773438,-3.996699094772339
14.114372253417969,-41.906578063964844,-2.391162633895874
15.279274940490723,-39.978797912597656,-2.314350128173828
16.891338348388672,-39.37565231323242,-2.3168725967407227
18.709644317626953,-39.18941116333008,-2.3482751846313477
20.679288864135742,-39.18404006958008,-2.3958334922790527
22.480560302734375,-38.74205780029297,-2.4221136569976807
16.234830856323242,-38.97085189819336,-1.931139349937439
18.239139556884766,-39.25996780395508,-1.9802027940750122
20.192771911621094,-39.2562141418457,-2.01932692527771
22.228160858154297,-39.251644134521484,-2.0633950233459473
-23.822879791259766,35.71775436401367,-1.9639058113098145
-9.876729965209961,13.591888427734375,-0.7685452699661255
-27.26814842224121,34.51906967163086,-2.012228488922119
-29.06741714477539,33.902706146240234,-2.042774200439453
-30.899532318115234,33.23874282836914,-2.0759389400482178
-29.528493881225586,29.30921745300293,-1.9031274318695068
-29.643037796020508,27.147817611694336,-1.8386796712875366
-15.913434028625488,13.439334869384766,-0.9527865052223206
-29.8521671295166,23.222322463989258,-1.7300434112548828
-29.984296798706055,21.448850631713867,-1.6863641738891602
-21.431777954101562,14.064813613891602,-1.1726068258285522
-34.58409118652344,20.75804901123047,-1.8450653553009033
-38.02244567871094,20.791486740112305,-1.982301950454712
-66.0533676147461,32.74397277832031,-3.372345447540283
-66.21479034423828,29.57254409790039,-3.3172028064727783
-66.37005615234375,26.497800827026367,-3.2689778804779053
-38.652950286865234,13.658729553222656,-1.8752412796020508
-63.93515396118164,19.74176025390625,-3.060823440551758
-63.57227325439453,16.864543914794922,-3.008561849594116
-63.12169647216797,14.057385444641113,-2.9581077098846436
-61.92083740234375,11.200238227844238,-2.87839937210083
-59.58612823486328,8.321891784667969,-2.7520902156829834
-56.817283630371094,5.61937141418457,-2.611665725708008
-54.34221267700195,3.177185297012329,-2.4900124073028564
-52.104156494140625,0.9493700265884399,-2.383787155151367
-36.37091827392578,-0.7989373207092285,-1.6641120910644531
-47.695762634277344,-2.9678354263305664,-2.1859607696533203
-42.926918029785156,-4.407935619354248,-1.9739283323287964
-44.85639572143555,-6.436024188995361,-2.0728824138641357
-43.314247131347656,-8.002299308776855,-2.014848232269287
-29.654151916503906,-6.720711708068848,-1.3908655643463135
-24.978879928588867,-6.72666072845459,-1.1833105087280273
-22.854663848876953,-7.150862216949463,-1.0954155921936035
-21.02381134033203,-7.517822742462158,-1.0213247537612915
-20.11977767944336,-8.120165824890137,-0.9924642443656921
-18.648723602294922,-8.412702560424805,-0.9358291625976562
-19.03907012939453,-9.527022361755371,-0.97385174036026
-19.08061408996582,-10.526681900024414,-0.9968183636665344
-20.375131607055664,-12.333569526672363,-1.0894705057144165
-20.390396118164062,-13.490891456604004,-1.1183888912200928
-20.440919876098633,-14.738103866577148,-1.1527252197265625
-20.494281768798828,-16.06624412536621,-1.191197156906128
-20.55095100402832,-17.488073348999023,-1.234358787536621
-20.611507415771484,-19.018898010253906,-1.2828854322433472
-20.676589965820312,-20.677310943603516,-1.3375962972640991
-20.781631469726562,-22.523387908935547,-1.4018381834030151
-20.858625411987305,-24.513538360595703,-1.4723215103149414
-20.943307876586914,-26.717411041259766,-1.5528645515441895
-19.898326873779297,-27.599849700927734,-1.5563981533050537
-19.920299530029297,-30.1102294921875,-1.651467204093933
-21.085718154907227,-34.836509704589844,-1.8626899719238281
-20.035110473632812,-36.31851577758789,-1.897334337234497
-18.55371856689453,-37.08152770996094,-1.8966948986053467
-16.731149673461914,-37.091983795166016,-1.8613154888153076
-16.60365867614746,-41.14388656616211,-2.029510974884033
-15.367011070251465,-42.97908020019531,-2.0878729820251465
-14.059870719909668,-44.94192886352539,-2.1540260314941406
-12.66949462890625,-47.0536994934082,-2.2290287017822266
-11.175838470458984,-49.31982421875,-2.313225269317627
-9.491426467895508,-51.384735107421875,-2.3902475833892822
-7.512693405151367,-52.37335205078125,-2.4202260971069336
-5.92576789855957,-57.72826385498047,-2.654531478881836
-3.801055908203125,-61.12113571166992,-2.8012595176696777
-1.4244043827056885,-64.94867706298828,-2.9716556072235107
1.2523903846740723,-68.60028076171875,-3.1384968757629395
4.34821891784668,-74.32522583007812,-3.4056613445281982
7.560643196105957,-76.4172592163086,-3.512613534927368
9.064379692077637,-64.88552856445312,-2.9968693256378174
13.940988540649414,-77.05731201171875,-3.582043170928955
15.953750610351562,-71.6246566772461,-3.3566064834594727
19.003366470336914,-71.62423706054688,-3.389655590057373
13.760435104370117,-44.558448791503906,-2.1332082748413086
14.081485748291016,-39.844749450683594,-1.9330874681472778
15.925251007080078,-39.884368896484375,-1.9644830226898193
17.536340713500977,-39.26116180419922,-1.9669241905212402
19.4625301361084,-39.257686614990234,-2.0043303966522217
21.46638298034668,-39.25342559814453,-2.0465219020843506
-7.4218058586120605,11.493341445922852,-0.6258236169815063
-9.854593276977539,13.993330001831055,-0.7828936576843262
-10.226025581359863,13.347650527954102,-0.7691484689712524
-28.396291732788086,34.13186264038086,-2.0309715270996094
-30.184049606323242,33.45075607299805,-2.0609824657440186
-31.296566009521484,31.999725341796875,-2.047450542449951
-29.60116195678711,27.92816925048828,-1.8615810871124268
-15.647480010986328,13.617513656616211,-0.9488551020622253
-29.81560516357422,23.912260055541992,-1.7482937574386597
-29.949851989746094,22.103160858154297,-1.7026830911636353
-30.574111938476562,20.719913482666016,-1.6894481182098389
-33.431392669677734,20.746980667114258,-1.7997920513153076
-36.694786071777344,20.778505325317383,-1.9289469718933105
-27.04515838623047,13.910404205322266,-1.3911699056625366
-66.15593719482422,30.731475830078125,-3.336735486984253
-32.63697814941406,13.594862937927246,-1.61724853515625
-38.38709259033203,14.208823204040527,-1.8723653554916382
-44.28586196899414,14.397547721862793,-2.130126476287842
-49.785011291503906,14.0007963180542,-2.3656511306762695
-61.032005310058594,14.545591354370117,-2.8699703216552734
-63.15655517578125,12.394097328186035,-2.944063663482666
-59.94038009643555,9.279900550842285,-2.774507761001587
-57.8003044128418,6.583835601806641,-2.6610465049743652
-55.22614669799805,4.051793575286865,-2.532989263534546
-52.905494689941406,1.749373435974121,-2.4213695526123047
-50.272727966308594,-0.35830938816070557,-2.2996785640716553
-48.36204528808594,-2.289684772491455,-2.2146942615509033
-42.888946533203125,-3.762009620666504,-1.9694000482559204
-45.436737060546875,-5.832749843597412,-2.0954723358154297
-43.85722351074219,-7.431535720825195,-2.034756660461426
-42.41472244262695,-8.953310012817383,-1.9829274415969849
-25.853487014770508,-6.552408218383789,-1.2200032472610474
-23.600858688354492,-7.001677513122559,-1.126077651977539
-21.669971466064453,-7.388152122497559,-1.047274112701416
-19.974609375,-7.718994140625,-0.9795458316802979
-19.17167091369629,-8.308564186096191,-0.955779492855072
-19.024105072021484,-9.169189453125,-0.9660210609436035
-19.065092086791992,-10.152152061462402,-0.9880296587944031
-18.562528610229492,-10.863378524780273,-0.9838230013847351
-20.372377395629883,-13.048604965209961,-1.1066570281982422
-20.421960830688477,-14.268835067749023,-1.1395931243896484
-20.474220275878906,-15.565725326538086,-1.1764798164367676
-20.529611587524414,-16.951311111450195,-1.2178376913070679
-20.588647842407227,-18.4399356842041,-1.2642955780029297
-20.65198516845703,-20.048843383789062,-1.316617488861084
-20.720354080200195,-21.79904556274414,-1.3757376670837402
-20.829378128051758,-23.755962371826172,-1.4452204704284668
-20.911052703857422,-25.87625503540039,-1.5218391418457031
-20.549564361572266,-27.629688262939453,-1.5750991106033325
-19.88222885131836,-29.10504722595215,-1.6123347282409668
-21.46586036682129,-34.30519485473633,-1.8511089086532593
-20.426786422729492,-35.763694763183594,-1.8839704990386963
-19.244661331176758,-37.077415466308594,-1.9108808040618896
-17.396177291870117,-37.08823776245117,-1.8738747835159302
-15.61487102508545,-37.09809494018555,-1.8411694765090942
-15.831207275390625,-42.28763198852539,-2.06546688079834
-14.551468849182129,-44.20106887817383,-2.128632068634033
-13.193441390991211,-46.255126953125,-2.200227737426758
-11.742840766906738,-48.473785400390625,-2.2814645767211914
-10.094237327575684,-50.446319580078125,-2.3533051013946533
-8.421601295471191,-53.09326171875,-2.459003448486328
-6.656240463256836,-56.568992614746094,-2.605480194091797
-4.612162113189697,-59.82244873046875,-2.744574546813965
-2.3347349166870117,-63.478912353515625,-2.9056708812713623
0.2311774492263794,-67.63230895996094,-3.0937161445617676
3.124783992767334,-71.62338256835938,-3.2793774604797363
6.545174598693848,-77.93817138671875,-3.577664375305176
9.032054901123047,-72.48688507080078,-3.3413987159729004
12.837418556213379,-77.50386810302734,-3.5935537815093994
14.841951370239258,-71.62454223632812,-3.3459157943725586
3.035391092300415,-12.165848731994629,-0.5735606551170349
20.95986557006836,-71.62342834472656,-3.4136672019958496
14.03734302520752,-41.67789077758789,-2.0116939544677734
15.151363372802734,-39.64411544799805,-1.9413646459579468
16.842697143554688,-39.26226043701172,-1.954243779182434
18.742902755737305,-39.25905990600586,-1.9899832010269165
20.71678352355957,-39.25509262084961,-2.0303592681884766
22.82521629333496,-39.33603286743164,-2.080326795578003
16.384984970092773,-39.33127212524414,-1.5942676067352295
18.27142906188965,-39.329471588134766,-1.6226617097854614
20.22921371459961,-39.32707214355469,-1.6547784805297852
22.269176483154297,-39.324058532714844,-1.6909573078155518
-21.818696975708008,35.74464797973633,-1.566953420639038
-23.451656341552734,35.16118240356445,-1.5814272165298462
-9.90670108795166,13.633127212524414,-0.6305738091468811
-26.832950592041016,33.9681396484375,-1.619720697402954
-28.596576690673828,33.353538513183594,-1.6439108848571777
-30.406660079956055,32.70856857299805,-1.6710176467895508
-29.60256576538086,29.38273811340332,-1.5606515407562256
-29.71640968322754,27.215007781982422,-1.50775146484375
-15.909695625305176,13.436179161071777,-0.7791907787322998
-29.95880889892578,23.3053035736084,-1.4202176332473755
-30.052265167236328,21.497474670410156,-1.382561206817627
-31.49263572692871,20.667348861694336,-1.4094616174697876
-34.473514556884766,20.691673278808594,-1.5044251680374146
-37.89186477661133,20.72007942199707,-1.615942358970642
-27.496585845947266,13.630606651306152,-1.148327112197876
-66.35027313232422,29.633041381835938,-2.7190048694610596
-64.48651123046875,25.745820999145508,-2.598111391067505
-38.642059326171875,13.654884338378906,-1.5335006713867188
-44.26153564453125,13.666979789733887,-1.7333046197891235
-63.71535110473633,16.902502059936523,-2.466520071029663
-62.66179656982422,13.95497989654541,-2.402090311050415
-58.788394927978516,10.633646965026855,-2.235398530960083
-56.72371292114258,7.922123432159424,-2.1430492401123047
-54.227622985839844,5.363246917724609,-2.0389533042907715
-51.975711822509766,3.0388247966766357,-1.9481145143508911
-49.92788314819336,0.9097176790237427,-1.8684805631637573
-47.55636215209961,-1.0446275472640991,-1.779862642288208
-45.84421920776367,-2.8526268005371094,-1.7186883687973022
-42.40241622924805,-4.354079723358154,-1.594932198524475
-43.21826171875,-6.20098352432251,-1.6336802244186401
-41.7737922668457,-7.717700004577637,-1.5895198583602905
-29.862428665161133,-6.767914295196533,-1.1457116603851318
-24.61090660095215,-6.627565860748291,-0.9536820650100708
-22.54265022277832,-7.053237438201904,-0.8838092684745789
-20.755964279174805,-7.4220404624938965,-0.824794590473175
-19.882766723632812,-8.024508476257324,-0.8022686243057251
-18.529541015625,-8.35893726348877,-0.7606087923049927
-19.080623626708984,-9.54781723022461,-0.7983424067497253
-19.12325096130371,-10.550206184387207,-0.8172131776809692
-20.38893699645996,-12.341924667358398,-0.8917860984802246
-20.43845558166504,-13.52269458770752,-0.9169908761978149
-20.490581512451172,-14.773910522460938,-0.9452147483825684
-20.545738220214844,-16.10658073425293,-0.976837158203125
-20.60442543029785,-17.533573150634766,-1.0123252868652344
-20.791748046875,-19.185218811035156,-1.0585660934448242
-20.734901428222656,-20.735614776611328,-1.0972334146499634
-20.84296226501465,-22.589853286743164,-1.1500799655914307
-20.923288345336914,-24.58953285217285,-1.2080817222595215
-21.011795043945312,-26.804779052734375,-1.2743885517120361
-19.937580108642578,-27.654298782348633,-1.2756354808807373
-19.993860244750977,-30.221420288085938,-1.3558776378631592
-20.39120101928711,-33.68906021118164,-1.4734854698181152
-19.363340377807617,-35.10075759887695,-1.4999722242355347
-18.30059242248535,-36.57562255859375,-1.5303174257278442
-16.76056671142578,-37.15719985961914,-1.5252223014831543
-14.99822998046875,-37.16564178466797,-1.4996073246002197
-14.800704956054688,-41.39521789550781,-1.6449291706085205
-13.5259428024292,-43.2352409362793,-1.6950675249099731
-12.172273635864258,-45.2070426940918,-1.7517738342285156
-10.749311447143555,-47.43748092651367,-1.819986343383789
-9.189338684082031,-49.749237060546875,-1.8929774761199951
-7.498584747314453,-52.275081634521484,-1.976015567779541
-5.651453495025635,-55.055908203125,-2.070873260498047
-3.615835666656494,-58.14292907714844,-2.1797585487365723
-1.3510022163391113,-61.60137939453125,-2.305518627166748
1.1837427616119385,-64.84037780761719,-2.426560401916504
4.095089912414551,-69.99885559082031,-2.623656749725342
6.602201461791992,-66.73015594482422,-2.509061336517334
9.067605018615723,-64.90873718261719,-2.452298641204834
12.980948448181152,-71.75088500976562,-2.728314161300659
15.97997760772705,-71.74246978759766,-2.7502007484436035
15.719350814819336,-59.246681213378906,-2.293557643890381
14.929731369018555,-48.344818115234375,-1.8932278156280518
13.971024513244629,-39.532196044921875,-1.5688507556915283
15.52695083618164,-38.886817932128906,-1.5667436122894287
17.56718635559082,-39.330204010009766,-1.6117595434188843
19.497411727905273,-39.328033447265625,-1.6424674987792969
21.505657196044922,-39.32524871826172,-1.6771042346954346
-21.223548889160156,35.95852279663086,-1.5623525381088257
-7.41477108001709,11.482443809509277,-0.5114355683326721
-24.499799728393555,34.78922653198242,-1.5921218395233154
-10.204972267150879,13.320170402526855,-0.6278629899024963
-27.938932418823242,33.582122802734375,-1.6345642805099487
-29.70602798461914,32.92098617553711,-1.659172773361206
-30.968839645385742,31.66463279724121,-1.6572633981704712
-29.675344467163086,27.99816131591797,-1.5265785455703735
-15.643818855285645,13.614328384399414,-0.7759761214256287
-29.922849655151367,23.998291015625,-1.435235619544983
-30.018400192260742,22.15376091003418,-1.3959711790084839
-30.48457145690918,20.65923309326172,-1.3779098987579346
-33.32711410522461,20.682266235351562,-1.4676276445388794
-36.572139739990234,20.709054946899414,-1.572593331336975
-27.095428466796875,13.936261177062988,-1.1400835514068604
-66.29209899902344,30.79472541809082,-2.7350471019744873
-32.703128814697266,13.622416496276855,-1.3255810737609863
-64.41278839111328,23.84212303161621,-2.569965124130249
-64.1660385131836,20.860679626464844,-2.5246171951293945
-49.87312698364258,14.025580406188965,-1.9385097026824951
-63.42852020263672,15.116747856140137,-2.439802408218384
-59.89247512817383,11.75354290008545,-2.283759117126465
-57.71675109863281,8.935638427734375,-2.1853325366973877
-55.11834716796875,6.278340816497803,-2.0757193565368652
-52.78148651123047,3.872434616088867,-1.9802536964416504
-50.66238021850586,1.6752026081085205,-1.89668607711792
-48.22373580932617,-0.3437068462371826,-1.8044487237930298
-46.46094512939453,-2.199676513671875,-1.740394115447998
-41.257774353027344,-3.618931770324707,-1.5496861934661865
-43.7599983215332,-5.61751127243042,-1.6508270502090454
-42.282596588134766,-7.1647162437438965,-1.6046578884124756
-40.929325103759766,-8.63975715637207,-1.5652194023132324
-26.812286376953125,-6.795408248901367,-1.0349642038345337
-23.269763946533203,-6.903450965881348,-0.9082031846046448
-21.386960983276367,-7.291662216186523,-0.8454766869544983
-19.72762107849121,-7.623547554016113,-0.791354775428772
-18.95408058166504,-8.214263916015625,-0.7729476094245911
-19.065296173095703,-9.189043045043945,-0.7919095754623413
-19.10731315612793,-10.174639701843262,-0.809990644454956
-18.60466766357422,-10.888040542602539,-0.8065889477729797
-20.419889450073242,-13.079034805297852,-0.907351553440094
-20.471010208129883,-14.303106307983398,-0.9344186782836914
-20.524993896484375,-15.604323387145996,-0.9647375345230103
-20.582313537597656,-16.994829177856445,-0.9987411499023438
-20.643522262573242,-18.48908042907715,-1.0369420051574707
-20.822248458862305,-20.214141845703125,-1.085863471031189
-20.78046226501465,-21.862279891967773,-1.1286098957061768
-20.892757415771484,-23.8282470703125,-1.1857808828353882
-20.978065490722656,-25.959184646606445,-1.2488429546356201
-20.590545654296875,-27.684783935546875,-1.2909917831420898
-19.953903198242188,-29.20996856689453,-1.3236323595046997
-20.763071060180664,-33.18205261230469,-1.4646234512329102
-19.746538162231445,-34.57269287109375,-1.4897563457489014
-18.697429656982422,-36.02309799194336,-1.5186376571655273
-17.426971435546875,-37.15388488769531,-1.535531759262085
-15.642024993896484,-37.16261291503906,-1.5086851119995117
-13.92463493347168,-37.194862365722656,-1.4860668182373047
-14.005146026611328,-42.54155731201172,-1.6758337020874023
-12.68209457397461,-44.46236038208008,-1.7300176620483398
-11.296483039855957,-46.63128662109375,-1.795288324356079
-9.779351234436035,-48.872657775878906,-1.8649381399154663
-8.139564514160156,-51.3151969909668,-1.944087266921997
-6.353543758392334,-53.99648666381836,-2.03434681892395
-4.391750335693359,-56.963680267333984,-2.1377553939819336
-2.216939926147461,-60.27634811401367,-2.2569072246551514
0.21881532669067383,-64.01121520996094,-2.3951447010040283
2.947718620300293,-67.56497192382812,-2.530508518218994
5.6038126945495605,-66.7288589477539,-2.5056076049804688
8.946313858032227,-71.79882049560547,-2.707298755645752
11.884381294250488,-71.75009155273438,-2.721280097961426
14.866286277770996,-71.74198150634766,-2.741426467895508
3.040414571762085,-12.185981750488281,-0.46994492411613464
17.072439193725586,-58.33943557739258,-2.274461030960083
14.026881217956543,-41.646846771240234,-1.6443287134170532
15.025673866271973,-39.31523513793945,-1.5748498439788818
16.872121810913086,-39.33085250854492,-1.6013517379760742
18.776243209838867,-39.32890319824219,-1.630690336227417
20.754398345947266,-39.32634735107422,-1.6638340950012207
22.817745208740234,-39.323158264160156,-1.7011370658874512
16.413511276245117,-39.399757385253906,-1.2419170141220093
18.30380630493164,-39.399169921875,-1.2640740871429443
20.26577377319336,-39.398162841796875,-1.2891428470611572
22.310298919677734,-39.39669418334961,-1.3173748254776
-19.91006088256836,35.77454376220703,-1.1912837028503418
-21.487140655517578,35.201473236083984,-1.2000001668930054
-23.092050552368164,34.622013092041016,-1.21091628074646
-9.936834335327148,13.674592018127441,-0.491847962141037
-26.411684036254883,33.434852600097656,-1.2397783994674683
-28.141014099121094,32.822200775146484,-1.2579940557479858
-29.929574966430664,32.19535827636719,-1.2790533304214478
-29.67855453491211,29.458160400390625,-1.2167311906814575
-29.79010009765625,27.282503128051758,-1.1753875017166138
-15.90595817565918,13.433027267456055,-0.6057830452919006
-30.0286922454834,23.359661102294922,-1.1069867610931396
-30.120502471923828,21.546289443969727,-1.0775675773620605
-31.398630142211914,20.605661392211914,-1.0927720069885254
-34.36369705200195,20.625764846801758,-1.166167140007019
-37.76225662231445,20.649198532104492,-1.2523157596588135
-27.35912322998047,13.56246566772461,-0.8885133862495422
-64.74916076660156,28.9179630279541,-2.063371181488037
-64.4970932006836,25.750041961669922,-2.0207126140594482
-38.631187438964844,13.65103816986084,-1.1921688318252563
-44.271820068359375,13.67015552520752,-1.3481913805007935
-62.12482833862305,16.48057746887207,-1.8701837062835693
-59.47508239746094,13.245296478271484,-1.7729538679122925
-56.06653594970703,10.141314506530762,-1.6578400135040283
-54.13209915161133,7.560173988342285,-1.5903713703155518
-51.86513137817383,5.1295905113220215,-1.5164821147918701
-49.80799865722656,2.9120864868164062,-1.4517381191253662
-47.92728805541992,0.8732646703720093,-1.3947727680206299
-45.71949768066406,-1.0042787790298462,-1.330622673034668
-44.13207244873047,-2.7460904121398926,-1.286595106124878
-43.09723663330078,-4.4254150390625,-1.2606040239334106
-41.696495056152344,-5.982635974884033,-1.2256758213043213
-40.358116149902344,-7.456153869628906,-1.194176197052002
-30.073514938354492,-6.8157548904418945,-0.8972433805465698
-24.66657257080078,-6.642557621002197,-0.743293285369873
-22.239215850830078,-6.9583001136779785,-0.6780303716659546
-20.494997024536133,-7.328725814819336,-0.6333235502243042
-19.65140724182129,-7.931136131286621,-0.6166107058525085
-18.569196701049805,-8.376827239990234,-0.5927429795265198
-19.122339248657227,-9.568690299987793,-0.6221759915351868
-19.166048049926758,-10.57381820678711,-0.636914849281311
-18.663585662841797,-11.297531127929688,-0.6347976326942444
-20.48671531677246,-13.554624557495117,-0.7147672772407532
-20.540454864501953,-14.809870719909668,-0.7368165254592896
-20.597423553466797,-16.1470947265625,-0.761532187461853
-20.658145904541016,-17.57927894592285,-0.789271354675293
-20.84809684753418,-19.23720359802246,-0.825408935546875
