25.650386810302734,62.91103744506836,9.375558853149414
22.168079376220703,61.306495666503906,8.996347427368164
19.07326889038086,60.20871353149414,8.71568775177002
16.16042137145996,59.173126220703125,8.464890480041504
13.40566635131836,58.19147491455078,8.24070930480957
10.788446426391602,57.25659942626953,8.040396690368652
8.60158920288086,58.472373962402344,8.155969619750977
6.121625900268555,57.60266876220703,7.993871688842773
3.0392918586730957,46.19776916503906,6.389040946960449
1.1618998050689697,45.53303527832031,6.285566329956055
-0.6584410667419434,44.882423400878906,6.194404602050781
-2.4292426109313965,44.243534088134766,6.114768981933594
-4.157293796539307,43.61414337158203,6.046000957489014
-5.8488616943359375,42.992183685302734,5.987540245056152
-9.241902351379395,52.15008544921875,7.308794975280762
-11.275888442993164,51.492584228515625,7.274304389953613
-13.285700798034668,50.80840301513672,7.247260570526123
-15.23496150970459,49.96794891357422,7.208915710449219
-12.555436134338379,35.936214447021484,5.253131866455078
-18.968856811523438,48.006072998046875,7.123217582702637
-20.84455108642578,47.120689392089844,7.110448837280273
-22.817853927612305,46.44325637817383,7.1408796310424805
-24.677812576293945,45.5125846862793,7.1445631980896
-26.530595779418945,44.559104919433594,7.1565375328063965
-28.379579544067383,43.580909729003906,7.176884651184082
-30.228256225585938,42.575965881347656,7.2056989669799805
-32.08003234863281,41.54206848144531,7.243144989013672
-33.81254577636719,40.32676696777344,7.262399673461914
-35.33781051635742,38.861778259277344,7.248565673828125
-31.562211990356445,32.02488708496094,6.20500373840332
-38.391990661621094,35.944969177246094,7.257740497589111
-39.921043395996094,34.474021911621094,7.2789154052734375
-32.32219696044922,25.719581604003906,5.700252056121826
-32.50519943237305,23.79709815979004,5.559313774108887
-45.070091247558594,30.29231834411621,7.493923664093018
-38.402156829833984,23.628313064575195,6.222255706787109
-37.438575744628906,21.010543823242188,5.924473762512207
-36.562129974365234,18.628475189208984,5.662693023681641
-35.66031265258789,16.399385452270508,5.416533470153809
-35.082176208496094,14.455843925476074,5.236216068267822
-37.04589080810547,13.55113697052002,5.44359827041626
-39.16761016845703,12.567754745483398,5.6765336990356445
-41.474578857421875,11.492329597473145,5.939122200012207
-44.00035858154297,10.308393478393555,6.236428260803223
-43.45408630371094,8.354743003845215,6.106463432312012
-42.756797790527344,6.451828956604004,5.967203617095947
-42.089969635009766,4.630949974060059,5.843434810638428
-42.951560974121094,2.9857664108276367,5.941585540771484
-46.36196517944336,1.3551249504089355,6.400647163391113
-78.67152404785156,-0.8622972965240479,10.857260704040527
-77.53662872314453,-3.9688777923583984,10.713995933532715
-77.01158142089844,-7.05259370803833,10.672004699707031
-84.8117446899414,-11.217966079711914,11.805885314941406
-84.32185363769531,-14.620976448059082,11.809975624084473
-61.650611877441406,-13.260866165161133,8.702320098876953
79.5264663696289,55.141990661621094,13.354652404785156
73.8485107421875,55.72743606567383,12.767087936401367
72.4975814819336,59.4255256652832,12.93612289428711
62.62147521972656,55.68277359008789,11.563983917236328
58.353843688964844,56.24465560913086,11.184432029724121
56.23957061767578,58.74417495727539,11.222793579101562
61.79526138305664,69.96998596191406,12.882387161254883
50.54210662841797,62.08641815185547,11.047887802124023
51.14020538330078,68.24764251708984,11.76887321472168
46.410099029541016,67.41820526123047,11.294960975646973
42.010223388671875,66.60556030273438,10.867073059082031
37.89986038208008,65.80704498291016,10.479727745056152
34.04446029663086,65.02030181884766,10.128289222717285
30.414566040039062,64.24323272705078,9.80885124206543
24.796405792236328,58.32621765136719,8.74615478515625
23.466461181640625,62.00495910644531,9.148931503295898
20.19333839416504,60.60630416870117,8.815643310546875
17.21630096435547,59.54878234863281,8.55423355102539
14.405720710754395,58.5481071472168,8.320569038391113
11.761739730834961,57.70378112792969,8.126805305480957
9.5393648147583,58.77751159667969,8.217369079589844
7.025457382202148,57.91743087768555,8.051141738891602
3.748499631881714,46.447296142578125,6.430530071258545
1.8480050563812256,45.77667999267578,6.322293281555176
0.007491588592529297,45.12113952636719,6.226683616638184
-1.7807796001434326,44.47819519042969,6.142874240875244
-3.5238444805145264,43.84555435180664,6.070164680480957
-5.228203296661377,43.22107696533203,6.007955551147461
-7.55426025390625,46.64432907104492,6.520751953125
-10.528672218322754,51.74233627319336,7.286717414855957
-12.546504020690918,51.06517791748047,7.256533622741699
-14.518436431884766,50.27994155883789,7.222051620483398
-16.451290130615234,49.43018341064453,7.189187049865723
-17.865333557128906,47.25265121459961,6.971324920654297
-20.153850555419922,47.449745178222656,7.114198684692383
-22.12862777709961,46.781455993652344,7.1416168212890625
-23.992107391357422,45.85875701904297,7.142241477966309
-25.84716796875,44.913909912109375,7.151145935058594
-27.69713020324707,43.945068359375,7.168394088745117
-29.545499801635742,42.95027160644531,7.194064140319824
-31.395734786987305,41.927330017089844,7.228303909301758
-33.24394607543945,40.86494827270508,7.269693851470947
-34.77704620361328,39.40402603149414,7.252669334411621
-36.28983688354492,37.931236267089844,7.244275093078613
-37.82523727416992,36.48234176635742,7.2521281242370605
-39.357391357421875,35.019874572753906,7.270074844360352
-32.250244140625,26.453107833862305,5.756145000457764
-32.4395866394043,24.49641990661621,5.609631061553955
-32.6123161315918,22.628753662109375,5.477756500244141
-46.043601989746094,29.28041648864746,7.529937744140625
-37.783363342285156,21.94735336303711,6.029900074005127
-36.87653350830078,19.48310089111328,5.755525588989258
-36.04777145385742,17.229995727539062,5.513606548309326
-35.18770217895508,15.113824844360352,5.284852504730225
-36.30371856689453,13.89371395111084,5.364243030548096
-38.36419677734375,12.94079875946045,5.587312698364258
-40.5992317199707,11.901090621948242,5.838420867919922
-43.03986740112305,10.759363174438477,6.1222453117370605
-43.72011947631836,9.080467224121094,6.162103652954102
-43.0104866027832,7.144265174865723,6.016740798950195
-42.33289337158203,5.294417381286621,5.887418270111084
-41.77722930908203,3.5276036262512207,5.7857441902160645
-45.04449462890625,1.9858174324035645,6.222142219543457
-48.793067932128906,0.18908095359802246,6.733457088470459
-77.95209503173828,-2.831376552581787,10.764422416687012
-76.8357162475586,-5.888509750366211,10.634359359741211
-84.75325012207031,-9.933305740356445,11.775920867919922
-84.80937194824219,-13.4126558303833,11.849080085754395
-95.02739715576172,-22.974502563476562,13.49151611328125
80.57107543945312,52.89390182495117,14.117866516113281
74.657958984375,53.42353439331055,13.447235107421875
73.32888793945312,57.062137603759766,13.61005973815918
66.3542709350586,56.05609893798828,12.723552703857422
42.5248908996582,38.95784378051758,8.447729110717773
54.290374755859375,53.90439987182617,11.206445693969727
52.253761291503906,56.227508544921875,11.243585586547852
57.91243362426758,67.56786346435547,13.035152435302734
50.160301208496094,63.51930236816406,11.855489730834961
48.00173568725586,66.07986450195312,11.963541030883789
43.571678161621094,65.34989166259766,11.504940032958984
39.434425354003906,64.62700653076172,11.089609146118164
30.452621459960938,54.738033294677734,9.17523193359375
31.904172897338867,63.1967658996582,10.369705200195312
28.45606803894043,62.486846923828125,10.05737590789795
25.18877410888672,61.77886199951172,9.772537231445312
22.083171844482422,61.071720123291016,9.51254653930664
19.122604370117188,60.36444091796875,9.275146484375
16.292308807373047,59.65604782104492,9.058335304260254
13.383941650390625,58.097164154052734,8.732879638671875
10.771397590637207,57.16605758666992,8.520939826965332
8.27838134765625,56.27526092529297,8.331827163696289
5.959335803985596,56.07556915283203,8.260114669799805
3.0233378410339355,45.9552001953125,6.746005535125732
1.1558972597122192,45.29779815673828,6.63731575012207
-0.6550889015197754,44.65390396118164,6.541539192199707
-2.4170312881469727,44.021156311035156,6.457868576049805
-4.136632919311523,43.397377014160156,6.3856000900268555
-5.820074081420898,42.78056335449219,6.324155807495117
-8.89587116241455,50.197513580322266,7.4674224853515625
-10.836594581604004,49.48649215698242,7.420468330383301
-12.755655288696289,48.78135681152344,7.385661602020264
-14.659294128417969,48.07986068725586,7.362733840942383
-12.585179328918457,36.02132797241211,5.589115142822266
-18.644784927368164,47.1859130859375,7.431731224060059
-20.489065170288086,46.317073822021484,7.418636322021484
-22.429035186767578,45.651832580566406,7.45048713684082
-24.257064819335938,44.736629486083984,7.4542622566223145
-26.0775203704834,43.79814910888672,7.466544151306152
-27.893579483032227,42.83457946777344,7.487405300140381
-29.70854949951172,41.84395980834961,7.51695442199707
-31.52567481994629,40.82420349121094,7.555340766906738
-33.26582717895508,39.674705505371094,7.583989143371582
-34.767494201660156,38.234580993652344,7.569780349731445
-31.706748962402344,32.17153549194336,6.616427421569824
-37.77962112426758,35.37164306640625,7.580814838409424
-39.2824821472168,33.922576904296875,7.602575778961182
-32.030670166015625,25.487613677978516,5.995933532714844
-32.21921920776367,23.587732315063477,5.848983287811279
-32.39125061035156,21.770675659179688,5.716709613800049
-38.42252731323242,23.640840530395508,6.608076095581055
-37.457489013671875,21.021162033081055,6.2916765213012695
-36.579776763916016,18.637466430664062,6.013535499572754
-35.77559280395508,16.452407836914062,5.767930030822754
-34.84698486328125,14.358938217163086,5.52069091796875
-36.787776947021484,13.456720352172852,5.737820625305176
-38.88312530517578,12.476469039916992,5.981561660766602
-41.15950012207031,11.40502643585205,6.256157875061035
-44.24803924560547,10.366430282592773,6.656882286071777
-43.470733642578125,8.357950210571289,6.48415470123291
-42.772804260253906,6.454244613647461,6.3362274169921875
-42.10539245605469,4.632653713226318,6.204758644104004
-42.52235794067383,2.9559290409088135,6.243643760681152
-45.86326599121094,1.3405482769012451,6.720853328704834
-76.873046875,-0.8425841331481934,11.260921478271484
-77.56328582763672,-3.9702327251434326,11.376227378845215
-77.98868560791016,-7.142068862915039,11.471458435058594
-85.55150604248047,-11.315807342529297,12.640600204467773
-84.81237030029297,-14.706027030944824,12.608560562133789
-61.701255798339844,-13.271759986877441,9.244619369506836
78.0257339477539,54.101417541503906,13.907724380493164
73.82341766357422,55.70851135253906,13.546951293945312
72.93226623535156,59.78184509277344,13.813302993774414
61.047969818115234,54.28362274169922,11.966102600097656
55.01920700073242,53.030517578125,11.193251609802246
53.01630401611328,55.37732696533203,11.22963809967041
59.92086410522461,67.8476333618164,13.259172439575195
50.59806823730469,62.155174255371094,11.739707946777344
49.71934127807617,66.35147857666016,12.144937515258789
45.17119216918945,65.61849212646484,11.668935775756836
40.930179595947266,64.8931655883789,11.238249778747559
36.19804763793945,62.852081298828125,10.624168395996094
33.227291107177734,63.45960235595703,10.49256420135498
29.70700454711914,62.748680114746094,10.169336318969727
24.921875,58.62134552001953,9.330531120300293
23.212053298950195,61.332759857177734,9.605796813964844
20.199796676635742,60.62567138671875,9.360298156738281
17.322978973388672,59.917789459228516,9.136098861694336
14.382135391235352,58.452293395996094,8.817365646362305
11.754461288452148,57.6680908203125,8.62082290649414
9.185929298400879,56.59981918334961,8.399131774902344
6.760324478149414,55.73167037963867,8.2233247756958
3.7286911010742188,46.20184326171875,6.789579391479492
1.8383967876434326,45.53882598876953,6.675893783569336
0.0074481964111328125,44.890220642089844,6.575453758239746
-1.7717907428741455,44.25360870361328,6.487398147583008
-3.50626277923584,43.62677001953125,6.41099214553833
-5.202373027801514,43.007606506347656,6.345615386962891
-7.541467666625977,46.565250396728516,6.909681797027588
-10.122909545898438,49.74820327758789,7.436373233795166
-12.341126441955566,50.22927474975586,7.576321601867676
-13.957873344421387,48.33856964111328,7.369833946228027
-15.854907035827637,47.63822937011719,7.354300498962402
-17.746339797973633,46.93793487548828,7.3503899574279785
-19.809965133666992,46.640106201171875,7.42248010635376
-21.644926071166992,45.75888442993164,7.414729595184326
-23.583192825317383,45.07715606689453,7.451876640319824
-25.406084060668945,44.147457122802734,7.4610185623168945
-27.223371505737305,43.193389892578125,7.478700160980225
-29.03835105895996,42.2130126953125,7.505023002624512
-30.854297637939453,41.204261779785156,7.540124416351318
-32.67449188232422,40.16493225097656,7.584193229675293
-34.2154655456543,38.767738342285156,7.573991775512695
-35.705196380615234,37.32014846801758,7.565515518188477
-37.22236633300781,35.90088653564453,7.575044631958008
-38.72858810424805,34.46036911010742,7.59349250793457
-31.95654296875,26.212202072143555,6.054188251495361
-32.151611328125,24.27897071838379,5.901456356048584
-32.32955551147461,22.43255615234375,5.763924598693848
-45.05998229980469,28.654903411865234,7.821872711181641
-37.80278778076172,21.958646774291992,6.403694152832031
-36.894630432128906,19.492664337158203,6.1121673583984375
-36.06471633911133,17.23810577392578,5.855142116546631
-35.20359802246094,15.120656967163086,5.612113952636719
-36.0544319152832,13.79831314086914,5.654748916625977
-38.089900970458984,12.848272323608398,5.888216972351074
-40.29600143432617,11.812206268310547,6.150871753692627
-43.64884948730469,10.911619186401367,6.590371131896973
-43.73701477050781,9.083978652954102,6.543255805969238
-43.02671813964844,7.146961212158203,6.388846397399902
-42.34852600097656,5.296372413635254,6.251473903656006
-41.3652458190918,3.492816925048828,6.080683708190918
-44.57332992553711,1.9650485515594482,6.535377025604248
-48.241249084472656,0.18694210052490234,7.066357612609863
-77.97901153564453,-2.832362651824951,11.42977523803711
-76.86192321777344,-5.8905229568481445,11.2916259765625
-83.84735107421875,-9.82712173461914,12.365900039672852
-84.78795623779297,-13.409261703491211,12.573968887329102
-95.10552978515625,-22.993392944335938,14.332265853881836
79.46089935302734,52.165077209472656,14.731289863586426
74.63272094726562,53.40548324584961,14.222749710083008
73.76872253417969,57.4044189453125,14.486204147338867
64.62345123291016,54.59390640258789,13.110738754272461
42.58494567871094,39.012855529785156,8.950563430786133
51.59669494628906,51.229881286621094,11.268462181091309
49.65299987792969,53.428951263427734,11.303953170776367
47.62371826171875,55.56371307373047,11.341361999511719
50.000701904296875,63.317230224609375,12.503541946411133
46.71995544433594,64.31535339355469,12.319775581359863
42.4516487121582,63.6700553894043,11.859657287597656
37.114986419677734,60.825782775878906,11.042997360229492
30.54302978515625,54.90052032470703,9.73647689819336
31.163108825683594,61.72884750366211,10.716604232788086
27.814577102661133,61.078155517578125,10.401102066040039
24.636655807495117,60.42469787597656,10.112985610961914
21.611736297607422,59.76791000366211,9.849687576293945
18.72431755065918,59.10723114013672,9.608983039855957
15.960756301879883,58.4420280456543,9.388949394226074
13.3089599609375,57.77173614501953,9.18787956237793
10.758134841918945,57.09571838378906,9.004303932189941
8.29753303527832,56.40542221069336,8.835691452026367
5.915887355804443,55.666725158691406,8.67570972442627
3.0075032711029053,45.7145881652832,7.10009241104126
1.1499457359313965,45.06443786621094,6.986292839050293
-0.6517601013183594,44.427154541015625,6.885995864868164
-2.4049108028411865,43.80046081542969,6.798355579376221
-4.116125106811523,43.18223571777344,6.722653388977051
-5.791488170623779,42.57051467895508,6.658291339874268
-8.883565902709961,50.12804412841797,7.889812469482422
-10.821698188781738,49.41843032836914,7.840275287628174
-12.738207817077637,48.71458053588867,7.8035478591918945
-14.639293670654297,48.01425552368164,7.779356479644775
-12.61512565612793,36.10707092285156,5.927521705627441
-18.330852508544922,46.39141845703125,7.730591297149658
-20.144670486450195,45.53857421875,7.717194557189941
-22.052322387695312,44.88508605957031,7.750439643859863
-23.849456787109375,43.984893798828125,7.754294395446777
-25.638612747192383,43.060977935791016,7.7668609619140625
-27.422809600830078,42.11166763305664,7.788193225860596
-29.205223083496094,41.13502502441406,7.818404197692871
-30.988862991333008,40.12907028198242,7.85765266418457
-32.7352409362793,39.041893005371094,7.896090984344482
-34.21398162841797,37.62586212158203,7.881532669067383
-31.85296058654785,32.319889068603516,7.032656192779541
-37.1850700378418,34.81498336791992,7.894492149353027
-38.662513732910156,33.38721466064453,7.916802406311035
-31.743667602539062,25.25922966003418,6.287025451660156
-31.937532424926758,23.381513595581055,6.134294033050537
-32.114418029785156,21.584606170654297,5.9967498779296875
-38.442970275878906,23.65341567993164,6.9952569007873535
-37.47646713256836,21.031822204589844,6.660147666931152
-36.59749221801758,18.64649200439453,6.365577697753906
-35.79220962524414,16.460054397583008,6.105473518371582
-34.6143798828125,14.263091087341309,5.802060604095459
-36.532623291015625,13.36338996887207,6.0286688804626465
-38.60205078125,12.386286735534668,6.28291654586792
-41.83831787109375,11.593135833740234,6.7283616065979
-44.265472412109375,10.370514869689941,7.045949459075928
-43.48743438720703,8.361161231994629,6.863056182861328
-42.78886032104492,6.456669807434082,6.706425666809082
-42.12086868286133,4.6343584060668945,6.567224025726318
-42.10062789916992,2.92661190032959,6.540436267852783
-45.37399673461914,1.3262498378753662,7.0349955558776855
-49.17276382446289,-0.5389723777770996,7.621172904968262
-77.59001159667969,-3.9716005325317383,12.040518760681152
-79.22067260742188,-7.2548933029174805,12.32886791229248
-85.58036804199219,-11.319633483886719,13.378625869750977
-87.65399169921875,-15.198752403259277,13.787172317504883
-67.19856262207031,-14.45421028137207,10.652517318725586
80.70486450195312,51.284820556640625,14.819214820861816
75.98062133789062,52.683372497558594,14.329090118408203
73.79828643798828,55.689544677734375,14.328181266784668
67.88658905029297,55.64594650268555,13.603767395019531
59.54805374145508,52.94990921020508,12.349419593811035
52.403465270996094,50.50931930541992,11.279748916625977
50.38069152832031,52.62434387207031,11.290621757507324
48.38282012939453,54.783206939697266,11.327325820922852
50.681976318359375,62.25825500488281,12.441544532775879
48.37212371826172,64.55359649658203,12.501510620117188
43.99394226074219,63.90834045410156,12.02430534362793
39.90184783935547,63.262786865234375,11.591653823852539
36.06228256225586,62.61636734008789,11.198503494262695
32.44655990600586,61.96852111816406,10.840595245361328
25.8552188873291,54.61275100708008,9.36440658569336
25.79127311706543,60.66630935668945,10.216346740722656
22.711759567260742,60.01082229614258,9.944154739379883
19.775306701660156,59.35165786743164,9.695356369018555
16.967487335205078,58.68818664550781,9.467897415161133
14.275737762451172,58.01985168457031,9.260005950927734
11.688812255859375,57.34602355957031,9.070131301879883
9.196680068969727,56.66606140136719,8.896919250488281
6.786651611328125,55.94874954223633,8.734395980834961
3.709040641784668,45.95838165283203,7.145719051361084
1.8288737535476685,45.302860260009766,7.02668571472168
0.0074187517166137695,44.661094665527344,6.921507835388184
-1.7628610134124756,44.03074645996094,6.82928466796875
-3.4888229370117188,43.409629821777344,6.749255180358887
-5.176748275756836,42.79572677612305,6.680765628814697
-7.528655052185059,46.48617172241211,7.298229694366455
-10.108963012695312,49.67964172363281,7.857055187225342
-12.130378723144531,49.371490478515625,7.879070281982422
-13.938806533813477,48.272544860839844,7.786843299865723
-15.83330249786377,47.57330322265625,7.77045202255249
-17.363943099975586,45.92650604248047,7.609347820281982
-19.476831436157227,45.85575866699219,7.721129417419434
-21.281295776367188,44.99014663696289,7.713204383850098
-23.187044143676758,44.31993103027344,7.751856803894043
-24.97878646850586,43.40495300292969,7.761205196380615
-26.764446258544922,42.465232849121094,7.779290199279785
-28.54712677001953,41.498931884765625,7.806208610534668
-30.329973220825195,40.5040283203125,7.842099666595459
-32.116024017333984,39.478450775146484,7.887148857116699
-33.67043685913086,38.15018844604492,7.8858561515808105
-35.1443977355957,36.7339973449707,7.878812789916992
-36.63703536987305,35.336326599121094,7.888577461242676
-38.11809158325195,33.91716003417969,7.9074907302856445
-31.667449951171875,25.975069046020508,6.3475565910339355
-31.868026733398438,24.0648193359375,6.188833236694336
-32.05098342895508,22.2392635345459,6.045848846435547
-41.88196563720703,26.633907318115234,7.692092418670654
-37.82228088378906,21.969970703125,6.778787612915039
-36.91278076171875,19.50225830078125,6.470034599304199
-36.08171844482422,17.246227264404297,6.197821140289307
-35.21955108642578,15.127513885498047,5.940468788146973
-35.807960510253906,13.703985214233398,5.941985607147217
-37.8188362121582,12.756839752197266,6.185567378997803
-40.702880859375,11.931489944458008,6.573507308959961
-43.91040802001953,10.977005004882812,7.014578819274902
-43.79785919189453,9.096631050109863,6.932579040527344
-43.04300308227539,7.149667739868164,6.762141704559326
-42.36421203613281,5.298333168029785,6.616689682006836
-41.16507339477539,3.4759163856506348,6.402406692504883
-44.110816955566406,1.94465970993042,6.842867851257324
-47.70047378540039,0.18483877182006836,7.392600059509277
-78.00601196289062,-2.8333377838134766,12.097223281860352
-76.88822174072266,-5.892538070678711,11.95095443725586
-83.14797973632812,-9.745157241821289,12.974349975585938
-84.81641387939453,-13.413762092590332,13.308083534240723
81.7074203491211,49.06013107299805,15.582358360290527
78.37812805175781,51.454246520996094,15.329554557800293
74.6074447631836,53.387386322021484,14.99974250793457
73.74344635009766,57.38473892211914,15.277524948120117
62.97651672363281,53.202579498291016,13.479166030883789
55.33252716064453,50.69112777709961,12.269366264343262
49.1517219543457,48.802284240722656,11.324752807617188
47.29306411743164,50.88956069946289,11.358720779418945
45.35309982299805,52.914527893066406,11.394521713256836
49.907318115234375,63.19898986816406,13.16644287109375
45.501827239990234,62.638450622558594,12.65832805633545
41.38508224487305,62.070404052734375,12.197444915771484
36.93444061279297,60.52989959716797,11.593559265136719
30.634201049804688,55.06439208984375,10.30251693725586
30.45394515991211,60.32405471801758,11.048587799072266
27.199783325195312,59.728172302246094,10.730500221252441
24.106884002685547,59.12535858154297,10.439655303955078
21.15884780883789,58.51544952392578,10.173545837402344
18.34132957458496,57.89826965332031,9.930009841918945
15.641613006591797,57.27351379394531,9.707164764404297
13.048444747924805,56.640869140625,9.503357887268066
10.551668167114258,55.9999885559082,9.317118644714355
8.142335891723633,55.35043716430664,9.147202491760254
5.812276840209961,54.6917724609375,8.99246597290039
2.9917991161346436,45.47587585449219,7.4513959884643555
1.144038200378418,44.832862854003906,7.332577705383301
-0.6484659910202026,44.202117919921875,7.227840423583984
-2.3928780555725098,43.5814094543457,7.136310577392578
-4.095765113830566,42.96866989135742,7.057237148284912
-5.763120174407959,42.361976623535156,6.990001201629639
-8.819517135620117,49.76668930053711,8.263650894165039
-10.735262870788574,49.02372360229492,8.205317497253418
-12.617901802062988,48.25453186035156,8.15489673614502
-14.47303581237793,47.46893310546875,8.113912582397461
-12.645305633544922,36.193424224853516,6.268411636352539
-18.02655029296875,45.621299743652344,8.020280838012695
-19.810829162597656,44.783878326416016,8.006621360778809
-21.6871337890625,44.14181137084961,8.041210174560547
-23.45433807373047,43.25615692138672,8.045146942138672
-25.213153839111328,42.346412658691406,8.057967185974121
-26.966520309448242,41.41096496582031,8.079730987548828
-28.71741485595703,40.44795608520508,8.110554695129395
-30.46870994567871,39.45549011230469,8.15058708190918
-32.219993591308594,38.427398681640625,8.1991605758667
-33.67644119262695,37.03471755981445,8.184285163879395
-32.00090408325195,32.470008850097656,7.453822135925293
-36.607479095458984,34.27421188354492,8.19922161102295
-31.242782592773438,26.9798583984375,6.749262809753418
-31.461044311523438,25.034339904785156,6.573678970336914
-31.660032272338867,23.178354263305664,6.415369987487793
-31.841585159301758,21.40123176574707,6.272742748260498
-38.4634895324707,23.666048049926758,7.383853912353516
-37.49550247192383,21.04250144958496,7.02994441986084
-36.615257263183594,18.655546188354492,6.718862056732178
-35.80887985229492,16.467716217041016,6.444197177886963
-34.40742874145508,14.177814483642578,6.084506511688232
-36.280338287353516,13.271106719970703,6.316250324249268
-39.092552185058594,12.54368782043457,6.71262264251709
-42.08081817626953,11.660327911376953,7.13947868347168
-44.282962799072266,10.374608993530273,7.436325550079346
-43.547828674316406,8.372779846191406,7.250489234924316
-42.80496597290039,6.4590959548950195,7.0778584480285645
-42.13640213012695,4.6360650062561035,6.930894374847412
-41.686126708984375,2.8977975845336914,6.832145690917969
-44.89385223388672,1.3122148513793945,7.343294143676758
-48.609535217285156,-0.5327935218811035,7.948151588439941
-77.61683654785156,-3.9729790687561035,12.706987380981445
-80.49553680419922,-7.371641635894775,13.216117858886719
-85.60932922363281,-11.32345962524414,14.119057655334473
-89.56596374511719,-15.530279159545898,14.862573623657227
-67.2718505859375,-14.469974517822266,11.250533103942871
-77.12864685058594,-41.45125198364258,14.31634521484375
79.5986557006836,50.581878662109375,15.419797897338867
75.09015655517578,52.065940856933594,14.939844131469727
74.24101257324219,56.02363204956055,15.206729888916016
66.0931167602539,54.175872802734375,13.97265338897705
57.92969512939453,51.510841369628906,12.674407005310059
51.24673843383789,49.39440155029297,11.63731575012207
47.988861083984375,50.12598419189453,11.345966339111328
40.16237258911133,45.47533416748047,9.919793128967285
50.79900360107422,62.40199279785156,13.155982971191406
38.16678237915039,50.9343147277832,10.406394958496094
42.87369918823242,62.28098678588867,12.362468719482422
37.56041717529297,59.550537109375,11.511451721191406
35.205543518066406,61.12879943847656,11.533615112304688
31.699817657470703,60.542327880859375,11.173476219177246
25.89963722229004,54.70659637451172,9.896306037902832
25.23110580444336,59.34873962402344,10.544029235839844
22.23137092590332,58.741485595703125,10.269052505493164
19.367263793945312,58.127010345458984,10.017428398132324
16.625438690185547,57.505088806152344,9.787145614624023
13.99415111541748,56.87538528442383,9.57649040222168
11.46289348602295,56.23759078979492,9.383922576904297
9.022253036499023,55.5912971496582,9.208112716674805
6.663809776306152,54.93606185913086,9.047887802124023
3.6895551681518555,45.716861724853516,7.499027252197266
1.8194130659103394,45.068721771240234,7.374752998352051
0.007380485534667969,44.433712005615234,7.2649312019348145
-1.7540090084075928,43.809547424316406,7.168614864349365
-3.4714882373809814,43.194095611572266,7.085024833679199
-5.1513142585754395,42.585384368896484,7.013482093811035
-7.515850067138672,46.40715789794922,7.68644905090332
-10.032468795776367,49.30378341674805,8.22636890411377
-11.926185607910156,48.54039001464844,8.172399520874023
-13.791078567504883,47.76096725463867,8.127957344055176
-15.630671501159668,46.96449279785156,8.092813491821289
-17.083906173706055,45.185813903808594,7.898299217224121
-19.153894424438477,45.09544372558594,8.010629653930664
-20.928800582885742,44.24492645263672,8.002547264099121
-22.802988052368164,43.58586120605469,8.042662620544434
-24.564577102661133,42.685203552246094,8.052196502685547
-26.319602966308594,41.759437561035156,8.07065200805664
-28.071041107177734,40.80685043334961,8.098111152648926
-29.821863174438477,39.82549285888672,8.13471794128418
-31.574968338012695,38.81334686279297,8.180665969848633
-33.141151428222656,37.550498962402344,8.188698768615723
-34.599578857421875,36.16453170776367,8.183189392089844
-36.06837463378906,34.78784942626953,8.193177223205566
-37.525054931640625,33.38947677612305,8.212510108947754
-31.38280487060547,25.741600036621094,6.636402606964111
-31.58868408203125,23.8538818359375,6.471911907196045
-31.776473999023438,22.048789978027344,6.323668479919434
-42.05351638793945,26.743000030517578,8.14830207824707
-37.841835021972656,21.981319427490234,7.1552324295043945
-36.93100357055664,19.511886596679688,6.829174518585205
-36.09877395629883,17.254383087158203,6.54171895980835
-35.333106994628906,15.176290512084961,6.287322521209717
-35.5642204284668,13.610698699951172,6.22605037689209
-37.55092239379883,12.666465759277344,6.479465484619141
-40.93334197998047,11.999041557312012,6.974231719970703
-44.175811767578125,11.043347358703613,7.445023536682129
-43.814884185791016,9.100165367126465,7.316629409790039
-43.05934143066406,7.152383327484131,7.136679649353027
-42.37994384765625,5.300302982330322,6.983118534088135
-41.72862243652344,3.5235044956207275,6.846926689147949
-43.65665817260742,1.9246346950531006,7.144811153411865
-47.170326232910156,0.18278980255126953,7.712419509887695
-76.00993347167969,-2.7608351707458496,12.435842514038086
-76.91459655761719,-5.894559860229492,12.612438201904297
-82.26690673828125,-9.641897201538086,13.542730331420898
-84.84496307373047,-13.418275833129883,14.04458999633789
80.58814239501953,48.38808822631836,16.172134399414062
77.3216323852539,50.760684967041016,15.913299560546875
75.05513000488281,53.70774841308594,15.878398895263672
73.71810150146484,57.36501693725586,16.07045555114746
61.40729904174805,51.87690353393555,13.83021068572998
53.0969123840332,48.64304733276367,12.38897705078125
48.032440185546875,47.69096755981445,11.645256042480469
46.63284683227539,50.179134368896484,11.785512924194336
53.13490295410156,61.99378204345703,14.047318458557129
48.58607864379883,61.52586364746094,13.487776756286621
44.342498779296875,61.04252624511719,12.980524063110352
40.36811828613281,60.54511642456055,12.519527435302734
36.63230514526367,60.03474426269531,12.099682807922363
33.10866928100586,59.51222610473633,11.716631889343262
29.774471282958984,58.97817611694336,11.366644859313965
26.610050201416016,58.433143615722656,11.046493530273438
23.59804916381836,57.877403259277344,10.753396987915039
20.723407745361328,57.31122589111328,10.484933853149414
17.972736358642578,56.73468017578125,10.238996505737305
15.334192276000977,56.147804260253906,10.013731002807617
12.797258377075195,55.55052185058594,9.80752944946289
10.352462768554688,54.94270324707031,9.618963241577148
7.991352081298828,54.324119567871094,9.446786880493164
5.706295967102051,53.69450378417969,9.289902687072754
2.976208448410034,45.23899459838867,7.799985885620117
1.1381690502166748,44.60304260253906,7.6762495040893555
-0.6451901197433472,43.9787483215332,7.567159175872803
-2.380948781967163,43.363948822021484,7.471810340881348
-4.075557708740234,42.75663757324219,7.38942813873291
-5.734948635101318,42.15491485595703,7.319367408752441
-8.673364639282227,48.94198989868164,8.551435470581055
-10.556352615356445,48.20675277709961,8.490269660949707
-12.408899307250977,47.45524978637695,8.438957214355469
-14.234489440917969,46.686553955078125,8.397246360778809
-12.675705909729004,36.28044128417969,6.611882209777832
-17.818038940429688,45.093597412109375,8.341818809509277
-19.48700523376465,44.05184555053711,8.287355422973633
-21.332908630371094,43.42081832885742,8.323264122009277
-23.071056365966797,42.54928207397461,8.327269554138184
-24.800495147705078,41.6533317565918,8.34032154083252
-26.52399253845215,40.731380462646484,8.362481117248535
-28.24437713623047,39.78169250488281,8.393855094909668
-29.964384078979492,38.80242156982422,8.434600830078125
-31.68684196472168,37.79151916503906,8.484922409057617
-33.15412902832031,36.460330963134766,8.478458404541016
-32.15065002441406,32.621944427490234,7.880084991455078
-36.04604721069336,33.748565673828125,8.495427131652832
-37.50664520263672,32.389041900634766,8.525882720947266
-31.182653427124023,24.81282615661621,6.856033802032471
-31.386571884155273,22.978153228759766,6.692351341247559
-31.57261848449707,21.220455169677734,6.544824600219727
-38.48408126831055,23.6787109375,7.773911476135254
-37.514617919921875,21.05322265625,7.401124000549316
-36.63310241699219,18.664630889892578,7.073458671569824
-35.82561492919922,16.475412368774414,6.784160137176514
-35.08095169067383,14.455343246459961,6.527824401855469
-36.14881896972656,13.22299861907959,6.622267723083496
-39.30734634399414,12.612607955932617,7.1022539138793945
-42.32681655883789,11.728492736816406,7.556527137756348
-44.300514221191406,10.378718376159668,7.828073978424072
-43.56465530395508,8.376012802124023,7.632373332977295
-42.55427932739258,6.421280384063721,7.404149532318115
-42.151981353759766,4.637781620025635,7.2958221435546875
-41.22331619262695,2.8656139373779297,7.109401702880859
-44.422489166259766,1.2984352111816406,7.645949840545654
-48.05759048461914,-0.5267386436462402,8.268586158752441
-75.50812530517578,-3.8650360107421875,13.007830619812012
-79.75251007080078,-7.303599834442139,13.77846908569336
-83.29845428466797,-11.01780891418457,14.4559326171875
-89.94242095947266,-15.595555305480957,15.705073356628418
-72.62596893310547,-15.621631622314453,12.780743598937988
-76.97817993164062,-41.370384216308594,15.035179138183594
81.812744140625,47.48651123046875,16.274703979492188
78.51949310302734,49.8961067199707,16.00571060180664
75.06476593017578,52.04833984375,15.71533203125
74.21561431884766,56.00448226928711,15.996015548706055
43.6842155456543,35.80751419067383,9.717885971069336
54.0911865234375,48.09765625,12.453097343444824
50.13701629638672,48.324790954589844,11.980354309082031
47.153507232666016,49.25343322753906,11.731123924255371
40.147430419921875,45.45841598510742,10.434354782104492
50.22794723510742,61.70051574707031,13.687926292419434
38.12535095214844,50.879066467285156,10.93838119506836
41.80622100830078,60.73032760620117,12.684691429138184
37.37938690185547,59.26352310180664,12.054697036743164
34.386417388916016,59.70650863647461,11.854022979736328
29.66297149658203,56.652244567871094,11.00199031829834
25.944345474243164,54.8010139465332,10.43149185180664
24.6933536529541,58.083824157714844,10.858620643615723
21.769628524780273,57.52146530151367,10.58132553100586
18.974674224853516,56.948753356933594,10.32729721069336
16.296022415161133,56.36567687988281,10.094606399536133
13.722710609436035,55.77225875854492,9.881535530090332
11.244937896728516,55.16835021972656,9.686614990234375
8.853866577148438,54.55377197265625,9.508526802062988
6.541563034057617,53.92827224731445,9.346109390258789
3.6702091693878174,45.47720718383789,7.849588871002197
1.8100440502166748,44.83637237548828,7.720178127288818
0.00734710693359375,44.208030700683594,7.605792045593262
-1.745208740234375,43.589969635009766,7.505463123321533
-3.4542980194091797,42.98011779785156,7.418375492095947
-5.126047611236572,42.37653350830078,7.343835830688477
-7.523044586181641,46.45159149169922,8.095915794372559
-9.864850044250488,48.48006820678711,8.511690139770508
-11.728218078613281,47.734676361083984,8.456771850585938
-13.56337833404541,46.972434997558594,8.411540985107422
-15.373699188232422,46.19239807128906,8.375772476196289
-16.812036514282227,44.46672058105469,8.178826332092285
-18.84064292907715,44.35794448852539,8.291443824768066
-20.586864471435547,43.52205276489258,8.283214569091797
-22.430479049682617,42.87382125854492,8.324743270874023
-24.162803649902344,41.987064361572266,8.334447860717773
-25.888166427612305,41.07490921020508,8.353236198425293
-27.609363555908203,40.13569259643555,8.381189346313477
-29.329200744628906,39.167564392089844,8.418453216552734
-31.050432205200195,38.168575286865234,8.465213775634766
-32.62687301635742,36.96778869628906,8.48295783996582
-31.656818389892578,33.088661193847656,7.878505706787109
-35.5156135559082,34.25470733642578,8.489256858825684
-36.98921203613281,32.91269302368164,8.518315315246582
-31.10249137878418,25.51166534423828,6.920862674713135
-31.31345558166504,23.64604377746582,6.750821590423584
-31.50589942932129,21.861045837402344,6.59750509262085
-31.681507110595703,20.14714813232422,6.459438800811768
-37.86146926879883,21.992717742919922,7.5330939292907715
-36.94928741455078,19.52153968811035,7.189646244049072
-36.115901947021484,17.2625675201416,6.886876583099365
-35.349212646484375,15.183201789855957,6.618932247161865
-35.32310485839844,13.5184326171875,6.507028102874756
-38.28329849243164,12.913520812988281,6.951082229614258
-41.16704559326172,12.067558288574219,7.380629539489746
-44.44517135620117,11.110685348510742,7.881897926330566
-43.831974029541016,9.103715896606445,7.702027320861816
-43.118953704833984,7.162290096282959,7.520061016082764
-42.39573669433594,5.302274703979492,7.350818634033203
-41.74386215209961,3.524782180786133,7.207398891448975
-43.21055221557617,1.9049673080444336,7.4413957595825195
-46.65043258666992,0.18077707290649414,8.026052474975586
-75.34684753417969,-2.736750602722168,12.971624374389648
-76.9410629272461,-5.896583557128906,13.27617359161377
-81.91480255126953,-9.60063362121582,14.189529418945312
-84.87360382080078,-13.422809600830078,14.783591270446777
-62.02504348754883,-12.381660461425781,10.881664276123047
79.49604034423828,47.73235321044922,16.747589111328125
76.00959777832031,49.89935302734375,16.422456741333008
75.02959442138672,53.6894645690918,16.66362190246582
73.69271087646484,57.34526824951172,16.865110397338867
55.12500762939453,46.5695915222168,13.033713340759277
52.45661926269531,48.05646896362305,12.84922981262207
48.04067611694336,47.699134826660156,12.227401733398438
46.64094543457031,50.18785095214844,12.374698638916016
45.5968017578125,53.19890213012695,12.654897689819336
47.32951354980469,59.93461608886719,13.79339599609375
43.23773193359375,59.52167892456055,13.287569046020508
38.24158477783203,57.35568618774414,12.450758934020996
35.78011703491211,58.63813400268555,12.406871795654297
32.362274169921875,58.17061233520508,12.02294635772705
29.122865676879883,57.68745803833008,11.671666145324707
26.043737411499023,57.1895866394043,11.34992504119873
23.108903884887695,56.677696228027344,11.055018424987793
20.304367065429688,56.15229415893555,10.784610748291016
17.617645263671875,55.613800048828125,10.536632537841797
15.037761688232422,55.06244659423828,10.30930233001709
12.554891586303711,54.49840545654297,10.101038932800293
10.16009521484375,53.92172622680664,9.910439491271973
7.845465660095215,53.33238220214844,9.736285209655762
5.6038103103637695,52.730247497558594,9.577492713928223
3.0034403800964355,45.652896881103516,8.263422966003418
1.1471375226974487,44.954158782958984,8.122034072875977
-0.6434404850006104,43.85961151123047,7.922556400299072
-2.369084119796753,43.14804458618164,7.804920196533203
-4.055489540100098,42.546085357666016,7.719294548034668
-5.706976890563965,41.94927978515625,7.64646577835083
-8.529786109924316,48.13179016113281,8.828766822814941
-10.382830619812012,47.41434860229492,8.766654968261719
-12.206132888793945,46.679840087890625,8.7145357131958
-14.003018379211426,45.927406311035156,8.672164916992188
-12.706340789794922,36.36812973022461,6.95799446105957
-17.530179977416992,44.3651123046875,8.615851402282715
-19.172714233398438,43.34135818481445,8.559829711914062
-20.989107131958008,42.72102355957031,8.59701919555664
-22.699058532714844,41.86321258544922,8.601099014282227
-24.399995803833008,40.98066711425781,8.614358901977539
-26.094528198242188,40.07189178466797,8.636876106262207
-27.78538703918457,39.13520431518555,8.66874885559082
-29.475114822387695,38.168846130371094,8.710142135620117
-31.16642189025879,37.17082977294922,8.761251449584961
-32.649375915527344,35.905235290527344,8.765254020690918
-32.30221939086914,32.7757453918457,8.311592102050781
-35.537113189697266,33.27206039428711,8.792651176452637
-36.9365234375,31.8967342376709,8.814499855041504
-30.908370971679688,24.594573974609375,7.134224891662598
-31.117029190063477,22.78081703186035,6.96536111831665
-31.307405471801758,21.042200088500977,6.813107490539551
-31.481103897094727,19.36989402770996,6.676048278808594
-37.53380584716797,21.06399154663086,7.773744106292725
-36.65100860595703,18.673763275146484,7.429417610168457
-35.842411041259766,16.48314094543457,7.125420570373535
-35.096778869628906,14.461867332458496,6.8560662269592285
-36.824153900146484,13.470036506652832,7.081996440887451
-39.52513885498047,12.682486534118652,7.497329235076904
-42.576416015625,11.797658920288086,7.979701519012451
-44.31813430786133,10.382861137390137,8.221259117126465
-43.58155059814453,8.379266738891602,8.015649795532227
-42.88033676147461,6.470474720001221,7.832504749298096
-42.16762161254883,4.639500617980957,7.662065505981445
-40.9787712097168,2.848613739013672,7.419243812561035
-43.95961380004883,1.2849078178405762,7.943151950836182
-47.51652908325195,-0.5208134651184082,8.582709312438965
-74.41858673095703,-3.8092689514160156,13.458700180053711
-77.52376556396484,-7.099496841430664,14.060539245605469
-80.74877166748047,-10.68055248260498,14.71143913269043
-87.35389709472656,-15.146718978881836,16.01284408569336
-72.81169128417969,-15.661575317382812,13.451662063598633
80.69711303710938,46.83896255493164,16.85236167907715
77.46623229980469,49.226802825927734,16.57755470275879
75.5152359008789,52.36069107055664,16.59711456298828
74.19017028808594,55.98528289794922,16.787023544311523
43.669036865234375,35.795074462890625,10.198381423950195
53.435569763183594,47.51468276977539,12.914928436279297
49.071372985839844,47.29766845703125,12.309768676757812
47.16164779663086,49.26194381713867,12.317574501037598
40.13245391845703,45.44146728515625,10.950004577636719
48.91014099121094,60.08169174194336,13.992707252502441
38.08391189575195,50.823760986328125,11.470743179321289
40.787803649902344,59.25090789794922,12.992115020751953
37.09117126464844,58.80658721923828,12.557565689086914
33.602352142333984,58.345088958740234,12.160715103149414
29.573272705078125,56.48091125488281,11.515066146850586
25.989337921142578,54.89603805541992,10.970067024230957
24.17658233642578,56.8682975769043,11.160924911499023
21.32544708251953,56.34782409667969,10.881726264953613
18.59665298461914,55.81413269042969,10.625700950622559
15.978520393371582,55.267486572265625,10.39094352722168
13.460886001586914,54.70812225341797,10.17580509185791
11.034527778625488,54.1361198425293,9.978828430175781
8.691201210021973,53.55146408081055,9.798739433288574
6.423386096954346,52.95407485961914,9.634390830993652
4.224360466003418,52.34376525878906,9.484798431396484
1.8250701427459717,45.20873260498047,8.172024726867676
0.007395029067993164,44.52777862548828,8.042383193969727
-1.7364740371704102,43.37195587158203,7.839902400970459
-3.4372236728668213,42.767635345458984,7.749385356903076
-5.100954532623291,42.16914367675781,7.671899318695068
-7.547406196594238,46.602012634277344,8.526693344116211
-9.702305793762207,47.68117904663086,8.788409233093262
-11.53618049621582,46.953060150146484,8.732638359069824
-13.342460632324219,46.20735168457031,8.686689376831055
-15.124343872070312,45.44315719604492,8.65035343170166
-16.547931671142578,43.76819610595703,8.451337814331055
-18.536636352539062,43.642181396484375,8.56397819519043
-20.25499725341797,42.82046890258789,8.555615425109863
-22.06890296936035,42.182735443115234,8.598523139953613
-23.772869110107422,41.30947494506836,8.608391761779785
-25.46945571899414,40.410579681396484,8.627479553222656
-27.16134262084961,39.484413146972656,8.6558837890625
-28.8511905670166,38.52922058105469,8.693740844726562
-30.541622161865234,37.543113708496094,8.741233825683594
-32.126914978027344,36.401309967041016,8.769026756286621
-31.729097366333008,33.16421890258789,8.289814949035645
-35.01042175292969,33.76744842529297,8.785326957702637
-36.42552947998047,32.4111328125,8.806347846984863
-30.82634925842285,25.285160064697266,7.20108699798584
-31.042211532592773,23.441211700439453,7.025692939758301
-31.239139556884766,21.675945281982422,6.8674798011779785
-31.4188232421875,19.9801025390625,6.724959373474121
-37.88117980957031,22.00417137145996,7.912437438964844
-36.967647552490234,19.53124237060547,7.551511764526367
-36.13309097290039,17.270784378051758,7.2333550453186035
-35.36538314819336,15.19015121459961,6.95180082321167
-35.902000427246094,13.739984512329102,6.943088531494141
-38.18940734863281,12.881853103637695,7.279417037963867
-41.079833984375,12.041986465454102,7.731842994689941
-44.54177474975586,11.134839057922363,8.292478561401367
-43.84912109375,9.107274055480957,8.088821411132812
-43.13542556762695,7.165027141571045,7.897648811340332
-42.411582946777344,5.304257392883301,7.719846725463867
-41.75916290283203,3.5260801315307617,7.5691752433776855
-42.772216796875,1.8856463432312012,7.732808589935303
-46.14043045043945,0.1788029670715332,8.333715438842773
-50.06281661987305,-1.8183789253234863,9.048057556152344
-74.66020965576172,-5.72178840637207,13.524287223815918
-79.52176666259766,-9.32015609741211,14.46113395690918
-84.90235137939453,-13.427355766296387,15.525219917297363
-62.07667922973633,-12.3919677734375,11.43319320678711
-95.4505844116211,-23.076807022094727,17.736467361450195
-49.439022064208984,-84.38909912109375,17.66496467590332
78.43002319335938,47.09225845336914,17.30931854248047
81.36947631835938,53.418052673339844,18.417142868041992
75.00398254394531,53.671146392822266,17.450674057006836
73.61663818359375,57.286067962646484,17.64947509765625
54.456878662109375,46.005165100097656,13.488487243652344
51.70242691040039,47.36552429199219,13.267183303833008
48.048946380615234,47.70734405517578,12.81149673461914
47.05338668823242,50.63168716430664,13.078227043151855
45.6048469543457,53.208282470703125,13.25947093963623
46.13278579711914,58.41917419433594,14.084447860717773
42.18357849121094,58.07052230834961,13.580543518066406
38.209388732910156,57.307395935058594,13.032295227050781
34.96427917480469,57.30112838745117,12.70094108581543
31.646724700927734,56.88439178466797,12.316614151000977
28.497344970703125,56.44839096069336,11.964483261108398
25.499439239501953,55.994384765625,11.641557693481445
22.63823699951172,55.52332305908203,11.345239639282227
19.900724411010742,55.036041259765625,11.073249816894531
