12.550161361694336,46.59375762939453,-3.0117504596710205
13.600316047668457,59.994049072265625,-3.8394808769226074
10.802630424499512,58.453609466552734,-3.7101199626922607
8.335563659667969,58.07259750366211,-3.6617014408111572
5.935669898986816,57.773292541503906,-3.6248583793640137
3.1303436756134033,50.26241683959961,-3.143162965774536
0.3585285544395447,16.28093147277832,-1.0164052248001099
-0.8528633713722229,46.94856262207031,-2.930734157562256
-2.6618077754974365,45.56932067871094,-2.849015951156616
-4.266171932220459,43.15912628173828,-2.706864356994629
-5.7259039878845215,41.01485824584961,-2.5847291946411133
-7.0687761306762695,39.09196853637695,-2.4794557094573975
-8.315690040588379,37.349388122558594,-2.3882055282592773
-8.17135238647461,30.809301376342773,-1.9894170761108398
-8.306594848632812,26.906635284423828,-1.7575587034225464
-9.433283805847168,26.699954986572266,-1.767401933670044
-12.29294204711914,30.795433044433594,-2.0695462226867676
-12.641053199768066,28.308242797851562,-1.9349899291992188
-12.684103965759277,25.590808868408203,-1.7826566696166992
-12.721931457519531,23.268293380737305,-1.65516197681427
-14.546195030212402,24.237815856933594,-1.7643043994903564
-13.5931978225708,20.715639114379883,-1.5464491844177246
-14.602789878845215,20.416261672973633,-1.5666612386703491
-15.855046272277832,20.383878707885742,-1.6117868423461914
-16.452863693237305,19.483930587768555,-1.5916450023651123
-16.82065773010254,18.368684768676758,-1.5545270442962646
-17.178319931030273,17.308752059936523,-1.5220427513122559
-16.21137237548828,15.072139739990234,-1.3815622329711914
-16.378887176513672,14.044435501098633,-1.3466320037841797
-17.416154861450195,13.759356498718262,-1.385314702987671
-19.383329391479492,14.08678150177002,-1.4955304861068726
-13.4028959274292,8.940461158752441,-1.0055619478225708
-20.646820068359375,12.604458808898926,-1.5098052024841309
-21.30158042907715,11.856766700744629,-1.5215986967086792
-20.903589248657227,10.55856990814209,-1.4616665840148926
-19.228418350219727,8.761459350585938,-1.3188326358795166
-23.192787170410156,9.462065696716309,-1.5634031295776367
-24.407751083374023,8.831610679626465,-1.6200443506240845
-26.98079490661621,8.553488731384277,-1.76659095287323
-30.3636531829834,8.299419403076172,-1.9646517038345337
-35.404579162597656,8.16417407989502,-2.2677478790283203
-43.30644607543945,8.16955852508545,-2.7506120204925537
-44.912593841552734,6.6167449951171875,-2.8334362506866455
-36.504188537597656,3.887354612350464,-2.2912559509277344
-37.25407028198242,2.458928346633911,-2.3302361965179443
-56.62353515625,1.4570964574813843,-3.535276412963867
-61.49885177612305,-0.888982892036438,-3.838796377182007
-67.37825775146484,-3.684971809387207,-4.211637020111084
-73.69425964355469,-7.0085601806640625,-4.620314121246338
-84.00482177734375,-11.410040855407715,-5.291234970092773
-95.43782806396484,-16.89214324951172,-6.049248695373535
-56.304080963134766,-12.316837310791016,-3.597266674041748
-76.7580337524414,-20.053590774536133,-4.95158052444458
-67.21883392333984,-20.478958129882812,-4.3857855796813965
-62.79452133178711,-21.924081802368164,-4.151270389556885
-30.19849395751953,-11.92498779296875,-2.0264430046081543
-27.464344024658203,-12.142229080200195,-1.8742132186889648
-25.117229461669922,-12.33356761932373,-1.7464690208435059
-23.073869705200195,-12.504712104797363,-1.6380221843719482
-21.26075553894043,-12.652532577514648,-1.5441720485687256
-20.52566909790039,-13.359919548034668,-1.5285589694976807
-19.70936393737793,-13.986992835998535,-1.5084253549575806
-21.325281143188477,-16.460742950439453,-1.6813874244689941
-21.264822006225586,-17.822038650512695,-1.7317146062850952
-20.722230911254883,-18.835054397583008,-1.7477830648422241
-24.108840942382812,-23.750324249267578,-2.112245559692383
-22.37948226928711,-23.892704010009766,-2.0432403087615967
-20.760839462280273,-24.030702590942383,-1.9820637702941895
-21.30918312072754,-17.48123550415039,-1.4904179573059082
-21.246498107910156,-18.907581329345703,-1.5379581451416016
-24.1018123626709,-23.249370574951172,-1.81084144115448
-22.464717864990234,-23.48408317565918,-1.757358193397522
-20.85435676574707,-23.63225555419922,-1.7043302059173584
-25.274213790893555,-31.07256507873535,-2.1658871173858643
-23.636201858520508,-31.569414138793945,-2.1325597763061523
7.269100189208984,-8.928175926208496,-0.6225683689117432
11.165266036987305,-9.150762557983398,-0.7806240320205688
15.684306144714355,-9.102177619934082,-0.9805996417999268
22.766937255859375,-8.702589988708496,-1.3179908990859985
58.419960021972656,30.318151473999023,-3.5591180324554443
57.90105438232422,36.226158142089844,-3.693297863006592
28.961292266845703,21.537506103515625,-1.9516552686691284
25.90398597717285,20.931119918823242,-1.80088210105896
23.31368064880371,20.43934440612793,-1.676573395729065
21.03499412536621,19.99192237854004,-1.569237232208252
19.030120849609375,19.60047149658203,-1.4772636890411377
17.24679946899414,19.254369735717773,-1.3977898359298706
15.645051956176758,18.945497512817383,-1.3286319971084595
14.45933723449707,19.01678466796875,-1.2918213605880737
13.212285041809082,18.907573699951172,-1.2473115921020508
11.96337604522705,18.67576026916504,-1.1993207931518555
12.085210800170898,20.647682189941406,-1.2937071323394775
11.556550979614258,21.699565887451172,-1.3294289112091064
12.936456680297852,26.83656883239746,-1.6109857559204102
6.407315254211426,14.782394409179688,-0.8712121248245239
12.87417221069336,33.30929183959961,-1.931044101715088
12.739436149597168,37.35884094238281,-2.1343934535980225
12.678915023803711,42.72874069213867,-2.41011905670166
14.800418853759766,58.38369369506836,-3.256951093673706
12.100020408630371,57.30605697631836,-3.167137622833252
9.54397201538086,56.304935455322266,-3.088106393814087
6.473556995391846,50.40671157836914,-2.7481210231781006
4.4079484939575195,50.22167205810547,-2.7261712551116943
2.301522731781006,48.55625534057617,-2.6286206245422363
0.16792231798171997,23.380714416503906,-1.264339566230774
-1.4275928735733032,43.244544982910156,-2.3397114276885986
-3.0089306831359863,41.042762756347656,-2.225332736968994
-4.448266983032227,39.070945739746094,-2.126398801803589
-5.772237300872803,37.29739761352539,-2.0408565998077393
-7.000950813293457,35.68509292602539,-1.966445803642273
-8.15087890625,34.20863342285156,-1.9016079902648926
-8.143198013305664,28.96222496032715,-1.6268513202667236
-8.686236381530762,26.723310470581055,-1.5194766521453857
-10.935873985290527,29.54978370666504,-1.7038112878799438
-11.858723640441895,28.473478317260742,-1.667893409729004
-12.753031730651855,27.457544326782227,-1.6370954513549805
-12.612234115600586,24.524560928344727,-1.4912489652633667
-12.654150009155273,22.35006332397461,-1.3888397216796875
-14.392757415771484,23.195167541503906,-1.476115345954895
-13.837638854980469,20.421098709106445,-1.3339062929153442
-15.079887390136719,20.435651779174805,-1.3733470439910889
-15.724019050598145,19.60809898376465,-1.359118103981018
-16.100181579589844,18.502288818359375,-1.32626473903656
-16.464120864868164,17.452302932739258,-1.2973991632461548
-16.818098068237305,16.4503173828125,-1.2721483707427979
-16.14904022216797,14.573554039001465,-1.1762709617614746
-16.68427085876465,13.882156372070312,-1.173656702041626
-18.439804077148438,14.128888130187988,-1.256177544593811
-13.263716697692871,9.341858863830566,-0.8772720694541931
-19.64717674255371,12.688650131225586,-1.2647161483764648
-20.268423080444336,11.96437931060791,-1.2727171182632446
-19.8463077545166,10.664224624633789,-1.218303918838501
-18.78219223022461,9.13988971710205,-1.1295089721679688
-21.325271606445312,9.337389945983887,-1.2588647603988647
-23.108476638793945,9.030194282531738,-1.3416228294372559
-24.99877166748047,8.62827205657959,-1.4300692081451416
-27.67807960510254,8.324762344360352,-1.5629314184188843
-31.329458236694336,8.065905570983887,-1.7493889331817627
-36.21371078491211,7.7868499755859375,-2.0030176639556885
-39.72882843017578,6.885939121246338,-2.180356979370117
-42.0435905456543,5.55812406539917,-2.2932777404785156
-35.94600296020508,3.289370536804199,-1.951889991760254
-48.79159927368164,2.494110107421875,-2.641839027404785
-52.32778549194336,0.5699521899223328,-2.8297793865203857
-56.47828674316406,-1.6547555923461914,-3.0553600788116455
-61.442012786865234,-4.275393486022949,-3.330496072769165
-67.4701919555664,-7.428163528442383,-3.6704797744750977
-75.62358093261719,-11.416715621948242,-4.135669708251953
-80.59104919433594,-15.500709533691406,-4.437815189361572
-95.31820678710938,-22.338186264038086,-5.2939558029174805
-71.44776153564453,-19.803070068359375,-4.00917387008667
-62.77790832519531,-20.14844512939453,-3.565253496170044
-31.105499267578125,-11.380661010742188,-1.7910659313201904
-28.245834350585938,-11.641194343566895,-1.6520190238952637
-25.802204132080078,-11.868060111999512,-1.5357636213302612
-23.683256149291992,-12.068756103515625,-1.437361240386963
-21.82240867614746,-12.248760223388672,-1.3532181978225708
-21.062448501586914,-12.961462020874023,-1.337327003479004
-19.796470642089844,-13.307533264160156,-1.2898733615875244
-19.715457916259766,-14.43582820892334,-1.3213430643081665
-21.331298828125,-16.97629165649414,-1.4741867780685425
-21.2701358795166,-18.370534896850586,-1.5197738409042358
-23.972702026367188,-22.447847366333008,-1.7759214639663696
-23.0863037109375,-23.427961349487305,-1.7785942554473877
-21.437118530273438,-23.57815933227539,-1.723177433013916
-20.559494018554688,-24.52385711669922,-1.7304866313934326
-24.317562103271484,-31.49458122253418,-2.1516377925872803
7.237990856170654,-9.164347648620605,-0.6314787268638611
7.648451805114746,-8.922371864318848,-0.6354808211326599
11.499631881713867,-8.94735050201416,-0.7878901958465576
16.142288208007812,-8.82884407043457,-0.9949221611022949
22.37907600402832,-8.937051773071289,-1.303068995475769
58.39165115356445,35.33869934082031,-3.6907382011413574
26.97567367553711,21.14335823059082,-1.8533741235733032
24.207578659057617,20.595970153808594,-1.718691349029541
21.841154098510742,20.149934768676758,-1.606899380683899
19.742067337036133,19.739215850830078,-1.509631633758545
17.882173538208008,19.377429962158203,-1.4258267879486084
16.217416763305664,19.055631637573242,-1.353080153465271
14.71376895904541,18.766910552978516,-1.2895342111587524
13.69973087310791,18.998525619506836,-1.2665791511535645
12.412985801696777,18.759002685546875,-1.2163571119308472
12.107192993164062,19.99870491027832,-1.2641606330871582
11.91495132446289,21.594194412231445,-1.3336541652679443
13.072288513183594,26.12042236328125,-1.579464316368103
6.671563148498535,14.786888122558594,-0.8772138357162476
12.887439727783203,31.92680549621582,-1.8617775440216064
12.79232120513916,35.767879486083984,-2.0541152954101562
8.833025932312012,28.225505828857422,-1.5992803573608398
12.485038757324219,46.35200881958008,-2.5958027839660645
13.093847274780273,57.759918212890625,-3.2026143074035645
10.461607933044434,56.60831832885742,-3.1129233837127686
4.9674601554870605,34.60756301879883,-1.8905754089355469
5.166780471801758,50.289459228515625,-2.7337067127227783
2.770845413208008,44.49022674560547,-2.410459518432617
0.35912126302719116,16.307846069335938,-0.8820562362670898
-0.7790170907974243,42.883426666259766,-2.319293260574341
-2.443147897720337,41.82600784301758,-2.2655863761901855
-3.931429624557495,39.772647857666016,-2.1611764430999756
-5.295502662658691,37.931888580322266,-2.0710482597351074
-6.557282447814941,36.26332092285156,-1.9927295446395874
-7.734577655792236,34.73933792114258,-1.9245176315307617
-8.841925621032715,33.3376350402832,-1.865051031112671
-8.307363510131836,26.909154891967773,-1.522868037223816
-9.457392692565918,26.768152236938477,-1.5351654291152954
-11.521683692932129,28.863332748413086,-1.6805336475372314
-12.425775527954102,27.82615089416504,-1.6478983163833618
-12.59537410736084,25.411787033081055,-1.5336662530899048
-12.639260292053223,23.117103576660156,-1.4246926307678223
-12.90347671508789,21.500608444213867,-1.3559459447860718
-13.620931625366211,20.757911682128906,-1.3425575494766235
-14.624812126159668,20.447052001953125,-1.3593833446502686
-15.581544876098633,20.032258987426758,-1.372343897819519
-15.962841987609863,18.903635025024414,-1.3379088640213013
-16.331024169921875,17.83399772644043,-1.307618498802185
-16.688426971435547,16.815135955810547,-1.281070590019226
-16.217327117919922,15.077679634094238,-1.1974081993103027
-16.340839385986328,14.011816024780273,-1.16399347782135
-17.480831146240234,13.810460090637207,-1.2046743631362915
-13.274547576904297,9.64724349975586,-0.8873578310012817
-13.43193531036377,8.959833145141602,-0.8730939030647278
-20.03740882873535,12.232425689697266,-1.2694669961929321
-20.668075561523438,11.504145622253418,-1.279086709022522
-20.112730026245117,10.1591157913208,-1.2184759378433228
-19.264331817626953,8.777823448181152,-1.1447534561157227
-22.394174575805664,9.13625717163086,-1.3078726530075073
-24.157344818115234,8.741011619567871,-1.3892021179199219
-26.614463806152344,8.43735408782959,-1.5097737312316895
-29.854644775390625,8.160286903381348,-1.6736139059066772
-34.29032897949219,7.907240867614746,-1.9029157161712646
-39.61054611206055,7.472348690032959,-2.179718494415283
-41.157310485839844,6.063498020172119,-2.2495954036712646
-35.90036392211914,3.8230528831481934,-1.952277421951294
-36.92998504638672,2.437537670135498,-2.0013232231140137
-50.958805084228516,1.3113247156143188,-2.756497859954834
-54.86369705200195,-0.7930700778961182,-2.9670522212982178
-59.49522399902344,-3.2538435459136963,-3.2219974994659424
-65.09607696533203,-6.1908464431762695,-3.535937786102295
-72.00917053222656,-9.780702590942383,-3.929633617401123
-82.60657501220703,-14.621062278747559,-4.53636360168457
-56.40585708618164,-12.339106559753418,-3.1222567558288574
-76.32897186279297,-19.941497802734375,-4.266002655029297
-67.29230499267578,-20.5013370513916,-3.8039395809173584
-67.169677734375,-23.451635360717773,-3.8471968173980713
-29.24736976623535,-11.549402236938477,-1.700386881828308
-26.662410736083984,-11.787690162658691,-1.5763802528381348
-24.43246078491211,-11.997319221496582,-1.471866250038147
-22.482868194580078,-12.18442440032959,-1.3828109502792358
-21.027122497558594,-12.513495445251465,-1.32314932346344
-20.063188552856445,-13.058895111083984,-1.2944852113723755
-19.99567222595215,-14.190170288085938,-1.3258661031723022
-21.3529052734375,-16.4820613861084,-1.4586187601089478
-21.293190002441406,-17.8458194732666,-1.502336859703064
-20.91000747680664,-19.005727767944336,-1.527977705001831
-23.723777770996094,-23.370981216430664,-1.8007941246032715
-22.033533096313477,-23.52336311340332,-1.7428715229034424
-20.59039306640625,-23.833406448364258,-1.7031350135803223
-25.012035369873047,-31.41912841796875,-2.171600103378296
-21.337398529052734,-17.504383087158203,-1.2624439001083374
-21.275527954101562,-18.93341827392578,-1.3027667999267578
-23.785654067993164,-22.944393157958984,-1.5117323398590088
-22.120254516601562,-23.123979568481445,-1.4637889862060547
-20.64314842224121,-23.392921447753906,-1.4271246194839478
-24.894784927368164,-30.60609245300293,-1.804661512374878
-23.25621795654297,-31.06189727783203,-1.774972915649414
-21.507360458374023,-31.269855499267578,-1.736042857170105
7.257421493530273,-8.913829803466797,-0.525797426700592
11.14577865600586,-9.134790420532227,-0.6591922640800476
15.67175579071045,-9.094895362854004,-0.828846275806427
22.719491958618164,-8.684454917907715,-1.1125903129577637
57.8045654296875,36.16579818725586,-3.1190288066864014
28.461015701293945,21.165477752685547,-1.6224256753921509
25.490558624267578,20.597055435180664,-1.4990873336791992
22.967327117919922,20.13568878173828,-1.3971762657165527
20.742219924926758,19.71366310119629,-1.3089723587036133
18.780569076538086,19.34343910217285,-1.233259677886963
17.03264617919922,19.015289306640625,-1.1677364110946655
15.460288047790527,18.721759796142578,-1.110643982887268
14.20084285736084,18.67681884765625,-1.0732409954071045
13.07274341583252,18.707881927490234,-1.0439814329147339
11.841835021972656,18.48602294921875,-1.0042208433151245
12.061090469360352,20.60648536682129,-1.0921900272369385
11.689239501953125,21.948720932006836,-1.1375043392181396
13.019932746887207,27.009737014770508,-1.3715569972991943
6.41609525680542,14.802652359008789,-0.7379854917526245
12.8391752243042,33.218753814697266,-1.6290686130523682
12.70116901397705,37.2465934753418,-1.8000999689102173
12.658379554748535,42.65951919555664,-2.0354647636413574
14.211111068725586,56.05904006958008,-2.6454224586486816
10.690607070922852,50.631004333496094,-2.3670756816864014
5.798643112182617,34.209285736083984,-1.5871533155441284
3.9630544185638428,30.85861587524414,-1.423155665397644
2.775458574295044,31.621992111206055,-1.452041745185852
2.0427021980285645,43.09578323364258,-1.9735380411148071
0.16816481947898865,23.41448974609375,-1.0710742473602295
-1.3156983852386475,39.855255126953125,-1.8240859508514404
-2.783839702606201,37.97240447998047,-1.741628885269165
-4.129694938659668,36.272743225097656,-1.6699392795562744
-5.374319076538086,34.726261138916016,-1.6073888540267944
-6.534755229949951,33.30883026123047,-1.552686095237732
-7.624849796295166,32.000946044921875,-1.5047943592071533
-8.594390869140625,30.566972732543945,-1.4524364471435547
-8.717083930969238,26.818227767944336,-1.2899203300476074
-10.2824125289917,27.7840576171875,-1.3551644086837769
-11.164178848266602,26.80583381652832,-1.3282707929611206
-12.019096374511719,25.87738037109375,-1.305152416229248
-12.907278060913086,25.09824562072754,-1.290987491607666
-12.574564933776855,22.20950698852539,-1.1674580574035645
-13.988865852355957,22.544254302978516,-1.2136342525482178
-13.858166694641113,20.45140266418457,-1.1300519704818726
-14.871219635009766,20.152870178222656,-1.1456665992736816
-15.262656211853027,19.032777786254883,-1.1159720420837402
-15.638873100280762,17.972152709960938,-1.0897693634033203
-16.002361297607422,16.96283531188965,-1.0667154788970947
-16.355342864990234,15.997685432434082,-1.046526551246643
-16.250255584716797,14.664896965026855,-1.0012681484222412
-16.85112953186035,14.020986557006836,-1.0027492046356201
-17.916969299316406,13.728287696838379,-1.032496690750122
-13.281357765197754,9.354284286499023,-0.7430889010429382
-19.086435317993164,12.326509475708008,-1.039315938949585
-19.6863956451416,11.620806694030762,-1.0457000732421875
-19.56655502319336,10.51390266418457,-1.0160608291625977
-18.816837310791016,9.156750679016113,-0.9572363495826721
-20.89422607421875,9.148660659790039,-1.0433824062347412
-22.492353439331055,8.7894287109375,-1.1046488285064697
-24.70786476135254,8.527872085571289,-1.1956498622894287
-27.329551696777344,8.219929695129395,-1.3054660558700562
-30.75971031188965,7.919223308563232,-1.4529346227645874
-35.1662483215332,7.5616278648376465,-1.6453874111175537
-36.753047943115234,6.3701701164245605,-1.7062582969665527
-38.74412536621094,5.121936798095703,-1.787688136100769
-35.82775115966797,3.2785491943359375,-1.6457107067108154
-44.526222229003906,2.2760744094848633,-2.0394186973571777
-47.45813751220703,0.5169116854667664,-2.1710028648376465
-50.845191955566406,-1.4897117614746094,-2.32680606842041
-54.81504440307617,-3.8142611980438232,-2.5134639739990234
-58.145751953125,-6.401585102081299,-2.6758267879486084
-65.23429870605469,-9.848272323608398,-3.0178184509277344
-72.40255737304688,-13.925752639770508,-3.372605323791504
-63.74596405029297,-14.939108848571777,-2.9949278831481934
-71.0747299194336,-19.69968032836914,-3.373732089996338
-62.84680938720703,-20.17057228088379,-3.019226312637329
-31.24478530883789,-11.431619644165039,-1.521883249282837
-27.407915115356445,-11.295854568481445,-1.3560200929641724
-25.089149475097656,-11.540080070495605,-1.2632313966751099
-23.069610595703125,-11.756046295166016,-1.1843883991241455
-21.25956916809082,-11.932844161987305,-1.115190029144287
-20.583738327026367,-12.666872024536133,-1.105560302734375
-20.29987335205078,-13.645934104919434,-1.1188743114471436
-19.740564346313477,-14.45422077178955,-1.1191704273223877
-21.359235763549805,-16.99852180480957,-1.2486777305603027
-21.298856735229492,-18.395339965820312,-1.2873425483703613
-23.664222717285156,-22.15898895263672,-1.4829556941986084
-22.72808265686035,-23.064441680908203,-1.4812029600143433
-21.114702224731445,-23.223539352416992,-1.435746192932129
-20.591747283935547,-24.562326431274414,-1.4661486148834229
-23.923189163208008,-30.983808517456055,-1.7905946969985962
-22.143749237060547,-31.193634033203125,-1.7498598098754883
-20.576400756835938,-31.60279083251953,-1.7250127792358398
7.224767684936523,-9.147610664367676,-0.5332052707672119
7.635906219482422,-8.90773868560791,-0.5366840362548828
11.479373931884766,-8.931587219238281,-0.6653172969818115
16.110462188720703,-8.81143856048584,-0.8399642109870911
22.332971572875977,-8.918636322021484,-1.100021243095398
58.41236877441406,20.881479263305664,-2.8375508785247803
29.68720245361328,21.400747299194336,-1.6740397214889526
26.532793045043945,20.796228408813477,-1.5420645475387573
23.838586807250977,20.282026290893555,-1.4317138195037842
21.529970169067383,19.862838745117188,-1.3399397134780884
19.477590560913086,19.474769592285156,-1.2599178552627563
17.655731201171875,19.132057189941406,-1.1908626556396484
16.022409439086914,18.826501846313477,-1.130834698677063
14.545061111450195,18.551727294921875,-1.0783344507217407
13.552824974060059,18.794803619384766,-1.0599365234375
12.285096168518066,18.565744400024414,-1.0183429718017578
12.083581924438477,19.959707260131836,-1.0672935247421265
12.020188331604004,21.78494644165039,-1.138132929801941
12.86652660369873,25.70927619934082,-1.3150694370269775
6.680765151977539,14.807291984558105,-0.7430768013000488
12.853580474853516,31.842910766601562,-1.5707759857177734
12.755334854125977,35.66448211669922,-1.7325952053070068
8.844643592834473,28.26261329650879,-1.3546395301818848
12.43959903717041,46.18332290649414,-2.1878504753112793
12.492504119873047,55.107234954833984,-2.584733486175537
9.334297180175781,50.50837326049805,-2.349529981613159
4.904408931732178,34.16830825805664,-1.5789768695831299
3.141777753829956,30.57968521118164,-1.4061667919158936
2.6776514053344727,42.99382019042969,-1.9704715013504028
0.3599294424057007,16.344425201416016,-0.7478219270706177
-0.7192987203598022,39.59638977050781,-1.8115508556365967
-2.257302761077881,38.6444206237793,-1.7707196474075317
-3.645596981048584,36.880985260009766,-1.6952643394470215
-4.92542839050293,35.281036376953125,-1.6295069456100464
-6.115185260772705,33.81843948364258,-1.5720380544662476
-7.229795455932617,32.47214889526367,-1.5217392444610596
-8.281567573547363,31.224891662597656,-1.4776980876922607
-8.315143585205078,26.93438148498535,-1.2894319295883179
-9.518096923828125,26.939970016479492,-1.306963562965393
-10.84206771850586,27.160791397094727,-1.3377419710159302
-11.706238746643066,26.214824676513672,-1.313268780708313
-12.547002792358398,25.314191818237305,-1.292376160621643
-12.557729721069336,22.967979431152344,-1.1974027156829834
-12.921993255615234,21.531469345092773,-1.1486674547195435
-13.648754119873047,20.80030632019043,-1.1380153894424438
-14.646885871887207,20.477907180786133,-1.151663899421692
-15.12004566192627,19.438928604125977,-1.126508355140686
-15.501566886901855,18.357376098632812,-1.0990591049194336
-15.869492530822754,17.329988479614258,-1.07487952709198
-16.226106643676758,16.349306106567383,-1.0536624193191528
-16.2694149017334,15.126102447509766,-1.0161632299423218
-16.41002082824707,14.07113265991211,-0.9888137578964233
-17.549161911010742,13.864439964294434,-1.0230416059494019
-13.292407035827637,9.660225868225098,-0.7516433000564575
-13.461078643798828,8.979270935058594,-0.7401698231697083
-19.463438034057617,11.882028579711914,-1.0431064367294312
-19.052888870239258,10.605111122131348,-0.9974474310874939
-19.614347457885742,9.907376289367676,-1.0051908493041992
-19.30034637451172,8.794235229492188,-0.9701786637306213
-21.81770133972168,8.901071548461914,-1.0778812170028687
-23.89122200012207,8.64471435546875,-1.1622076034545898
-26.286178588867188,8.333282470703125,-1.2613953351974487
-29.314373016357422,8.012619018554688,-1.3901283740997314
-33.515625,7.728588581085205,-1.5733473300933838
-36.06851577758789,6.804168224334717,-1.678981065750122
-37.98418045043945,5.596017837524414,-1.756262183189392
-35.853450775146484,3.818056106567383,-1.6493127346038818
-37.13528060913086,2.4510884284973145,-1.7023694515228271
-46.32818603515625,1.1921651363372803,-2.119887590408325
-49.534420013427734,-0.7160341143608093,-2.2660858631134033
-53.27144241333008,-2.913458824157715,-2.4404335021972656
-57.697052001953125,-5.487175941467285,-2.6511404514312744
-61.479618072509766,-8.350519180297852,-2.8380801677703857
-69.55778503417969,-12.31147289276123,-3.2312281131744385
-50.74766540527344,-11.101344108581543,-2.3762381076812744
-75.90509033203125,-19.830753326416016,-3.5886573791503906
-67.3658676147461,-20.52375030517578,-3.221346855163574
-67.24394226074219,-23.477558135986328,-3.258018732070923
-28.45797348022461,-11.237680435180664,-1.3995684385299683
-25.90665054321289,-11.453559875488281,-1.2956929206848145
-23.78460121154785,-11.679194450378418,-1.2120651006698608
-21.921876907348633,-11.880400657653809,-1.1405601501464844
-21.177431106567383,-12.602950096130371,-1.1272786855697632
-19.838605880737305,-12.912717819213867,-1.0827722549438477
-20.268295288085938,-14.383648872375488,-1.1368669271469116
-21.38057518005371,-16.5034122467041,-1.2354739904403687
-21.321611404418945,-17.869632720947266,-1.272553563117981
-21.173383712768555,-19.245121002197266,-1.3088274002075195
-23.351146697998047,-23.003890991210938,-1.49940025806427
-21.69841957092285,-23.165576934814453,-1.4519069194793701
-21.220991134643555,-24.563337326049805,-1.484838604927063
-24.602684020996094,-30.90492820739746,-1.806933045387268
-21.36566734313965,-17.52757453918457,-1.0340385437011719
-21.304616928100586,-18.959306716918945,-1.0671117305755615
-23.4311580657959,-22.602434158325195,-1.2181577682495117
-21.78643226623535,-22.775009155273438,-1.1793004274368286
-21.276039123535156,-24.110103607177734,-1.2031699419021606
-24.5268611907959,-30.15376091003418,-1.45438551902771
-22.888534545898438,-30.570804595947266,-1.4289627075195312
-21.1746768951416,-30.786157608032227,-1.3981069326400757
-25.381839752197266,-53.66856384277344,-2.2213916778564453
7.245785713195801,-8.899540901184082,-0.4294087886810303
11.126370429992676,-9.118886947631836,-0.538277268409729
15.65923023223877,-9.087624549865723,-0.6774489879608154
22.672283172607422,-8.666407585144043,-0.9082010388374329
73.96431732177734,42.24013137817383,-3.1870617866516113
57.708473205566406,36.10566329956055,-2.5471010208129883
27.97811508178711,20.80635643005371,-1.304616093635559
25.09041404724121,20.273727416992188,-1.2069942951202393
22.63136100769043,19.841142654418945,-1.1261632442474365
20.45769691467285,19.443246841430664,-1.0560433864593506
18.53766441345215,19.093250274658203,-0.995750367641449
16.82390785217285,18.782255172729492,-0.9434951543807983
15.279973030090332,18.50340461730957,-0.8979039788246155
13.951617240905762,18.34903907775879,-0.8624976873397827
12.936220169067383,18.51250648498535,-0.8450506925582886
11.722834587097168,18.30024528503418,-0.8131912350654602
12.037089347839355,20.565473556518555,-0.8916264772415161
11.843155860900879,22.23772621154785,-0.9427224397659302
12.990155220031738,26.947956085205078,-1.1193583011627197
6.424895286560059,14.822951316833496,-0.6044946312904358
12.804393768310547,33.1287727355957,-1.3289591073989868
12.663159370422363,37.135162353515625,-1.4680652618408203
12.674948692321777,42.715362548828125,-1.6671777963638306
12.84432601928711,50.667449951171875,-1.9558112621307373
10.656721115112305,50.47059631347656,-1.9301180839538574
5.785017013549805,34.12895584106445,-1.295233130455017
3.9310498237609863,30.60932731628418,-1.1547276973724365
2.8182010650634766,32.10896301269531,-1.2060528993606567
1.4716541767120361,31.04818344116211,-1.163046956062317
0.16841380298137665,23.44834327697754,-0.8773983716964722
-1.220307469367981,36.96565246582031,-1.383910059928894
-2.5904908180236816,35.335121154785156,-1.3256953954696655
-3.8538904190063477,33.85028839111328,-1.2747724056243896
-5.027979373931885,32.48835754394531,-1.2301018238067627
-6.127066612243652,31.230756759643555,-1.1908493041992188
-7.162932872772217,30.062318801879883,-1.1563425064086914
-8.145485877990723,28.9703426361084,-1.1260266304016113
-9.083077430725098,27.944217681884766,-1.0994470119476318
-9.703049659729004,26.218576431274414,-1.0460572242736816
-10.5469331741333,25.323787689208984,-1.0264462232589722
-11.365517616271973,24.470224380493164,-1.0095536708831787
-12.202860832214355,23.728506088256836,-0.9983859658241272
-12.613198280334473,22.277740478515625,-0.9579085111618042
-13.612382888793945,21.93754005432129,-0.9660303592681885
-13.878752708435059,20.481773376464844,-0.9257481098175049
-14.436688423156738,19.56401252746582,-0.9097648859024048
-14.827916145324707,18.490646362304688,-0.8868560194969177
-15.203581809997559,17.471921920776367,-0.8666112422943115
-15.566121101379395,16.500410079956055,-0.8487793207168579
-15.917691230773926,15.569602966308594,-0.8331446647644043
-16.309675216674805,14.718526840209961,-0.8220258355140686
-16.865070343017578,14.03257942199707,-0.8209216594696045
-17.423336029052734,13.350055694580078,-0.8213067054748535
-13.299032211303711,9.366730690002441,-0.6086515784263611
-18.557201385498047,11.98471736907959,-0.8265805840492249
-18.9570369720459,11.190277099609375,-0.8237040042877197
-18.958877563476562,10.187381744384766,-0.8053342700004578
-18.851585388183594,9.17365837097168,-0.7844579219818115
-20.492658615112305,8.972829818725586,-0.8370800018310547
-22.222087860107422,8.683815956115723,-0.892740786075592
-24.40707778930664,8.424049377441406,-0.9661297798156738
-26.961345672607422,8.109190940856934,-1.0534785985946655
-30.23494529724121,7.784122467041016,-1.1682184934616089
-32.615028381347656,7.013052940368652,-1.2482630014419556
-34.19379806518555,5.926589488983154,-1.2985198497772217
-35.92683410644531,4.7494940757751465,-1.355985164642334
-35.91413116455078,3.286454200744629,-1.3494261503219604
-40.94915008544922,2.0932230949401855,-1.5342117547988892
-43.42047119140625,0.472933828830719,-1.624778389930725
-46.2370491027832,-1.3546980619430542,-1.7308133840560913
-49.48731231689453,-3.443535566329956,-1.8561650514602661
-52.03778076171875,-5.729125022888184,-1.9588838815689087
-56.46082305908203,-8.523748397827148,-2.1365575790405273
-51.723548889160156,-9.948397636413574,-1.9708327054977417
-63.35124969482422,-14.84660530090332,-2.4346630573272705
-63.02364730834961,-17.468172073364258,-2.4470839500427246
-67.3951644897461,-21.630352020263672,-2.6484475135803223
-31.279502868652344,-11.444319725036621,-1.2462741136550903
-27.797088623046875,-11.456247329711914,-1.1249655485153198
-24.41494369506836,-11.229971885681152,-1.005547046661377
-22.487390518188477,-11.45935344696045,-0.9443709850311279
-21.594005584716797,-12.120559692382812,-0.9265687465667725
-20.12664794921875,-12.38558292388916,-0.8842588067054749
-20.325084686279297,-13.66287612915039,-0.9163692593574524
-19.833127975463867,-14.521990776062012,-0.9197694063186646
-21.387224197387695,-17.020803451538086,-1.0227479934692383
-21.3276309967041,-18.420188903808594,-1.054461121559143
-20.784530639648438,-19.46246910095215,-1.0654330253601074
-22.381074905395508,-22.71229362487793,-1.1931159496307373
-20.802061080932617,-22.879682540893555,-1.1570409536361694
-20.748971939086914,-24.749876022338867,-1.2084567546844482
-23.541683197021484,-30.48971176147461,-1.4413377046585083
-21.79852294921875,-30.70732307434082,-1.4090585708618164
-20.278976440429688,-31.145965576171875,-1.3906545639038086
-24.781734466552734,-56.03154373168945,-2.2924561500549316
7.211601734161377,-9.130938529968262,-0.43536388874053955
7.623410224914551,-8.893163681030273,-0.43828585743904114
11.45920181274414,-8.915891647338867,-0.5432687997817993
16.07878303527832,-8.794114112854004,-0.6857358813285828
22.287084579467773,-8.900314331054688,-0.8979595303535461
58.346961975097656,20.858091354370117,-2.3184964656829834
29.16774559020996,21.026281356811523,-1.3453937768936157
26.104543685913086,20.460569381713867,-1.2410393953323364
23.480947494506836,19.97774314880371,-1.1535621881484985
21.22774887084961,19.584020614624023,-1.0806763172149658
19.220287322998047,19.217506408691406,-1.0169905424118042
17.43511390686035,18.89300537109375,-0.9619474411010742
15.832179069519043,18.602981567382812,-0.9140336513519287
14.380292892456055,18.34157943725586,-0.872079610824585
13.409151077270508,18.595552444458008,-0.8578279614448547
12.15992259979248,18.376567840576172,-0.8245081305503845
12.060080528259277,19.92088508605957,-0.8713409900665283
11.995262145996094,21.739765167236328,-0.9290552735328674
13.023001670837402,26.021955490112305,-1.0888017416000366
6.6899943351745605,14.827736854553223,-0.6086707711219788
12.81992244720459,31.75954818725586,-1.2815203666687012
12.718589782714844,35.561737060546875,-1.413169503211975
8.856279373168945,28.29979133605957,-1.1095448732376099
12.394524574279785,46.015953063964844,-1.7831599712371826
8.372252464294434,36.93186569213867,-1.4169564247131348
6.313154220581055,34.16085433959961,-1.2998560667037964
4.403788089752197,30.680496215820312,-1.1597501039505005
3.1349966526031494,30.513662338256836,-1.147752285003662
1.8977972269058228,30.472156524658203,-1.1423985958099365
0.3607366681098938,16.381139755249023,-0.6130873560905457
-0.6832197904586792,37.610008239746094,-1.4075006246566772
-2.0980923175811768,35.91879653930664,-1.3462773561477661
-3.3986828327178955,34.38308334350586,-1.292794942855835
-4.603930950164795,32.978126525878906,-1.24592125415802
-5.729226112365723,31.68393898010254,-1.2047561407089233
-6.787187099456787,30.484188079833984,-1.1685680150985718
-7.788369655609131,29.365320205688477,-1.1367624998092651
-8.741689682006836,28.315994262695312,-1.1088522672653198
-9.438358306884766,26.71429443359375,-1.0601319074630737
-10.238594055175781,25.649017333984375,-1.0333585739135742
-11.065933227539062,24.780933380126953,-1.0154874324798584
-11.909354209899902,24.027713775634766,-1.0034304857254028
-12.699278831481934,23.22686767578125,-0.9905081391334534
-12.940560340881348,21.562395095825195,-0.9409528970718384
-13.67667007446289,20.84286117553711,-0.9327943325042725
-14.287757873535156,19.97581672668457,-0.9189556837081909
-14.685417175292969,18.880157470703125,-0.8949882984161377
-15.066527366638184,17.84218978881836,-0.8737933039665222
-15.433656692504883,16.854040145874023,-0.8550971746444702
-15.789032936096191,15.90891170501709,-0.8386718034744263
-16.13467025756836,15.000832557678223,-0.8243319988250732
-16.6597843170166,14.285299301147461,-0.8211543560028076
-17.216745376586914,13.601819038391113,-0.8209903836250305
-13.310300827026367,9.673225402832031,-0.6156671047210693
-13.490324020385742,8.998778343200684,-0.6067693829536438
-18.921836853027344,11.551393508911133,-0.8295109272003174
-18.863210678100586,10.499534606933594,-0.8077835440635681
-19.25800323486328,9.727378845214844,-0.8073039650917053
-20.142593383789062,9.178007125854492,-0.828247606754303
-21.500898361206055,8.771825790405273,-0.8689016103744507
-23.609268188476562,8.542696952819824,-0.9394603967666626
-25.966205596923828,8.231847763061523,-1.019257664680481
-28.807283401489258,7.874013423919678,-1.1174486875534058
-32.0661506652832,7.394351482391357,-1.2313200235366821
-33.594329833984375,6.337421894073486,-1.2791846990585327
-35.26723098754883,5.195741653442383,-1.333853006362915
-36.64028549194336,3.9018478393554688,-1.3787343502044678
-40.110206604003906,2.6474575996398926,-1.5040862560272217
-42.47174072265625,1.0929266214370728,-1.5897092819213867
-45.1518669128418,-0.6526832580566406,-1.6896426677703857
-48.229957580566406,-2.6377358436584473,-1.8073387145996094
-51.813358306884766,-4.927616119384766,-1.9474692344665527
-54.73210906982422,-7.434035301208496,-2.066739082336426
-50.1751823425293,-8.880823135375977,-1.9066047668457031
-50.80219650268555,-11.113275527954102,-1.9458355903625488
-63.0640754699707,-16.47594451904297,-2.438894748687744
-59.96467971801758,-18.26889991760254,-2.345540761947632
-67.31831359863281,-23.503524780273438,-2.6679861545562744
-29.09608268737793,-11.48965835571289,-1.1705092191696167
-25.193078994750977,-11.138084411621094,-1.0306754112243652
-23.170682907104492,-11.37773323059082,-0.9658705592155457
-21.349897384643555,-11.570416450500488,-0.9086282253265381
-20.69813346862793,-12.317706108093262,-0.9012376070022583
-20.342870712280273,-13.240931510925293,-0.9082139730453491
-20.293865203857422,-14.401796340942383,-0.931122899055481
-21.408294677734375,-16.524812698364258,-1.0119202136993408
-21.350086212158203,-17.893505096435547,-1.042330265045166
-21.287952423095703,-19.3492488861084,-1.0764057636260986
-22.990306854248047,-22.648422241210938,-1.2075464725494385
-21.373580932617188,-22.81878089904785,-1.1698704957962036
-21.254791259765625,-24.602453231811523,-1.2165236473083496
-24.20682144165039,-30.40766143798828,-1.4542782306671143
-21.39399528503418,-17.550811767578125,-0.805170476436615
-21.33376693725586,-18.985246658325195,-0.8309587240219116
-23.178220748901367,-22.358444213867188,-0.9370549917221069
-21.46273422241211,-22.43662452697754,-0.9034385085105896
-21.308584213256836,-24.14699363708496,-0.9370567202568054
-24.16986846923828,-29.714859008789062,-1.1145164966583252
-22.532514572143555,-30.095293045043945,-1.0939257144927979
-20.942441940307617,-30.448495864868164,-1.0752924680709839
-20.274776458740234,-32.17347717285156,-1.1065281629562378
-25.51325798034668,-53.94645690917969,-1.7363755702972412
-24.53846549987793,-57.78396224975586,-1.8266606330871582
7.23419713973999,-8.885305404663086,-0.3333888649940491
11.107047080993652,-9.103046417236328,-0.4178556203842163
15.646737098693848,-9.080376625061035,-0.526387095451355
22.625293731689453,-8.648446083068848,-0.7047860622406006
73.85881805419922,42.179893493652344,-2.4748339653015137
57.612762451171875,36.0457878112793,-1.9774280786514282
27.5116024017334,20.459430694580078,-0.9975986480712891
24.70287322998047,19.960586547851562,-0.9241032600402832
22.305280685424805,19.555267333984375,-0.8631264567375183
20.1810359954834,19.18030548095703,-0.8101098537445068
18.301101684570312,18.849597930908203,-0.7644490003585815
16.620351791381836,18.55499839782715,-0.724817156791687
15.103923797607422,18.290212631225586,-0.6901952028274536
13.711134910583496,18.03275489807129,-0.6591463088989258
12.802608489990234,18.3212890625,-0.6503536701202393
11.632102012634277,18.158611297607422,-0.6274720430374146
12.013192176818848,20.524654388427734,-0.691983163356781
12.001078605651855,22.534259796142578,-0.742868185043335
12.960531234741211,26.88649559020996,-0.8684660792350769
6.433708190917969,14.843293190002441,-0.4707213342189789
12.769821166992188,33.03931427001953,-1.030653715133667
12.625399589538574,37.024417877197266,-1.1382133960723877
12.691547393798828,42.77131652832031,-1.2981526851654053
12.763413429260254,50.3482551574707,-1.5113285779953003
7.385476112365723,34.97789764404297,-1.0401948690414429
5.768849849700928,34.03352355957031,-1.004401445388794
3.922790765762329,30.545055389404297,-0.8960705995559692
2.8017115592956543,31.921180725097656,-0.9323837757110596
1.4612071514129639,30.827762603759766,-0.8980044722557068
0.1686520129442215,23.482269287109375,-0.6832822561264038
-1.1378587484359741,34.46818161010742,-1.0034675598144531
-2.4223573207855225,33.04171371459961,-0.963995099067688
-3.612762689590454,31.732370376586914,-0.929284393787384
-4.723745346069336,30.522567749023438,-0.8986899852752686
-5.767463684082031,29.397823333740234,-0.8716945648193359
-6.754026412963867,28.346179962158203,-0.847881019115448
-7.6920013427734375,27.35747528076172,-0.8268882632255554
-8.588688850402832,26.423198699951172,-0.8084326386451721
-9.423197746276855,25.462383270263672,-0.7899883985519409
-10.026948928833008,24.07528305053711,-0.7588474750518799
-10.81449031829834,23.283849716186523,-0.7470004558563232
-11.582383155822754,22.52199363708496,-0.7369033694267273
-12.334477424621582,21.785459518432617,-0.7284412384033203
-13.206063270568848,21.282711029052734,-0.7287951707839966
-13.618103981018066,20.097124099731445,-0.7063732147216797
-14.027073860168457,19.0089168548584,-0.6873912215232849
-14.417498588562012,17.978857040405273,-0.6705613136291504
-14.792119979858398,16.999065399169922,-0.6556685566902161
-15.153282165527344,16.062795639038086,-0.6425346732139587
-15.503103256225586,15.164079666137695,-0.6310074925422668
-15.872262001037598,14.323786735534668,-0.6220918893814087
-16.413352966308594,13.65672779083252,-0.6212782859802246
-16.956453323364258,12.992318153381348,-0.6215622425079346
-13.316743850708008,9.379205703735352,-0.47393798828125
-18.056827545166016,11.661566734313965,-0.6254461407661438
-17.778461456298828,10.494561195373535,-0.6007035374641418
-18.471588134765625,9.925533294677734,-0.6101600527763367
-18.886438369750977,9.190620422363281,-0.6111490726470947
-20.198196411132812,8.84389591217041,-0.6415934562683105
-21.958459854125977,8.580791473388672,-0.6859911680221558
-24.137235641479492,8.330912590026855,-0.7429893016815186
-26.623647689819336,8.007621765136719,-0.8089669346809387
-29.20733642578125,7.519559383392334,-0.8775746822357178
-30.569988250732422,6.573317050933838,-0.9098283648490906
-31.96904945373535,5.540989875793457,-0.9440745115280151
-33.49290466308594,4.427729606628418,-0.9830251336097717
-36.012481689453125,3.295464515686035,-1.0522358417510986
-37.90583801269531,1.9376559257507324,-1.1043884754180908
-40.017921447753906,0.43587297201156616,-1.1644744873046875
-42.3969612121582,-1.2421875,-1.2341573238372803
-45.10597610473633,-3.1386637687683105,-1.315625548362732
-47.859405517578125,-5.269105911254883,-1.4009827375411987
-50.66011047363281,-7.648029804229736,-1.4907654523849487
-45.20008087158203,-8.69368839263916,-1.3392945528030396
-51.68878173828125,-12.113462448120117,-1.5447402000427246
-59.96315383911133,-16.619901657104492,-1.8105340003967285
-61.64966583251953,-19.786344528198242,-1.8839484453201294
-31.454418182373047,-11.508320808410645,-0.974564254283905
-27.69965934753418,-11.416093826293945,-0.8717455267906189
-24.112131118774414,-11.090686798095703,-0.7722495794296265
-21.93416976928711,-11.177438735961914,-0.7163088321685791
-21.231792449951172,-11.917251586914062,-0.7084459662437439
-19.916086196899414,-12.256011962890625,-0.6804361343383789
-20.350339889526367,-13.679851531982422,-0.7134857773780823
-20.12651252746582,-14.736811637878418,-0.7258252501487732
-21.41526985168457,-17.04311752319336,-0.7963670492172241
-21.356468200683594,-18.44509506225586,-0.8210940361022949
-20.976900100708008,-19.642597198486328,-0.836185872554779
-22.112438201904297,-22.439685821533203,-0.9166711568832397
-20.734251022338867,-22.805099487304688,-0.8968218564987183
-20.925018310546875,-24.959861755371094,-0.9477113485336304
-23.172388076782227,-30.011411666870117,-1.1032522916793823
-21.464111328125,-30.236238479614258,-1.078923225402832
-20.784812927246094,-31.92289161682129,-1.1083956956863403
-26.26028060913086,-53.45933151245117,-1.7330451011657715
-24.0319766998291,-54.336326599121094,-1.7287578582763672
7.198492527008057,-9.114343643188477,-0.3379378914833069
7.610968589782715,-8.878644943237305,-0.3402690887451172
11.43911361694336,-8.900261878967285,-0.421723335981369
16.04724884033203,-8.77686882019043,-0.5322062969207764
22.24141502380371,-8.882078170776367,-0.6968543529510498
24.53164291381836,7.673129081726074,-0.747900664806366
58.283721923828125,20.835491180419922,-1.8009916543960571
28.666467666625977,20.664920806884766,-1.0282429456710815
25.690149307250977,20.13576889038086,-0.9497545957565308
23.162635803222656,19.70693016052246,-0.884890079498291
20.9340763092041,19.313085556030273,-0.8287456631660461
18.969852447509766,18.96710968017578,-0.7805437445640564
17.2200927734375,18.65999412536621,-0.7388172745704651
15.646533012390137,18.384838104248047,-0.7024490833282471
14.219322204589844,18.13626480102539,-0.6705677509307861
13.26857852935791,18.400602340698242,-0.6600828766822815
12.037344932556152,18.191320419311523,-0.6347016096115112
12.0366849899292,19.882232666015625,-0.6762697696685791
12.037837982177734,21.816923141479492,-0.725028395652771
11.435978889465332,22.850841522216797,-0.7435078620910645
6.699237823486328,14.848226547241211,-0.4739772081375122
12.786462783813477,31.676666259765625,-0.9939541220664978
12.682080268859863,35.45962142944336,-1.0957728624343872
8.867938995361328,28.33704376220703,-0.8639563918113708
12.349801063537598,45.84990692138672,-1.3816428184509277
8.360214233398438,36.8787956237793,-1.100290060043335
6.294768333435059,34.061378479003906,-1.0078686475753784
4.392519474029541,30.602031707763672,-0.8995554447174072
3.1245527267456055,30.4119873046875,-0.8895570039749146
1.8954436779022217,30.434221267700195,-0.887261688709259
0.36154764890670776,16.417993545532227,-0.4778308868408203
-0.6363234519958496,35.02865982055664,-1.019398808479309
-1.9599425792694092,33.55369186401367,-0.9779773950576782
-3.1832175254821777,32.203346252441406,-0.9415889978408813
-4.321991443634033,30.95861053466797,-0.909538745880127
-5.389278411865234,29.803987503051758,-0.8812711834907532
-6.395867824554443,28.72661590576172,-0.8563264608383179
-7.3508620262146,27.71575164794922,-0.8343285322189331
-8.262022018432617,26.76227378845215,-0.814965546131134
-9.135986328125,25.858474731445312,-0.7979850769042969
-9.703779220581055,24.309253692626953,-0.7615994215011597
-10.526241302490234,23.572355270385742,-0.751164436340332
-11.300902366638184,22.800128936767578,-0.7404369115829468
-12.058398246765137,22.054704666137695,-0.7313817143440247
-12.80237865447998,21.3321533203125,-0.7239044308662415
-13.461798667907715,20.515392303466797,-0.7139765620231628
-13.87839126586914,19.403478622436523,-0.6941366195678711
-14.275327682495117,18.352928161621094,-0.67653888463974
-14.655484199523926,17.35542869567871,-0.6609546542167664
-15.02136516571045,16.403804779052734,-0.6471894979476929
-15.375144004821777,15.4918794631958,-0.6350852847099304
-15.718761444091797,14.614148139953613,-0.6245048642158508
-16.21344757080078,13.902579307556152,-0.6214503645896912
-16.755565643310547,13.237475395202637,-0.6213289499282837
-13.328230857849121,9.68625545501709,-0.4794093668460846
-13.519680976867676,9.018359184265137,-0.47287145256996155
-17.977643966674805,10.974989891052246,-0.6128818988800049
-18.29666519165039,10.184189796447754,-0.6093114614486694
-18.890884399414062,9.541947364807129,-0.6158263087272644
-19.62050437927246,8.940131187438965,-0.6273883581161499
-21.263471603393555,8.674962043762207,-0.6682282090187073
-23.291349411010742,8.427658081054688,-0.7207229137420654
-25.64291763305664,8.12935733795166,-0.7827398777008057
