20.35047721862793,-13.693374633789062,4.010425567626953
21.001968383789062,-12.937419891357422,4.033053398132324
19.361614227294922,-10.879101753234863,3.6311309337615967
19.790842056274414,-10.096541404724121,3.632567882537842
20.878793716430664,-9.614971160888672,3.7582709789276123
23.80161476135254,-9.822240829467773,4.209909439086914
24.429462432861328,-8.950678825378418,4.253876686096191
25.05263328552246,-8.053183555603027,4.302537441253662
25.671602249145508,-7.127950191497803,4.356105327606201
26.28681182861328,-6.173029899597168,4.414818286895752
26.898662567138672,-5.186334609985352,4.478940486907959
27.507568359375,-4.165552139282227,4.548769950866699
28.113910675048828,-3.108180284500122,4.62463903427124
28.718090057373047,-2.0114595890045166,4.706918716430664
29.00026512145996,-0.8628882169723511,4.743649005889893
29.594579696655273,0.3088637590408325,4.838983058929443
30.187742233276367,1.5293476581573486,4.942032337188721
31.119916915893555,2.833498001098633,5.109147548675537
31.718225479125977,4.1784515380859375,5.230732440948486
32.31626510620117,5.586038112640381,5.362064838409424
32.914268493652344,7.061743259429932,5.5039496421813965
33.51247787475586,8.611700057983398,5.657303333282471
34.09026336669922,10.236427307128906,5.819623947143555
32.45293045043945,11.184515953063965,5.612339973449707
28.449186325073242,11.102256774902344,4.993097305297852
25.233692169189453,11.035027503967285,4.502974987030029
22.185832977294922,10.783699035644531,4.033188819885254
20.93047332763672,11.234529495239258,3.8839468955993652
19.75336265563965,11.648212432861328,3.749386787414551
18.644649505615234,12.02917766571045,3.627805709838867
17.59598159790039,12.381163597106934,3.517771005630493
16.60019874572754,12.707353591918945,3.4180684089660645
16.294933319091797,13.545659065246582,3.464545965194702
16.299097061157227,14.695533752441406,3.588149309158325
16.298643112182617,15.927732467651367,3.726008653640747
7.518486022949219,7.96248722076416,1.7905234098434448
6.9766154289245605,8.010150909423828,1.7367663383483887
16.263324737548828,20.261749267578125,4.247971534729004
16.19687271118164,21.928470611572266,4.4572858810424805
15.787030220031738,23.275169372558594,4.598297595977783
14.625289916992188,23.54602813720703,4.531984806060791
13.528260231018066,23.86863136291504,4.485769748687744
13.361906051635742,25.953250885009766,4.772728443145752
17.631284713745117,37.9153938293457,6.836658477783203
21.974077224731445,52.69352340698242,9.334518432617188
19.496112823486328,52.606807708740234,9.17289924621582
17.418920516967773,53.50666809082031,9.200262069702148
17.08616065979004,60.6629638671875,10.304323196411133
15.305058479309082,64.10498809814453,10.775769233703613
13.208481788635254,67.16439819335938,11.191733360290527
10.509000778198242,67.70034790039062,11.201594352722168
-14.523260116577148,33.548587799072266,5.977121353149414
-24.732627868652344,51.36729049682617,9.321388244628906
-25.85535430908203,48.601566314697266,9.000855445861816
-28.445363998413086,48.64990997314453,9.21416187286377
-31.16300392150879,48.696651458740234,9.45266056060791
-31.5203857421875,45.15133285522461,9.003177642822266
-36.97908020019531,48.680450439453125,9.995259284973145
-40.135135650634766,48.64696502685547,10.311356544494629
-43.482208251953125,48.588069915771484,10.660804748535156
-23.374893188476562,24.097347259521484,5.489006996154785
-23.275163650512695,22.141149520874023,5.252317428588867
-22.77355194091797,19.984107971191406,4.953815937042236
-24.610916137695312,19.904760360717773,5.175235748291016
-26.607507705688477,19.80586051940918,5.4232635498046875
-28.790512084960938,19.68429183959961,5.7023091316223145
-31.193592071533203,19.536182403564453,6.0178399085998535
-33.79631042480469,19.321035385131836,6.364959716796875
-35.13338851928711,18.253437042236328,6.473337650299072
-32.81612777709961,15.408320426940918,5.927455902099609
-32.79096221923828,13.817378997802734,5.817873001098633
-32.70054626464844,12.256962776184082,5.709788799285889
-32.6120719909668,10.7506685256958,5.6143364906311035
-32.52517318725586,9.291265487670898,5.53060245513916
-33.47389602661133,8.123241424560547,5.631841659545898
-38.11931610107422,7.643455982208252,6.3565802574157715
-12.179821968078613,1.9369399547576904,2.0164291858673096
-74.0660400390625,8.744987487792969,12.193936347961426
-17.80109214782715,1.3795651197433472,2.9192092418670654
-23.29692840576172,0.8661835789680481,3.8116867542266846
-9.672797203063965,-0.029202722012996674,1.58151376247406
-89.97697448730469,-3.889528274536133,14.72500228881836
-92.4289321899414,-27.008323669433594,15.744119644165039
-75.57027435302734,-25.418821334838867,13.035992622375488
-66.25090026855469,-25.289684295654297,11.594407081604004
-60.22560501098633,-25.80695915222168,10.712854385375977
-64.40090942382812,-30.714384078979492,11.665779113769531
-64.16519165039062,-33.830318450927734,11.859872817993164
-59.209556579589844,-34.32548522949219,11.189929962158203
-54.1978645324707,-34.400794982910156,10.495678901672363
-53.965728759765625,-37.37683868408203,10.733055114746094
-27.220834732055664,-20.51896095275879,5.573421478271484
-24.867874145507812,-20.36217498779297,5.255026340484619
-22.758132934570312,-20.215103149414062,4.976919651031494
-20.85072135925293,-20.075984954833984,4.732471942901611
-19.10137176513672,-19.93111801147461,4.5136494636535645
-17.89114761352539,-20.236499786376953,4.416350364685059
-18.1844482421875,-22.314035415649414,4.706395149230957
-18.376537322998047,-24.49708366394043,5.006967067718506
-18.918676376342773,-27.45160484313965,5.450981140136719
-18.731517791748047,-29.663562774658203,5.736034393310547
-18.624467849731445,-32.299217224121094,6.095975399017334
-18.271841049194336,-34.852203369140625,6.433969497680664
-16.29879379272461,-34.380531311035156,6.220902442932129
-14.43408203125,-33.9024772644043,6.024536609649658
-12.667695045471191,-33.418617248535156,5.843328952789307
-10.99087142944336,-32.92939376831055,5.67594051361084
-8.640727996826172,-29.828466415405273,5.07746696472168
-7.7853240966796875,-31.570003509521484,5.316342830657959
-6.35041618347168,-31.072315216064453,5.1853485107421875
-5.035852909088135,-30.926239013671875,5.123046875
-3.705491781234741,-30.414451599121094,5.009542465209961
-2.4286818504333496,-29.89827537536621,4.904477596282959
-1.2014051675796509,-29.37767791748047,4.807272911071777
-0.01991535723209381,-28.852567672729492,4.717403888702393
1.1190967559814453,-28.322830200195312,4.634404182434082
2.218670606613159,-27.78832244873047,4.557857036590576
2.9617910385131836,-24.593015670776367,4.050020217895508
3.9689977169036865,-24.588546752929688,4.072271347045898
5.238211631774902,-25.81194305419922,4.3062849044799805
6.193031311035156,-25.263158798217773,4.252830505371094
6.532924175262451,-22.669252395629883,3.857269048690796
7.376701354980469,-22.203092575073242,3.825324296951294
9.017569541931152,-23.8886775970459,4.174815654754639
9.884873390197754,-23.306636810302734,4.139204025268555
10.73112964630127,-22.717105865478516,4.107805252075195
11.557685852050781,-22.11964225769043,4.0804924964904785
9.186888694763184,-15.983177185058594,3.0141804218292236
13.15666389465332,-20.898971557617188,4.037705421447754
13.931360244750977,-20.274738311767578,4.022060394287109
14.690979957580566,-19.64045524597168,4.010161876678467
13.075743675231934,-16.090513229370117,3.3899409770965576
16.168725967407227,-18.339279174804688,3.997424602508545
16.888647079467773,-17.67104721069336,3.99653959274292
17.597026824951172,-16.99008560180664,3.999300003051758
17.800867080688477,-15.855792999267578,3.8976166248321533
17.405925750732422,-14.292410850524902,3.6823489665985107
18.857837677001953,-14.255833625793457,3.8651351928710938
20.10801124572754,-13.968005180358887,4.0030436515808105
20.762298583984375,-13.21862506866455,4.024248123168945
19.252288818359375,-11.196646690368652,3.641383409500122
19.62145233154297,-10.379827499389648,3.6293458938598633
20.171443939208984,-9.654488563537598,3.656327724456787
23.568525314331055,-10.137808799743652,4.194826126098633
24.198219299316406,-9.27540397644043,4.2371063232421875
24.823057174682617,-8.387687683105469,4.284010887145996
25.44352912902832,-7.47291374206543,4.33574104309082
26.060070037841797,-6.52919864654541,4.392524719238281
26.673118591308594,-5.554483890533447,4.454617023468018
27.28306770324707,-4.546567440032959,4.522302150726318
27.89031410217285,-3.503011703491211,4.595900535583496
28.495250701904297,-2.4211502075195312,4.67576789855957
28.780481338500977,-1.2839291095733643,4.71029806137085
29.96883773803711,1.0728024244308472,4.90305233001709
27.94923973083496,2.1272308826446533,4.58292818069458
31.497364044189453,3.6748485565185547,5.184746742248535
32.095481872558594,5.0587053298950195,5.312386989593506
32.69346618652344,6.50858736038208,5.4502739906311035
33.291568756103516,8.030365943908691,5.5992817878723145
33.86933135986328,9.624706268310547,5.756898880004883
34.19411849975586,11.2199068069458,5.884023666381836
29.820653915405273,11.130589485168457,5.20424747467041
26.34500503540039,11.058403968811035,4.671497344970703
23.50832748413086,10.998416900634766,4.243476390838623
21.38427734375,11.072663307189941,3.9372382164001465
20.179492950439453,11.499509811401367,3.7974729537963867
19.046571731567383,11.892088890075684,3.671276807785034
17.97662353515625,12.254373550415039,3.5571327209472656
16.962085723876953,12.58974838256836,3.453745126724243
16.292314529418945,13.139695167541504,3.4221644401550293
16.298070907592773,14.262007713317871,3.540949583053589
16.299381256103516,15.462427139282227,3.673326253890991
16.295738220214844,16.753055572509766,3.821207284927368
7.136279582977295,7.952125549316406,1.7469501495361328
16.270891189575195,19.66622543334961,4.1732707023620605
16.201419830322266,21.267044067382812,4.371222496032715
16.186800003051758,23.11869239807129,4.614323616027832
15.050955772399902,23.447914123535156,4.5555806159973145
13.906331062316895,23.70871925354004,4.4939985275268555
13.60637092590332,25.4915714263916,4.724433422088623
13.195144653320312,27.308544158935547,4.958854675292969
16.57688331604004,38.14788818359375,6.800618648529053
20.401094436645508,52.63874816894531,9.230228424072266
17.974761962890625,52.5523796081543,9.081032752990723
17.217710494995117,57.828426361083984,9.86514949798584
16.26835060119629,63.92577362060547,10.785029411315918
14.25525951385498,67.2054443359375,11.232583045959473
11.535418510437012,67.67337799072266,11.224212646484375
1.0418567657470703,11.745452880859375,1.9279248714447021
-33.724647521972656,81.18643188476562,14.37370491027832
-24.349763870239258,52.55280303955078,9.469916343688965
-24.926074981689453,48.5793571472168,8.927278518676758
-27.47620964050293,48.63410568237305,9.132956504821777
-30.14739990234375,48.685638427734375,9.362669944763184
-31.6392822265625,46.785343170166016,9.234384536743164
-35.85749053955078,48.686866760253906,9.886255264282227
-38.94887924194336,48.66215133666992,10.190964698791504
-42.22262191772461,48.612937927246094,10.527650833129883
-23.413732528686523,24.865074157714844,5.584140777587891
-23.311111450195312,22.843599319458008,5.336323261260986
-23.215913772583008,20.989999771118164,5.117218971252441
-23.915281295776367,19.936185836791992,5.0905938148498535
-25.8502140045166,19.844833374023438,5.328333377838135
-27.960853576660156,19.732044219970703,5.595351219177246
-30.27827262878418,19.5942440032959,5.896694183349609
-32.841068267822266,19.426973342895508,6.238653659820557
-35.24369812011719,18.979936599731445,6.544827938079834
-34.902469635009766,17.0244197845459,6.3492326736450195
-32.824913024902344,14.40878963470459,5.861181259155273
-32.733680725097656,12.826391220092773,5.748169898986816
-32.64453887939453,11.301008224487305,5.64816951751709
-32.557098388671875,9.82507610321045,5.560204982757568
-31.97218894958496,8.262924194335938,5.3992180824279785
-36.276798248291016,7.835566997528076,6.068048477172852
-12.19151782989502,2.1246979236602783,2.023361921310425
-12.159879684448242,1.618973731994629,2.0056886672973633
-17.67381477355957,1.6338136196136475,2.9019930362701416
-23.157808303833008,1.2052555084228516,3.791433572769165
-34.19034957885742,0.4040394723415375,5.590521335601807
-61.46784973144531,-1.7439876794815063,10.054056167602539
-93.07418060302734,-25.70449447631836,15.787327766418457
-79.5582275390625,-25.452865600585938,13.65727710723877
-69.4246597290039,-25.327655792236328,12.082740783691406
-61.37450408935547,-25.228296279907227,10.849444389343262
-64.55915069580078,-29.62237548828125,11.613551139831543
-64.25341033935547,-32.66792678833008,11.785292625427246
-77.02703094482422,-23.753538131713867,13.867962837219238
-91.9509048461914,-32.45489501953125,16.77622413635254
-54.35130310058594,-21.676441192626953,10.067129135131836
-66.82659149169922,-29.81661033630371,12.589706420898438
-64.23712158203125,-31.814434051513672,12.332865715026855
-63.566261291503906,-34.72929382324219,12.462061882019043
-55.844276428222656,-33.49115753173828,11.20310115814209
-54.044166564941406,-35.43878936767578,11.118817329406738
-28.480201721191406,-20.35721778869629,6.022911071777344
-26.00067138671875,-20.211000442504883,5.665805339813232
-23.786449432373047,-20.073444366455078,5.354837417602539
-21.791868209838867,-19.942943572998047,5.082205295562744
-19.98103904724121,-19.818206787109375,4.841795921325684
-18.717132568359375,-20.1193790435791,4.727711200714111
-18.240245819091797,-21.258771896362305,4.819241523742676
-18.175504684448242,-22.991348266601562,5.042283058166504
-18.994165420532227,-26.118816375732422,5.556215763092041
-18.817712783813477,-28.19124412536621,5.831431865692139
-18.621383666992188,-30.48168182373047,6.145390033721924
-18.401142120361328,-33.03493118286133,6.505747318267822
-16.9183349609375,-33.46870422363281,6.452005863189697
-15.071066856384277,-33.04867172241211,6.249181270599365
-13.319459915161133,-32.618831634521484,6.0617475509643555
-11.65517520904541,-32.18001937866211,5.888365745544434
-9.479599952697754,-29.869916915893555,5.391569137573242
-8.461687088012695,-30.919618606567383,5.51518440246582
-7.034623146057129,-30.463069915771484,5.378955841064453
-5.669435024261475,-30.002477645874023,5.253137111663818
-4.410609245300293,-29.874008178710938,5.195399761199951
-3.139256000518799,-29.39297103881836,5.085683345794678
-1.9168946743011475,-28.90574836730957,4.984023094177246
-0.7399388551712036,-28.412437438964844,4.889886379241943
0.39485228061676025,-27.913076400756836,4.802794456481934
1.4904431104660034,-27.407636642456055,4.722323894500732
2.5495028495788574,-26.89609146118164,4.648090362548828
3.3203349113464355,-24.502397537231445,4.254051208496094
4.508152961730957,-25.51633071899414,4.457955360412598
5.459132671356201,-24.992395401000977,4.401207447052002
6.382745265960693,-24.46184539794922,4.349452972412109
6.679845333099365,-21.949975967407227,3.9473886489868164
8.261542320251465,-23.686071395874023,4.315842151641846
9.124236106872559,-23.126949310302734,4.277349472045898
9.965617179870605,-22.559993743896484,4.243160724639893
10.786972045898438,-21.984834671020508,4.213146686553955
11.58957290649414,-21.401077270507812,4.1871843338012695
12.374530792236328,-20.80829429626465,4.165179252624512
13.142955780029297,-20.206031799316406,4.147040367126465
13.895840644836426,-19.593782424926758,4.132704734802246
14.634122848510742,-18.97100830078125,4.122111797332764
13.361258506774902,-15.95236873626709,3.5800375938415527
16.070402145385742,-17.69158363342285,4.1120219230651855
16.77000617980957,-17.03365135192871,4.112484455108643
17.458251953125,-16.36267852783203,4.1166205406188965
16.592992782592773,-14.344156265258789,3.773573398590088
17.96481704711914,-14.310441970825195,3.95151686668396
19.249128341674805,-14.107831954956055,4.105939865112305
19.89145851135254,-13.38451862335205,4.124838829040527
20.5256404876709,-12.64399528503418,4.147586345672607
19.1184024810791,-10.742439270019531,3.7729082107543945
19.565675735473633,-9.981670379638672,3.778928756713867
20.94337272644043,-9.644715309143066,3.9669246673583984
23.244678497314453,-9.592413902282715,4.3262810707092285
23.852012634277344,-8.73910903930664,4.3703932762146
24.453855514526367,-7.8607025146484375,4.419191360473633
25.050567626953125,-6.955513954162598,4.4728827476501465
25.642534255981445,-6.021731853485107,4.531691074371338
26.23004913330078,-5.057419300079346,4.595874786376953
26.813432693481445,-4.06043815612793,4.6657185554504395
27.3929500579834,-3.0284721851348877,4.741542816162109
27.968868255615234,-1.958982229232788,4.823701858520508
28.22974967956543,-0.8399608731269836,4.858942985534668
28.792879104614258,0.3004966378211975,4.953950881958008
29.353046417236328,1.4870597124099731,5.056530475616455
30.240596771240234,2.7534351348876953,5.2242655754089355
30.80129623413086,4.0576605796813965,5.34499454498291
31.359296798706055,5.4206223487854,5.475220680236816
31.91458511352539,6.8472747802734375,5.615696430206299
32.46714401245117,8.343074798583984,5.767285346984863
32.996734619140625,9.90806770324707,5.927342414855957
32.3087158203125,11.13481330871582,5.879414081573486
28.336660385131836,11.058341026306152,5.233271598815918
25.14365005493164,10.995647430419922,4.721405982971191
21.81916046142578,10.605472564697266,4.173835277557373
20.59714698791504,11.05561637878418,4.021847724914551
19.449514389038086,11.469037055969238,3.884655237197876
18.367013931274414,11.850052833557129,3.7605626583099365
17.34178924560547,12.20230770111084,3.6481504440307617
16.367094039916992,12.528918266296387,3.546203136444092
16.147756576538086,13.423319816589355,3.612689733505249
16.146682739257812,14.558115005493164,3.740370988845825
16.14043426513672,15.773127555847168,3.8826851844787598
7.504146575927734,7.947299957275391,1.8805092573165894
6.991793632507324,8.027581214904785,1.83151376247406
16.08359146118164,20.037817001342773,4.420580863952637
16.013427734375,21.680112838745117,4.637119293212891
15.603375434875488,23.004409790039062,4.782332420349121
14.457585334777832,23.276016235351562,4.7141547203063965
13.369498252868652,23.588504791259766,4.664812088012695
13.596603393554688,26.409122467041016,5.110384464263916
17.42877960205078,37.47992706298828,7.111342430114746
15.781685829162598,37.84423828125,7.054381370544434
19.467788696289062,52.53034973144531,9.638276100158691
17.06065559387207,52.40618896484375,9.481988906860352
16.65850067138672,59.14462661743164,10.571476936340332
15.130265235900879,63.37284851074219,11.209442138671875
13.190244674682617,67.07170867919922,11.76040267944336
10.57045841217041,68.09610748291016,11.85593032836914
-14.492341041564941,33.47716522216797,6.276115894317627
-24.660858154296875,51.21822738647461,9.780092239379883
-25.52301597595215,47.97684097290039,9.349529266357422
-28.071157455444336,48.009944915771484,9.568178176879883
-30.731279373168945,48.02204132080078,9.808892250061035
-31.631956100463867,45.311134338378906,9.507247924804688
-36.451988220214844,47.98655700683594,10.367732048034668
-39.545223236083984,47.93195343017578,10.69078254699707
-23.072406768798828,25.781654357910156,5.952449321746826
-23.334835052490234,24.056045532226562,5.765981674194336
-23.23699188232422,22.104839324951172,5.517757415771484
-23.145906448364258,20.310855865478516,5.297948837280273
-24.159603118896484,19.539751052856445,5.34584903717041
-26.096651077270508,19.42558479309082,5.597133159637451
-28.209877014160156,19.287303924560547,5.879316329956055
-30.530406951904297,19.120847702026367,6.197726249694824
-33.124542236328125,18.936988830566406,6.564483165740967
-34.674312591552734,18.014930725097656,6.722653388977051
-32.8416862487793,15.420324325561523,6.24210262298584
-32.74990463256836,13.80007553100586,6.1142683029174805
-32.66035842895508,12.241900444030762,6.000818729400635
-32.572662353515625,10.737679481506348,5.90062141418457
-32.48645782470703,9.280200004577637,5.812721252441406
-31.982484817504883,7.761300086975098,5.662142753601074
-36.45878219604492,7.310491561889648,6.397420406341553
-12.165815353393555,1.9347127676010132,2.1193742752075195
-69.73345184326172,8.233436584472656,12.08065128326416
-17.75596809387207,1.3760682344436646,3.063990354537964
-23.244842529296875,0.8642475008964539,4.0019307136535645
-9.519577026367188,-0.02874010056257248,1.6378064155578613
-89.8553466796875,-3.884270668029785,15.473633766174316
-92.34893798828125,-26.98494529724121,16.5526180267334
-92.0599594116211,-30.965288162231445,16.71045684814453
-91.72651672363281,-35.014381408691406,16.891803741455078
-70.00025177001953,-29.995433807373047,13.102315902709961
-64.32332611083984,-30.6773738861084,12.260682106018066
-64.08660125732422,-33.788875579833984,12.464425086975098
-59.397701263427734,-34.43455123901367,11.812170028686523
-54.128868103027344,-34.35700225830078,11.030159950256348
-48.477508544921875,-33.5756950378418,10.145421028137207
-26.882436752319336,-20.263874053955078,5.791800022125244
-24.576189041137695,-20.123332977294922,5.464812278747559
-22.505151748657227,-19.990388870239258,5.178816318511963
-20.630203247070312,-19.86366081237793,4.92714262008667
-19.324626922607422,-20.1640567779541,4.805058479309082
-17.841543197631836,-20.18039321899414,4.634280204772949
-18.227977752685547,-22.367454528808594,4.964224338531494
-19.05494499206543,-25.401451110839844,5.4631524085998535
-18.884994506835938,-27.402711868286133,5.725654125213623
-18.69642448425293,-29.608007431030273,6.0245137214660645
-18.587594985961914,-32.235267639160156,6.4018707275390625
-17.626422882080078,-33.621116638183594,6.531083583831787
-15.741485595703125,-33.2049446105957,6.3221964836120605
-13.955591201782227,-32.77861404418945,6.12924861907959
-12.25998592376709,-32.34303283691406,5.950826644897461
-9.817774772644043,-29.414714813232422,5.335109233856201
-8.613576889038086,-29.73470115661621,5.326037406921387
-7.554106712341309,-30.63243865966797,5.428053379058838
-6.166326999664307,-30.17160415649414,5.298185348510742
-4.893185615539551,-30.05003547668457,5.238062381744385
-3.6027705669403076,-29.571308135986328,5.1252264976501465
-2.3627328872680664,-29.08634376525879,5.020656108856201
-1.1694049835205078,-28.595277786254883,4.923797607421875
-0.019402697682380676,-28.098146438598633,4.8341569900512695
1.0903346538543701,-27.594947814941406,4.751288414001465
2.1625730991363525,-27.085678100585938,4.674794673919678
2.960770606994629,-24.58453369140625,4.26021671295166
3.7671730518341064,-23.338167190551758,4.067197322845459
5.111302852630615,-25.186599731445312,4.421566009521484
6.044810771942139,-24.658517837524414,4.3679938316345215
6.571944713592529,-22.80466651916504,4.083106994628906
7.257684707641602,-21.844873428344727,3.960306406021118
8.808286666870117,-23.334274291992188,4.291050910949707
9.657376289367676,-22.770252227783203,4.255289554595947
10.485994338989258,-22.198152542114258,4.223748683929443
11.295377731323242,-21.61762237548828,4.196303367614746
9.20159912109375,-16.008771896362305,3.176790237426758
12.861122131347656,-20.429523468017578,4.153292655944824
13.619603157043457,-19.821029663085938,4.137561798095703
14.363176345825195,-19.202199935913086,4.12558650970459
13.100099563598633,-16.1204833984375,3.5737547874450684
15.809070587158203,-17.93134880065918,4.112780570983887
16.5130558013916,-17.27805519104004,4.111888885498047
17.205415725708008,-16.611982345581055,4.114665985107422
16.198562622070312,-14.428565979003906,3.7321434020996094
17.44335174560547,-14.323138236999512,3.883131980895996
18.900394439697266,-14.288006782531738,4.076320171356201
19.655284881591797,-13.653519630432129,4.1174163818359375
20.29241943359375,-12.91947078704834,4.138734340667725
19.025793075561523,-11.064927101135254,3.786613702774048
19.398408889770508,-10.261837005615234,3.775613307952881
20.18631935119629,-9.66160774230957,3.8502583503723145
23.01898765563965,-9.901430130004883,4.311140060424805
23.62843894958496,-9.057002067565918,4.353569984436035
24.232254028320312,-8.188053131103516,4.400616645812988
24.830825805664062,-7.292957305908203,4.452474117279053
25.424495697021484,-6.369958400726318,4.509366035461426
26.013622283935547,-5.417149066925049,4.571533679962158
26.598501205444336,-4.4324870109558105,4.639252185821533
27.17942237854004,-3.413722515106201,4.712827682495117
27.756633758544922,-2.358391761779785,4.792606830596924
28.021034240722656,-1.250049114227295,4.825683116912842
29.14655876159668,1.0433671474456787,5.017739772796631
27.17746925354004,2.0684895515441895,4.6892805099487305
30.59459686279297,3.5695152282714844,5.299350261688232
31.153589248657227,4.910244941711426,5.42598295211792
31.709863662719727,6.312771320343018,5.5625834465026855
32.26344299316406,7.782357692718506,5.709967613220215
32.79423141479492,9.319192886352539,5.86548376083374
33.341758728027344,10.940227508544922,6.037202835083008
29.697736740112305,11.084709167480469,5.453665256500244
26.247480392456055,11.017468452453613,4.897449493408203
23.429264068603516,10.961421966552734,4.450234413146973
21.039119720458984,10.893945693969727,4.07614278793335
19.865171432495117,11.320387840270996,3.9336986541748047
18.75960922241211,11.712913513183594,3.8049464225769043
17.714078903198242,12.07540225982666,3.6883721351623535
16.721450805664062,12.41114330291748,3.582691192626953
16.146949768066406,13.022456169128418,3.56888747215271
16.14765167236328,14.130378723144531,3.6916232109069824
16.143381118774414,15.314438819885254,3.8283138275146484
16.133556365966797,16.586318969726562,3.9808990955352783
7.122997760772705,7.937325954437256,1.8348314762115479
16.094196319580078,19.452665328979492,4.343693256378174
16.02142333984375,21.030780792236328,4.548578262329102
15.997090339660645,22.84773063659668,4.798573970794678
14.877473831176758,23.177648544311523,4.738417625427246
13.776863098144531,23.487974166870117,4.684840202331543
13.63723373413086,25.549409866333008,4.982627868652344
13.345845222473145,27.620424270629883,5.277615070343018
16.38748550415039,37.71202850341797,7.074281215667725
14.75240707397461,38.064056396484375,7.023386001586914
17.94890022277832,52.47676467895508,9.541889190673828
16.787336349487305,56.38294982910156,10.121259689331055
16.0823917388916,63.1950569152832,11.218968391418457
14.235506057739258,67.11236572265625,11.803266525268555
11.519603729248047,67.58053588867188,11.794624328613281
-32.473838806152344,78.17534637451172,14.563958168029785
-24.572107315063477,53.032676696777344,10.05583667755127
-24.596345901489258,47.936737060546875,9.26957893371582
-27.11793327331543,47.99991226196289,9.484953880310059
-29.733665466308594,48.01751708984375,9.716794967651367
-30.999101638793945,45.83871841430664,9.520398139953613
-32.858768463134766,44.6152229309082,9.532955169677734
-38.38301086425781,47.955142974853516,10.567777633666992
-41.589195251464844,47.8836669921875,10.911672592163086
-23.37291145324707,24.82171630859375,5.86574125289917
-23.27227020263672,22.8055419921875,5.605862617492676
-23.17881965637207,20.956464767456055,5.376058578491211
-23.4837646484375,19.57647132873535,5.259994029998779
-25.362415313720703,19.470354080200195,5.501008033752441
-27.407302856445312,19.341400146484375,5.771220684051514
-29.647239685058594,19.185876846313477,6.075558185577393
-32.1177978515625,18.999134063720703,6.420129299163818
-34.77816390991211,18.729232788085938,6.795910835266113
-32.37090301513672,15.789569854736328,6.196468353271484
-32.78350830078125,14.390613555908203,6.159726142883301
-32.69318389892578,12.810519218444824,6.0411057472229
-32.60485076904297,11.287264823913574,5.936135768890381
-32.51813507080078,9.813316345214844,5.8437981605529785
-32.43269348144531,8.38193416595459,5.763228893280029
-34.76523971557617,7.5090813636779785,6.1191325187683105
-12.177450180053711,2.1222472190856934,2.1266534328460693
-12.145970344543457,1.6171221733093262,2.108097791671753
-17.670143127441406,1.6334739923477173,3.0530271530151367
-23.163673400878906,1.2055602073669434,3.990596294403076
-34.151878356933594,0.40358418226242065,5.876082897186279
-61.3226318359375,-1.7398700714111328,10.554521560668945
-92.16769409179688,-29.486988067626953,16.648773193359375
-91.87284088134766,-33.51725387573242,16.825319290161133
-53.71773147583008,-22.080942153930664,9.99221134185791
-64.55101776123047,-29.61864471435547,12.218975067138672
-64.17521667480469,-32.62816619873047,12.386139869689941
-76.8717269897461,-23.705646514892578,14.52937126159668
-91.84374237060547,-32.41706848144531,17.591320037841797
-54.33791732788086,-21.671104431152344,10.565967559814453
-67.10130310058594,-29.939178466796875,13.271129608154297
-64.15914916992188,-31.775815963745117,12.931447982788086
-47.80517578125,-26.11825180053711,9.838953018188477
-54.90835952758789,-32.92987060546875,11.564017295837402
-48.201900482177734,-31.607797622680664,10.410811424255371
-28.11568832397461,-20.096668243408203,6.2419843673706055
-25.6873779296875,-19.967472076416016,5.876348495483398
-23.515380859375,-19.844697952270508,5.557499408721924
-21.556058883666992,-19.727130889892578,5.277615547180176
-19.77494239807129,-19.613788604736328,5.03053617477417
-18.535802841186523,-19.924470901489258,4.915116310119629
-18.211284637451172,-21.22501564025879,5.0512542724609375
-18.145437240600586,-22.953306198120117,5.284680366516113
-18.96131134033203,-26.07363510131836,5.822880744934082
-18.78355598449707,-28.14007568359375,6.110783100128174
-18.585763931274414,-30.423370361328125,6.439151287078857
-18.21164321899414,-32.69473648071289,6.759463787078857
-16.346281051635742,-32.33705520629883,6.5443549156188965
-14.576985359191895,-31.965206146240234,6.345370292663574
-12.895447731018066,-31.58047866821289,6.161109924316406
-11.294459342956543,-31.184057235717773,5.99034309387207
-9.379098892211914,-29.553260803222656,5.600116729736328
-8.213144302368164,-30.011444091796875,5.619830131530762
-6.832954406738281,-29.589765548706055,5.484996795654297
-5.57419490814209,-29.498458862304688,5.422150135040283
-4.289718151092529,-29.055177688598633,5.304685115814209
-3.054975986480713,-28.603879928588867,5.195669651031494
-1.866431474685669,-28.144851684570312,5.094542503356934
-0.720819354057312,-27.67828369140625,5.000804901123047
0.3848329782485962,-27.204330444335938,4.914000511169434
1.4532195329666138,-26.72309684753418,4.8337225914001465
2.486804485321045,-26.234638214111328,4.759605884552002
3.3510501384735107,-24.729040145874023,4.507255554199219
4.400357723236084,-24.90621566772461,4.568104267120361
5.330219745635986,-24.402240753173828,4.511325836181641
6.233756065368652,-23.89085578918457,4.45951509475708
6.525568008422852,-21.44301414489746,4.048298358917236
7.325004577636719,-21.001028060913086,4.017205715179443
8.917352676391602,-22.602567672729492,4.388586044311523
9.741415977478027,-22.052457809448242,4.354299068450928
10.545982360839844,-21.49365997314453,4.324185848236084
11.332205772399902,-20.925823211669922,4.29813289642334
12.101155281066895,-20.348581314086914,4.276043891906738
12.853826522827148,-19.761526107788086,4.257830619812012
13.5911865234375,-19.164194107055664,4.243430137634277
14.314075469970703,-18.556129455566406,4.2327961921691895
13.386308670043945,-15.982274055480957,3.7654049396514893
15.719795227050781,-17.305604934692383,4.222661018371582
16.404098510742188,-16.662004470825195,4.223128318786621
15.465103149414062,-14.494610786437988,3.828279495239258
16.627832412719727,-14.374272346496582,3.9698500633239746
18.004314422607422,-14.341907501220703,4.157461166381836
18.82525634765625,-13.79716682434082,4.215537071228027
19.451465606689453,-13.088455200195312,4.234512805938721
20.069177627563477,-12.362809181213379,4.2573442459106445
18.913698196411133,-10.627416610717773,3.9184274673461914
19.33897590637207,-9.866018295288086,3.921192169189453
21.11191749572754,-9.722326278686523,4.198028564453125
22.711740493774414,-9.372482299804688,4.4376397132873535
23.299694061279297,-8.536747932434082,4.48184061050415
23.881423950195312,-7.676695823669434,4.530712127685547
24.457218170166016,-6.790764808654785,4.5844526290893555
25.027366638183594,-5.877270698547363,4.643282890319824
25.592098236083984,-4.934415817260742,4.707446575164795
26.151611328125,-3.9602162837982178,4.777223110198975
26.706113815307617,-2.9525387287139893,4.852911949157715
27.255762100219727,-1.9090348482131958,4.934856414794922
27.49706268310547,-0.8181604743003845,4.968575954437256
28.031356811523438,0.2925494909286499,5.063157081604004
28.561058044433594,1.4469367265701294,5.165170669555664
29.40730094909668,2.6775588989257812,5.3333611488342285
29.93349838256836,3.9433388710021973,5.453134536743164
30.454862594604492,5.264282703399658,5.582164287567139
30.971223831176758,6.644867897033691,5.72114896774292
31.482324600219727,8.090006828308105,5.870901584625244
31.968332290649414,9.599265098571777,6.0286455154418945
32.16537857055664,11.085411071777344,6.144881725311279
28.22469139099121,11.014647483825684,5.472233772277832
25.05398178100586,10.956435203552246,4.938904762268066
22.440153121948242,10.90731143951416,4.506441116333008
20.273361206054688,10.881821632385254,4.155803680419922
19.154035568237305,11.294798851013184,4.016193866729736
18.096769332885742,11.675694465637207,3.8897881507873535
17.09415054321289,12.028058052062988,3.7751712799072266
16.13981056213379,12.35493278503418,3.6711411476135254
16.0028076171875,13.302824974060059,3.7585926055908203
14.738685607910156,13.2886381149292,3.584272623062134
15.98482608795166,15.621060371398926,4.036784648895264
7.489816665649414,7.932127952575684,1.9704078435897827
7.007080078125,8.045134544372559,1.9269450902938843
15.907285690307617,19.818166732788086,4.589900493621826
15.833582878112793,21.436630249023438,4.81342077255249
15.423439025878906,22.739124298095703,4.962643623352051
14.293209075927734,23.01138687133789,4.892700672149658
13.263239860534668,23.401044845581055,4.858249664306641
13.628400802612305,26.470870971679688,5.377474784851074
17.230321884155273,37.05315017700195,7.380546569824219
15.603407859802246,37.416725158691406,7.322098731994629
13.994155883789062,37.7607307434082,7.273444175720215
16.98467445373535,52.17276382446289,9.90994644165039
16.338783264160156,58.00951385498047,10.885046005249023
14.958927154541016,62.65520477294922,11.63452434539795
13.172022819519043,66.97901916503906,12.32912826538086
10.632807731628418,68.49791717529297,12.519915580749512
-0.306623250246048,45.577693939208984,8.232199668884277
-31.508787155151367,81.63294219970703,15.804314613342285
-14.46146011352539,33.405845642089844,6.574690818786621
-24.58930206298828,51.06962585449219,10.237444877624512
-25.198190689086914,47.36625289916992,9.690308570861816
-26.890331268310547,45.99034881591797,9.622222900390625
-30.310176849365234,47.364009857177734,10.156370162963867
-31.58540916442871,45.24447250366211,9.966115951538086
-35.93825149536133,47.310272216796875,10.730748176574707
-38.97078323364258,47.23569107055664,11.060262680053711
-23.32052993774414,26.058923721313477,6.316141605377197
-23.294797897338867,24.014772415161133,6.042799472808838
-23.198837280273438,22.06854248046875,5.783083915710449
-23.109413146972656,20.278833389282227,5.553069591522217
-23.723318099975586,19.186891555786133,5.510777950286865
-25.603652954101562,19.058616638183594,5.764922618865967
-27.650617599487305,18.904935836791992,6.049801826477051
-29.893056869506836,18.7216796875,6.370604991912842
-32.366573333740234,18.503650665283203,6.733765125274658
-34.22581100463867,17.781909942626953,6.966218948364258
-32.79963684082031,15.400579452514648,6.544631004333496
-32.708831787109375,13.782763481140137,6.410768032073975
-32.620155334472656,12.226832389831543,6.291963577270508
-32.53323745727539,10.724684715270996,6.187033653259277
-32.44771957397461,9.269139289855957,6.09497594833374
-32.363277435302734,7.853711128234863,6.014946460723877
-34.93266677856445,7.004487991333008,6.434950351715088
-12.151801109313965,1.9324842691421509,2.2223775386810303
-67.88792419433594,8.015535354614258,12.346744537353516
-17.71094512939453,1.3725790977478027,3.208451509475708
-23.192840576171875,0.8623138070106506,4.191867828369141
-9.508858680725098,-0.02870786190032959,1.717450499534607
-89.73370361328125,-3.8790102005004883,16.222381591796875
-92.24273681640625,-26.95391273498535,17.35712242126465
-91.95308685302734,-30.929344177246094,17.522438049316406
-83.85115814208984,-32.008155822753906,16.21066665649414
-70.30036163330078,-30.12403106689453,13.813910484313965
-64.2457046508789,-30.640357971191406,12.855852127075195
-64.00798797607422,-33.74741744995117,13.069221496582031
-59.587581634521484,-34.54462814331055,12.440176010131836
-54.05984878540039,-34.31319808959961,11.564806938171387
-29.0877685546875,-20.146289825439453,6.390736103057861
-26.551422119140625,-20.014352798461914,6.005418300628662
-24.29044532775879,-19.889366149902344,5.670309543609619
-22.25704002380371,-19.76999855041504,5.376832962036133
-20.413694381713867,-19.65519905090332,5.118277072906494
-19.134374618530273,-19.965553283691406,4.994735240936279
-18.25946807861328,-20.653108596801758,4.9790754318237305
-18.19828987121582,-22.331016540527344,5.203001976013184
-19.02253532409668,-25.358253479003906,5.7255167961120605
-18.85133171081543,-27.353885650634766,6.000136375427246
-18.66136360168457,-29.552486419677734,6.312734127044678
-18.550762176513672,-32.17140197753906,6.707429885864258
-17.023378372192383,-32.47084426879883,6.621819972991943
-15.21960163116455,-32.10406494140625,6.417055606842041
-13.506572723388672,-31.723957061767578,6.227512359619141
-11.87664794921875,-31.331745147705078,6.0518975257873535
-9.83279037475586,-29.45970344543457,5.609415054321289
-8.586516380310059,-29.64129638671875,5.573760986328125
-7.335643291473389,-29.746496200561523,5.53361701965332
-6.061763763427734,-29.66002082824707,5.467775821685791
-4.757986545562744,-29.219799041748047,5.347041130065918
-3.5053153038024902,-28.771427154541016,5.234972953796387
-2.300092935562134,-28.315208435058594,5.13099479675293
-1.1389880180358887,-27.85141372680664,5.03458309173584
-0.018899455666542053,-27.380168914794922,4.945267677307129
1.0629419088363647,-26.901622772216797,4.862624168395996
2.1090970039367676,-26.415830612182617,4.7862749099731445
2.96282958984375,-24.601627349853516,4.475528717041016
3.772573947906494,-23.371631622314453,4.275904655456543
4.9900641441345215,-24.58917236328125,4.531698226928711
5.903124809265137,-24.08053207397461,4.478080749511719
6.612273216247559,-22.944599151611328,4.3127899169921875
7.26153039932251,-21.85645294189453,4.159770965576172
8.607942581176758,-22.80352783203125,4.402326583862305
9.439515113830566,-22.25655174255371,4.366464614868164
10.251144409179688,-21.70099449157715,4.334824562072754
11.044013977050781,-21.136537551879883,4.307286739349365
9.216401100158691,-16.034523010253906,3.340390205383301
12.577776908874512,-19.979434967041016,4.264106750488281
13.320666313171387,-19.38597297668457,4.248307704925537
14.048809051513672,-18.781925201416016,4.236286640167236
13.124617576599121,-16.150653839111328,3.758782148361206
15.464105606079102,-17.540069580078125,4.223419666290283
16.152809143066406,-16.9011173248291,4.2225260734558105
15.24128246307373,-14.715605735778809,3.8265023231506348
16.150487899780273,-14.385741233825684,3.906409502029419
17.48103141784668,-14.354084968566895,4.085357189178467
18.591806411743164,-14.054734230041504,4.20949125289917
19.22127914428711,-13.35203742980957,4.227062225341797
19.842077255249023,-12.632757186889648,4.248460292816162
18.894128799438477,-10.988346099853516,3.9477128982543945
19.167295455932617,-10.139575958251953,3.9164552688598633
20.201255798339844,-9.668758392333984,4.045030117034912
22.493011474609375,-9.675188064575195,4.422466278076172
23.083358764648438,-8.848067283630371,4.464986324310303
23.667335510253906,-7.997171878814697,4.512113094329834
24.245298385620117,-7.120983123779297,4.564030647277832
24.8174991607666,-6.217878341674805,4.620952606201172
25.384199142456055,-5.286076068878174,4.683120250701904
25.94561767578125,-4.323689937591553,4.750789642333984
26.50196647644043,-3.328634262084961,4.824255466461182
27.053390502929688,-2.298638105392456,4.903848171234131
27.29862403869629,-1.2178210020065308,4.9354400634765625
28.366025924682617,1.0154262781143188,5.126607418060303
26.445125579833984,2.0127508640289307,4.79019832611084
29.739765167236328,3.469778299331665,5.407873630523682
30.26293182373047,4.769860744476318,5.53340482711792
30.781166076660156,6.127889633178711,5.668623924255371
31.29423713684082,7.548584461212158,5.814304351806641
31.782485961914062,9.031682014465332,5.967669486999512
32.283966064453125,10.5931396484375,6.136837482452393
29.575464248657227,11.039073944091797,5.701740264892578
26.150405883789062,10.976719856262207,5.122374534606934
23.350482940673828,10.924570083618164,4.656193256378174
20.703989028930664,10.720418930053711,4.211013317108154
19.559633255004883,11.146272659301758,4.066117286682129
18.48036766052246,11.538568496704102,3.9350128173828125
17.458370208740234,11.901084899902344,3.8161940574645996
16.486892700195312,12.237046241760254,3.7083852291107178
16.003751754760742,12.90696907043457,3.713425636291504
15.067623138427734,13.185272216796875,3.616293430328369
15.98990535736084,15.168839454650879,3.980790376663208
15.974117279052734,16.422412872314453,4.137887477874756
7.109731197357178,7.922540187835693,1.9226351976394653
15.920811653137207,19.24309539794922,4.510923385620117
15.844893455505371,20.79904556274414,4.722525119781494
15.811244010925293,22.582304000854492,4.979068279266357
14.707465171813965,22.91279411315918,4.917593002319336
13.615915298461914,23.21358299255371,4.860735893249512
13.668326377868652,25.607667922973633,5.242739200592041
13.50046157836914,27.9404354095459,5.604685306549072
16.201839447021484,37.28483200073242,7.3425211906433105
14.58648681640625,37.63592529296875,7.290287971496582
12.98645305633545,37.968162536621094,7.247655868530273
16.478612899780273,55.34610366821289,10.430004119873047
15.900116920471191,62.47882843017578,11.644294738769531
14.21577262878418,67.019287109375,12.373997688293457
11.503775596618652,67.48767852783203,12.36509895324707
7.07621955871582,79.77446746826172,14.465034484863281
-29.751564025878906,80.6208267211914,15.52119255065918
-27.396236419677734,65.95185852050781,12.8987398147583
-24.688549041748047,53.28401565551758,10.606745719909668
-24.27588653564453,47.31221389770508,9.604513168334961
-26.767860412597656,47.38029479980469,9.828859329223633
-29.342632293701172,47.386043548583984,10.066635131835938
-30.382593154907227,44.92710494995117,9.795838356018066
-33.186439514160156,45.06013870239258,10.107589721679688
-37.83176803588867,47.26644515991211,10.934830665588379
-40.972774505615234,47.173946380615234,11.285399436950684
-23.332117080688477,24.778396606445312,6.1471662521362305
-23.233449935913086,22.76750373840332,5.875270843505859
-23.14173698425293,20.922935485839844,5.634809494018555
-23.066377639770508,19.228527069091797,5.4238481521606445
-24.891372680664062,19.108741760253906,5.667755126953125
-26.873764038085938,18.964881896972656,5.940739631652832
-29.040271759033203,18.793088912963867,6.247601509094238
-31.423770904541016,18.588581085205078,6.594274997711182
-34.09232711791992,18.35988998413086,6.993722438812256
-32.80667495727539,16.00213050842285,6.592684268951416
-32.742088317871094,14.37242603302002,6.458371162414551
-32.652671813964844,12.794644355773926,6.334155082702637
-32.56515121459961,11.27352523803711,6.2242279052734375
-32.47915267944336,9.801554679870605,6.1275224685668945
-32.39434814453125,8.372027397155762,6.043142318725586
-33.37078857421875,7.207889080047607,6.166258811950684
-12.163373947143555,2.1197938919067383,2.2300000190734863
-12.13205337524414,1.615268349647522,2.210566997528076
-17.666465759277344,1.6331361532211304,3.2044308185577393
-23.169557571411133,1.2058659791946411,4.190431118011475
-34.11338806152344,0.403130441904068,6.161818027496338
-55.86626052856445,-1.5850619077682495,10.094340324401855
-92.06108856201172,-29.452890396118164,17.457828521728516
-91.76544952392578,-33.47806930541992,17.642738342285156
-53.6950798034668,-22.07162857055664,10.48550033569336
-64.77227783203125,-29.720169067382812,12.87156867980957
-64.09698486328125,-32.588382720947266,12.987238883972168
-76.71659088134766,-23.65779685974121,15.190092086791992
-73.1841049194336,-25.83098030090332,14.68441104888916
-76.19463348388672,-30.388025283813477,15.521066665649414
-67.39106750488281,-30.068470001220703,13.962723731994629
-56.71381378173828,-28.088396072387695,11.974801063537598
-47.74604034423828,-26.085954666137695,10.294429779052734
-54.469112396240234,-32.66644287109375,12.017427444458008
-48.163604736328125,-31.582698822021484,10.897586822509766
-27.759340286254883,-19.841955184936523,6.456156253814697
-25.380651473999023,-19.72903823852539,6.082490921020508
-23.249649047851562,-19.620445251464844,5.7561845779418945
-21.324596405029297,-19.515310287475586,5.4694061279296875
-19.552738189697266,-19.39340591430664,5.210718154907227
-18.35742950439453,-19.73273468017578,5.0994720458984375
-18.255552291870117,-21.2766170501709,5.304502964019775
-18.11537742614746,-22.9152889251709,5.527002334594727
-18.928470611572266,-26.028486251831055,6.089422702789307
-18.749420166015625,-28.08893394470215,6.389955043792725
-18.550174713134766,-30.365123748779297,6.732666492462158
-17.595321655273438,-31.588258743286133,6.841493129730225
-15.810100555419922,-31.276342391967773,6.630916595458984
-14.112893104553223,-30.94754981994629,6.43571662902832
-12.496471405029297,-30.603391647338867,6.254617691040039
-10.954407691955566,-30.245159149169922,6.086476802825928
-9.480891227722168,-29.87398910522461,5.930288314819336
-7.9781107902526855,-29.152587890625,5.718795299530029
-6.719077110290527,-29.096635818481445,5.650259017944336
-5.421834468841553,-28.692188262939453,5.52493143081665
-4.174943447113037,-28.277774810791016,5.408442974090576
-2.9748713970184326,-27.853866577148438,5.300207138061523
-1.8184216022491455,-27.420860290527344,5.199700832366943
-0.7026103734970093,-26.979068756103516,5.1064453125
0.37527337670326233,-26.52872657775879,5.020007133483887
1.4177008867263794,-26.07002067565918,4.940001964569092
2.426939010620117,-25.603084564208984,4.8660807609558105
3.3606815338134766,-24.800098419189453,4.735319137573242
4.297297477722168,-24.322893142700195,4.673415184020996
5.206898212432861,-23.837656021118164,4.616674423217773
6.091147422790527,-23.344310760498047,4.564864635467529
6.490904808044434,-21.32910919189453,4.218423366546631
7.211915969848633,-20.67679214477539,4.143407344818115
8.719059944152832,-22.099971771240234,4.495205879211426
9.526453018188477,-21.565828323364258,4.460860252380371
10.314838409423828,-21.0225772857666,4.430684566497803
11.085304260253906,-20.469890594482422,4.404569625854492
11.838808059692383,-19.907453536987305,4.382427215576172
12.576332092285156,-19.334909439086914,4.364165782928467
13.298742294311523,-18.751842498779297,4.3497233390808105
14.006845474243164,-18.15782928466797,4.339051246643066
