-7.875702381134033,-7.220384120941162,2.1137611865997314
-7.515994071960449,-7.46803092956543,2.0961077213287354
-7.156853675842285,-7.706770896911621,2.080676794052124
-6.797835350036621,-7.937087059020996,2.067401885986328
-6.438521385192871,-8.159406661987305,2.0562260150909424
-6.0784592628479,-8.374139785766602,2.0471017360687256
-5.717224597930908,-8.581645965576172,2.0399911403656006
-5.35438871383667,-8.78225326538086,2.0348639488220215
-4.989508152008057,-8.976268768310547,2.0316991806030273
-4.622135162353516,-9.163968086242676,2.030482769012451
-4.251796245574951,-9.345598220825195,2.03121018409729
-3.8780410289764404,-9.52137565612793,2.033886194229126
-3.5003879070281982,-9.691498756408691,2.0385196208953857
-3.1183242797851562,-9.856149673461914,2.0451300144195557
-2.731330156326294,-10.015475273132324,2.053745746612549
-2.3388776779174805,-10.169622421264648,2.064405918121338
-1.9403918981552124,-10.318799018859863,2.077173948287964
-1.5352497100830078,-10.46298599243164,2.09208345413208
-1.1228176355361938,-10.602248191833496,2.1091995239257812
-0.7024088501930237,-10.736634254455566,2.128596067428589
-0.27330300211906433,-10.866168022155762,2.150362253189087
0.16526126861572266,-10.99084758758545,2.1745941638946533
0.6141190528869629,-11.110654830932617,2.2014050483703613
1.0741662979125977,-11.225541114807129,2.2309224605560303
1.5463485717773438,-11.335427284240723,2.2632875442504883
2.0261809825897217,-11.409025192260742,2.292393922805786
2.4697155952453613,-11.258528709411621,2.2802634239196777
2.972365379333496,-11.350218772888184,2.321162462234497
3.4914841651916504,-11.436429977416992,2.365588665008545
4.0285234451293945,-11.516925811767578,2.4137887954711914
4.585076808929443,-11.591415405273438,2.46604323387146
5.1628923416137695,-11.65955924987793,2.522662401199341
5.495580196380615,-11.17531681060791,2.463703155517578
5.493129730224609,-10.12197494506836,2.2783312797546387
5.642895221710205,-9.46955680847168,2.18078351020813
7.921125888824463,-12.154280662536621,2.8700733184814453
8.657203674316406,-12.184048652648926,2.9569039344787598
8.482237815856934,-10.975796699523926,2.74422025680542
10.247049331665039,-12.21212387084961,3.153785467147827
11.109383583068848,-12.208269119262695,3.2654953002929688
12.023407936096191,-12.1907320022583,3.387363910675049
12.995129585266113,-12.157938003540039,3.5205752849578857
12.608352661132812,-10.879948616027832,3.294633388519287
15.140634536743164,-12.038726806640625,3.82676362991333
16.33197784423828,-11.947484970092773,4.003237724304199
16.885684967041016,-11.340164184570312,4.0239691734313965
19.00830078125,-11.685949325561523,4.414261341094971
16.890729904174805,-9.470970153808594,3.83099102973938
18.2537899017334,-9.291927337646484,4.052144527435303
19.895408630371094,-9.140654563903809,4.331489562988281
22.125774383544922,-9.107604026794434,4.733526706695557
24.822969436645508,-9.069793701171875,5.228325366973877
28.163156509399414,-9.025382041931152,5.850698471069336
32.42312240600586,-8.97145938873291,6.655371189117432
36.15814971923828,-8.457198143005371,7.346316814422607
39.86457443237305,-7.649472236633301,8.030388832092285
44.210426330566406,-6.6546430587768555,8.844786643981934
49.385841369628906,-5.415411949157715,9.828689575195312
56.82644271850586,-3.929380416870117,11.268962860107422
64.79119873046875,-1.870068073272705,12.823143005371094
74.9377212524414,0.8487502336502075,14.826067924499512
86.56954956054688,4.462918281555176,17.149015426635742
91.91435241699219,8.451268196105957,18.260358810424805
80.7783432006836,14.036941528320312,16.220073699951172
93.61005401611328,24.1436824798584,19.125164031982422
70.82068634033203,21.33432960510254,14.632552146911621
71.57701873779297,24.73943519592285,14.982218742370605
57.845035552978516,34.179664611816406,13.292081832885742
30.833473205566406,19.932092666625977,7.263425350189209
28.372528076171875,20.001728057861328,6.867583751678467
26.139902114868164,20.0468807220459,6.516991138458252
24.132112503051758,20.096935272216797,6.212844371795654
22.2569580078125,20.10320472717285,5.933366298675537
20.52509307861328,20.093769073486328,5.6824445724487305
18.917577743530273,20.07053565979004,5.456384181976318
18.479692459106445,21.255529403686523,5.57205867767334
18.634023666381836,23.257692337036133,5.895766735076904
18.79305648803711,25.49078369140625,6.265265941619873
18.802093505859375,27.77348518371582,6.635168552398682
8.232512474060059,13.28028392791748,3.0911319255828857
7.61400032043457,13.461687088012695,3.059633255004883
15.879136085510254,30.910118103027344,6.874739646911621
14.266794204711914,30.75174331665039,6.706529140472412
24.117727279663086,57.97904968261719,12.422933578491211
21.38808822631836,57.86995315551758,12.205456733703613
19.078224182128906,58.7812614440918,12.226014137268066
17.307138442993164,61.65781021118164,12.669356346130371
16.738468170166016,70.38612365722656,14.312997817993164
-28.577789306640625,83.68621826171875,17.49457359313965
-27.769588470458984,71.75535583496094,15.221516609191895
-24.605178833007812,56.69935607910156,12.227643013000488
-15.719325065612793,32.57337188720703,7.155202388763428
-28.661592483520508,86.90789794921875,18.895734786987305
-14.40479564666748,38.41607666015625,8.471592903137207
-24.788496017456055,58.806583404541016,13.177273750305176
-24.434465408325195,52.022666931152344,11.86767864227295
-15.633283615112305,30.081018447875977,6.999962329864502
-15.478720664978027,27.06743049621582,6.438299655914307
-15.348360061645508,24.499988555908203,5.9695539474487305
-15.843648910522461,23.16690444946289,5.795261383056641
-17.20359992980957,23.105525970458984,5.948119163513184
-18.593172073364258,22.983278274536133,6.104150295257568
-20.012388229370117,22.799989700317383,6.264092922210693
-20.23773193359375,21.268888473510742,6.062077045440674
-16.927331924438477,16.415687561035156,4.8688459396362305
-16.880266189575195,15.102580070495605,4.676886558532715
-17.923908233642578,14.783945083618164,4.797490119934082
-15.95903205871582,12.119784355163574,4.137814998626709
-16.065195083618164,11.21219539642334,4.045197010040283
-17.173892974853516,10.987239837646484,4.2097392082214355
-11.803674697875977,6.899563312530518,2.8230950832366943
-17.9194278717041,9.530009269714355,4.190782070159912
-17.598201751708984,8.470580101013184,4.032748222351074
-16.84453582763672,7.289538860321045,3.7898223400115967
-16.807453155517578,6.484943866729736,3.7198123931884766
-17.161619186401367,5.841042995452881,3.743201971054077
-17.91246795654297,5.303877353668213,3.8573505878448486
-17.68391227722168,4.47200870513916,3.766383647918701
-17.129331588745117,3.606431007385254,3.614464521408081
-16.597869873046875,2.803518295288086,3.4757299423217773
-16.087100982666016,2.0565271377563477,3.3487536907196045
-15.920870780944824,1.388070821762085,3.299867630004883
-15.435481071472168,0.7226611971855164,3.1906628608703613
-14.965481758117676,0.0988018810749054,3.0901918411254883
-14.509397506713867,-0.48740512132644653,2.997640609741211
-14.065889358520508,-1.0394054651260376,2.912292003631592
-13.63375186920166,-1.560235857963562,2.8335185050964355
-13.211921691894531,-2.0525622367858887,2.7607693672180176
-12.799396514892578,-2.518789291381836,2.693552255630493
-12.395299911499023,-2.9610257148742676,2.6314380168914795
-11.998801231384277,-3.381171464920044,2.5740420818328857
-11.609142303466797,-3.7809298038482666,2.5210232734680176
-11.225629806518555,-4.161825180053711,2.4720780849456787
-10.847609519958496,-4.525235652923584,2.4269349575042725
-10.474472999572754,-4.872403621673584,2.3853514194488525
-10.105646133422852,-5.204453468322754,2.3471121788024902
-9.740595817565918,-5.522394180297852,2.312023401260376
-9.378806114196777,-5.827157020568848,2.279914140701294
-9.01978588104248,-6.119584083557129,2.25062894821167
-8.66307258605957,-6.400434970855713,2.224032402038574
-8.308218955993652,-6.670405864715576,2.1999998092651367
-7.954774856567383,-6.930136680603027,2.17842698097229
-7.602327346801758,-7.180210590362549,2.1592159271240234
-7.250448226928711,-7.421154975891113,2.1422841548919678
-6.898736953735352,-7.6534528732299805,2.1275601387023926
-6.5467848777771,-7.877552509307861,2.1149802207946777
-6.194190502166748,-8.093852043151855,2.1044936180114746
-5.840537071228027,-8.302724838256836,2.0960569381713867
-5.485434532165527,-8.504508972167969,2.089634656906128
-5.128471851348877,-8.69949722290039,2.0852017402648926
-4.769223690032959,-8.887984275817871,2.082738161087036
-4.407271385192871,-9.070208549499512,2.0822367668151855
-4.042189121246338,-9.246397018432617,2.083693265914917
-3.673509120941162,-9.41675090789795,2.0871145725250244
-3.300785779953003,-9.581442832946777,2.092515230178833
-2.9235270023345947,-9.740633964538574,2.099916458129883
-2.5412395000457764,-9.894451141357422,2.1093480587005615
-2.153394937515259,-10.043009757995605,2.1208486557006836
-1.759475827217102,-10.18657112121582,2.13450288772583
-1.3588526248931885,-10.324980735778809,2.150320053100586
-0.9509100317955017,-10.458335876464844,2.1683804988861084
-0.5349987745285034,-10.586666107177734,2.188760757446289
-0.11043204367160797,-10.709968566894531,2.2115488052368164
0.32354736328125,-10.828228950500488,2.236846685409546
0.7677271366119385,-10.941387176513672,2.2647690773010254
1.222982406616211,-11.049381256103516,2.2954461574554443
1.6902263164520264,-11.152108192443848,2.329021692276001
2.1175930500030518,-10.975406646728516,2.308035135269165
2.59985089302063,-11.064780235290527,2.346914052963257
3.0969817638397217,-11.148519515991211,2.3891544342041016
3.6102752685546875,-11.226393699645996,2.43498158454895
4.141103744506836,-11.298127174377441,2.4846432209014893
4.691004753112793,-11.363393783569336,2.5384204387664795
5.261636257171631,-11.421808242797852,2.596625328063965
5.480704307556152,-10.73973560333252,2.4896457195281982
5.434798717498779,-9.669519424438477,2.2903525829315186
5.810586929321289,-9.429984092712402,2.2871005535125732
6.572365760803223,-9.764923095703125,2.4304561614990234
7.168539047241211,-9.77840805053711,2.5035221576690674
7.794808387756348,-9.782804489135742,2.582794666290283
8.454258918762207,-9.777219772338867,2.668900489807129
11.117880821228027,-11.859286308288574,3.356541872024536
9.887300491333008,-9.731807708740234,2.864593029022217
10.66954231262207,-9.689373970031738,2.9759621620178223
11.502455711364746,-9.63167953491211,3.097771167755127
12.39220905303955,-9.55678939819336,3.231309413909912
13.346025466918945,-9.462421417236328,3.3780946731567383
14.372329711914062,-9.345867156982422,3.5399045944213867
15.561833381652832,-9.251859664916992,3.7382476329803467
17.047245025634766,-9.229024887084961,4.002708435058594
18.765363693237305,-9.204401969909668,4.31574821472168
20.782779693603516,-9.177431106567383,4.691079616546631
23.193944931030273,-9.147317886352539,5.148159503936768
26.13753318786621,-9.112919807434082,5.715586185455322
20.241859436035156,-6.157271385192871,4.368696212768555
21.265352249145508,-5.545841693878174,4.537805080413818
35.079200744628906,-7.657814025878906,7.4138503074646
38.518680572509766,-6.8003764152526855,8.07646369934082
42.515663146972656,-5.755926132202148,8.858861923217773
48.212528228759766,-4.564047336578369,9.999589920043945
53.96977615356445,-2.9281506538391113,11.160249710083008
69.81409454345703,1.8268604278564453,14.420381546020508
79.10092163085938,5.255529880523682,16.369029998779297
96.42821502685547,10.311101913452148,20.024322509765625
93.71102905273438,17.720348358154297,19.69268226623535
93.58038330078125,21.622272491455078,19.83188247680664
68.89086151123047,18.862455368041992,14.74837875366211
69.61149597167969,22.1016845703125,15.080700874328613
70.30841064453125,25.47476577758789,15.441084861755371
58.03767013549805,23.70740509033203,12.945066452026367
58.094757080078125,29.375877380371094,13.441964149475098
73.1036376953125,40.732234954833984,17.279659271240234
29.149320602416992,19.462514877319336,7.237154483795166
26.872079849243164,19.547096252441406,6.861334323883057
24.79498291015625,19.606416702270508,6.526975154876709
22.918489456176758,19.669296264648438,6.236135482788086
21.15776252746582,19.688112258911133,5.967594146728516
19.52505111694336,19.6904239654541,5.725738525390625
18.057218551635742,19.736299514770508,5.523516654968262
18.188400268554688,21.55823516845703,5.824059963226318
18.32089614868164,23.575218200683594,6.164994239807129
18.455095291137695,25.825929641723633,6.554243564605713
18.458309173583984,28.156625747680664,6.951793193817139
7.937230110168457,13.238571166992188,3.187206268310547
16.677383422851562,30.534337997436523,7.183964729309082
15.049310684204102,30.39595603942871,7.003398418426514
13.565099716186523,30.413116455078125,6.876142501831055
23.046669006347656,57.80809020996094,12.850046157836914
20.357913970947266,57.7010612487793,12.634113311767578
18.248870849609375,59.20314025878906,12.792035102844238
17.35732078552246,65.55941009521484,14.003342628479004
16.603696823120117,74.72802734375,15.806382179260254
13.388776779174805,74.22761535644531,15.574106216430664
10.319398880004883,74.15389251708984,15.459090232849121
-13.90050220489502,38.81315994262695,8.512741088867188
-27.74928092956543,68.65892791748047,15.29102611541748
-24.556316375732422,54.363643646240234,12.317248344421387
-15.651719093322754,31.24057960510254,7.214963912963867
-15.45228385925293,27.97630500793457,6.599224090576172
-15.314423561096191,25.271530151367188,6.101511001586914
-15.370879173278809,23.20712661743164,5.747641563415527
-16.70765495300293,23.14858055114746,5.894739627838135
-18.071887969970703,23.0294132232666,6.044525623321533
-19.46336555480957,22.8494815826416,6.197672367095947
-20.269779205322266,21.945520401000977,6.168533802032471
-20.18587875366211,20.165388107299805,5.891520023345947
-16.79501724243164,15.480987548828125,4.716387748718262
-17.324533462524414,14.72683334350586,4.695027828216553
-16.13579559326172,12.635796546936035,4.231788635253906
-15.888958930969238,11.44343376159668,4.043127059936523
-16.697790145874023,11.035138130187988,4.13271427154541
-11.813728332519531,7.142657279968262,2.8505311012268066
-9.233092308044434,5.087522506713867,2.176738739013672
-17.771482467651367,8.881060600280762,4.102210521697998
-17.024072647094727,7.669068813323975,3.85539174079895
-16.81110954284668,6.77455472946167,3.742457866668701
-16.9404296875,6.047637939453125,3.7141191959381104
-17.632959365844727,5.506922721862793,3.8143324851989746
-17.895055770874023,4.808945178985596,3.826127767562866
-17.331262588500977,3.918329954147339,3.6689374446868896
-16.79156494140625,3.09312105178833,3.525513172149658
-16.273414611816406,2.326195240020752,3.394346237182617
-15.774601936340332,1.6114413738250732,3.2741446495056152
-15.61281681060791,0.9632716178894043,3.229917287826538
-15.137312889099121,0.3245520293712616,3.1263229846954346
-14.676261901855469,-0.27512305974960327,3.030937433242798
-14.228251457214355,-0.8393862843513489,2.9430060386657715
-13.792045593261719,-1.3713910579681396,2.8618741035461426
-13.366532325744629,-1.8739503622055054,2.786959648132324
-12.950678825378418,-2.349558115005493,2.717752695083618
-12.543569564819336,-2.80041766166687,2.6538023948669434
-12.144352912902832,-3.228510856628418,2.5947065353393555
-11.752248764038086,-3.6356148719787598,2.5401084423065186
-11.366547584533691,-4.023306846618652,2.489692211151123
-10.986573219299316,-4.393021106719971,2.4431748390197754
-10.611696243286133,-4.746054649353027,2.4003026485443115
-10.241348266601562,-5.083558082580566,2.3608522415161133
-9.874964714050293,-5.406594276428223,2.324622392654419
-9.512022972106934,-5.716122627258301,2.2914321422576904
-9.152050971984863,-6.012998580932617,2.261122226715088
-8.794540405273438,-6.298040390014648,2.2335474491119385
-8.439048767089844,-6.571951389312744,2.2085819244384766
-8.08513355255127,-6.835394859313965,2.186112403869629
-7.732365131378174,-7.088972568511963,2.1660385131835938
-7.380324840545654,-7.333226680755615,2.1482748985290527
-7.028600692749023,-7.568662166595459,2.1327433586120605
-6.676778793334961,-7.795742988586426,2.1193785667419434
-6.3244709968566895,-8.014875411987305,2.1081249713897705
-5.971256732940674,-8.226451873779297,2.098935127258301
-5.616735935211182,-8.43081283569336,2.091773509979248
-5.260510444641113,-8.628277778625488,2.0866079330444336
-4.902164459228516,-8.819129943847656,2.083418846130371
-4.541262149810791,-9.003637313842773,2.0821943283081055
-4.17738151550293,-9.182031631469727,2.082927703857422
-3.810081720352173,-9.354519844055176,2.085622549057007
-3.4389095306396484,-9.521280288696289,2.0902905464172363
-3.0633785724639893,-9.682491302490234,2.0969486236572266
-2.683009624481201,-9.838278770446777,2.1056265830993652
-2.297280788421631,-9.988764762878418,2.1163580417633057
-1.9056731462478638,-10.134180068969727,2.1292150020599365
-1.5075886249542236,-10.274466514587402,2.1442229747772217
-1.102423906326294,-10.409682273864746,2.1614468097686768
-0.6895343065261841,-10.539867401123047,2.1809608936309814
-0.26824453473091125,-10.665032386779785,2.202847957611084
0.16216778755187988,-10.785154342651367,2.2272069454193115
0.602488100528717,-10.900202751159668,2.2541468143463135
1.053551435470581,-11.010116577148438,2.2837905883789062
1.5162529945373535,-11.114800453186035,2.3162782192230225
1.9915692806243896,-11.214134216308594,2.3517651557922363
2.420117139816284,-11.032426834106445,2.3321785926818848
2.911623239517212,-11.118270874023438,2.3731541633605957
3.4187984466552734,-11.198341369628906,2.4176292419433594
3.9429845809936523,-11.272377967834473,2.4658446311950684
4.485658168792725,-11.340073585510254,2.518068313598633
5.048427581787109,-11.401062965393066,2.574599504470825
5.4811692237854,-11.146005630493164,2.5646917819976807
5.479806900024414,-10.09742546081543,2.372190475463867
5.623187065124512,-9.436480522155762,2.2681937217712402
6.359304428100586,-9.757800102233887,2.404937744140625
6.945084571838379,-9.774442672729492,2.4758553504943848
7.559882164001465,-9.782294273376465,2.552764892578125
8.20669937133789,-9.780508041381836,2.6362690925598145
10.800088882446289,-11.868376731872559,3.3133976459503174
9.61020278930664,-9.743952751159668,2.8258860111236572
10.375117301940918,-9.706725120544434,2.9336888790130615
11.188657760620117,-9.654874801635742,3.051503896713257
12.056645393371582,-9.586577415466309,3.180548667907715
12.985885620117188,-9.499692916870117,3.322248697280884
13.984360694885254,-9.391676902770996,3.478285312652588
15.062100410461426,-9.259909629821777,3.6508021354675293
16.4746036529541,-9.237640380859375,3.9000039100646973
18.100177764892578,-9.213733673095703,4.193743705749512
19.997825622558594,-9.187705993652344,4.544168949127197
22.250295639038086,-9.15886402130127,4.968319416046143
24.977373123168945,-9.126208305358887,5.490893363952637
28.35932731628418,-9.088249206542969,6.149073123931885
20.712129592895508,-5.7310357093811035,4.437408447265625
33.92668533325195,-7.935268878936768,7.194360256195068
37.19063949584961,-7.136383056640625,7.819345474243164
40.96632385253906,-6.166335105895996,8.55415153503418
46.3401985168457,-5.081441402435303,9.625833511352539
51.716983795166016,-3.5760746002197266,10.704193115234375
58.237831115722656,-1.6809191703796387,12.03014850616455
66.32923889160156,0.7512503862380981,13.696759223937988
76.61546325683594,3.9497549533843994,15.84082317352295
90.22341918945312,8.295811653137207,18.70821762084961
80.88518524169922,14.055505752563477,16.951732635498047
93.50093078613281,24.115535736083984,19.93819808959961
69.34812927246094,20.89073371887207,14.954851150512695
70.0539321899414,24.2130069732666,15.304612159729004
70.73526763916016,27.6768856048584,15.68388557434082
66.12825775146484,28.98887062072754,14.908757209777832
57.78850173950195,34.14625549316406,13.859757423400879
30.047563552856445,19.424047470092773,7.387807369232178
27.68780517578125,19.519025802612305,6.994903087615967
25.540525436401367,19.58721923828125,6.645999908447266
23.604711532592773,19.657718658447266,6.342800140380859
21.791961669921875,19.683202743530273,6.063437461853027
20.11404800415039,19.691362380981445,5.8121490478515625
18.553504943847656,19.68427848815918,5.585379600524902
18.139829635620117,20.8646183013916,5.708756446838379
18.271799087524414,22.805585861206055,6.033957004547119
18.405317306518555,24.9648494720459,6.4043121337890625
18.398405075073242,27.177181243896484,6.7766218185424805
8.212040901184082,13.247261047363281,3.218277931213379
7.6022138595581055,13.440845489501953,3.1884806156158447
15.641881942749023,30.448272705078125,7.068147659301758
14.092731475830078,30.376548767089844,6.914389610290527
24.001102447509766,57.69869613647461,12.903467178344727
21.340328216552734,57.7407341003418,12.710729598999023
19.061893463134766,58.73099899291992,12.74972152709961
17.99581527709961,64.1112060546875,13.749526023864746
16.50651741027832,69.41070556640625,14.731846809387207
14.5656156539917,74.41506958007812,15.657054901123047
11.404046058654785,73.90003967285156,15.439751625061035
-28.17994499206543,82.5211410522461,18.005359649658203
-27.874746322631836,72.0270767211914,15.947284698486328
-24.68824005126953,56.890743255615234,12.805410385131836
-15.767274856567383,32.672760009765625,7.490872859954834
-14.35543441772461,38.28440475463867,8.79748249053955
-24.875202178955078,59.01225280761719,13.779263496398926
-24.511415481567383,52.18649673461914,12.405538558959961
-15.678125381469727,30.167280197143555,7.315157413482666
-15.519548416137695,27.138822555541992,6.72666072845459
-15.34304141998291,24.49150276184082,6.21835994720459
-15.805983543395996,23.11182403564453,6.024534702301025
-17.161724090576172,23.049274444580078,6.183085918426514
-18.546720504760742,22.925859451293945,6.344877243041992
-19.96096420288086,22.74140739440918,6.510663032531738
-20.274744033813477,21.30778694152832,6.328479766845703
-16.665817260742188,16.162078857421875,4.995150566101074
-16.672931671142578,14.917082786560059,4.813645362854004
-17.902029037475586,14.765900611877441,4.993074417114258
-15.668713569641113,11.899304389953613,4.233329772949219
-15.955560684204102,11.135682106018066,4.186491012573242
-17.168272018432617,10.983643531799316,4.385279655456543
-11.820536613464355,6.90941858291626,2.9459800720214844
-12.304327011108398,6.543755054473877,2.9985640048980713
-16.89664077758789,8.132891654968262,4.034757614135742
-16.488418579101562,7.135425567626953,3.865654468536377
-16.475807189941406,6.356991291046143,3.799708843231201
-16.91398048400879,5.756752014160156,3.84428334236145
-17.58701515197754,5.2074971199035645,3.9464805126190186
-17.12861442565918,4.33158016204834,3.8014795780181885
-16.61248016357422,3.497615098953247,3.6527726650238037
-16.11572265625,2.7220795154571533,3.5166397094726562
-15.636391639709473,1.9989079236984253,3.3917675018310547
-15.48990535736084,1.3504971265792847,3.3455135822296143
-15.031120300292969,0.7037301659584045,3.237698554992676
-14.585463523864746,0.09629316627979279,3.138336181640625
-14.151726722717285,-0.4753902852535248,3.046659469604492
-13.728781700134277,-1.014494776725769,2.961994171142578
-13.315634727478027,-1.5238310098648071,2.883744955062866
-12.911383628845215,-2.005871295928955,2.8113906383514404
-12.51517105102539,-2.4628570079803467,2.7444615364074707
-12.126258850097656,-2.8967559337615967,2.682546854019165
-11.743921279907227,-3.30935001373291,2.625279426574707
-11.367520332336426,-3.7022368907928467,2.5723297595977783
-10.996429443359375,-4.0768513679504395,2.523408889770508
-10.630094528198242,-4.434497833251953,2.4782509803771973
-10.267966270446777,-4.776342391967773,2.436626434326172
-9.909541130065918,-5.103457927703857,2.3983232975006104
-9.554347038269043,-5.416802406311035,2.363154888153076
-9.201920509338379,-5.71725606918335,2.330953598022461
-8.851812362670898,-6.005621433258057,2.3015713691711426
-8.503618240356445,-6.282624244689941,2.274872303009033
-8.156911849975586,-6.548928737640381,2.250739574432373
-7.811306953430176,-6.805148124694824,2.229065179824829
-7.466397762298584,-7.051831245422363,2.2097597122192383
-7.121812343597412,-7.289490699768066,2.1927387714385986
-6.777167320251465,-7.518580436706543,2.177934408187866
-6.432085037231445,-7.739538669586182,2.165282726287842
-6.086197853088379,-7.9527387619018555,2.1547341346740723
-5.739112854003906,-8.158543586730957,2.146244525909424
-5.390460968017578,-8.357263565063477,2.1397831439971924
-5.039867877960205,-8.549195289611816,2.1353209018707275
-4.686920166015625,-8.734601974487305,2.132843017578125
-4.331233501434326,-8.913718223571777,2.132337808609009
-3.9723973274230957,-9.08675479888916,2.1338047981262207
-3.6099801063537598,-9.253907203674316,2.137247323989868
-3.243561267852783,-9.415328025817871,2.142681837081909
-2.872666358947754,-9.571175575256348,2.15012788772583
-2.496830463409424,-9.7215576171875,2.159616470336914
-2.1155688762664795,-9.866578102111816,2.171184539794922
-1.728342890739441,-10.006317138671875,2.1848790645599365
-1.3346539735794067,-10.141108512878418,2.2008159160614014
-0.9338362812995911,-10.27055549621582,2.218968391418457
-0.5253028273582458,-10.394828796386719,2.2394461631774902
-0.108408123254776,-10.513911247253418,2.262335777282715
0.3175554871559143,-10.627777099609375,2.2877349853515625
0.7533427476882935,-10.736364364624023,2.315758228302002
1.199760913848877,-10.839583396911621,2.346529722213745
1.6576722860336304,-10.9373197555542,2.380192279815674
2.076188325881958,-10.760805130004883,2.3580377101898193
2.5481739044189453,-10.844857215881348,2.3969690799713135
3.0343387126922607,-10.92302417755127,2.4392380714416504
3.535879135131836,-10.9950590133667,2.4850616455078125
4.0540666580200195,-11.060663223266602,2.534680128097534
4.590315818786621,-11.119499206542969,2.588362216949463
5.146175861358643,-11.171159744262695,2.646411895751953
5.46674108505249,-10.712368965148926,2.587698221206665
5.42195463180542,-9.646671295166016,2.3809990882873535
5.825801849365234,-9.454679489135742,2.3894917964935303
6.412700176239014,-9.527700424194336,2.47110652923584
6.989287376403809,-9.533897399902344,2.543536424636841
7.593883514404297,-9.53063678741455,2.6220004558563232
8.229263305664062,-9.517017364501953,2.7070860862731934
8.898574829101562,-9.491994857788086,2.799468517303467
9.605423927307129,-9.454363822937012,2.8999202251434326
10.353890419006348,-9.402715682983398,3.0093283653259277
11.18289852142334,-9.364097595214844,3.138322353363037
12.119784355163574,-9.346695899963379,3.2931320667266846
13.1576566696167,-9.328868865966797,3.4704267978668213
14.317900657653809,-9.310473442077637,3.6747519969940186
15.628241539001465,-9.291340827941895,3.9120259284973145
17.125165939331055,-9.271207809448242,4.190046310424805
18.857873916625977,-9.24977970123291,4.519353866577148
20.894197463989258,-9.226630210876465,4.914497375488281
23.33047103881836,-9.201162338256836,5.396164417266846
25.79366111755371,-8.993036270141602,5.877509117126465
19.924972534179688,-6.060877323150635,4.481089115142822
20.460275650024414,-5.335884094238281,4.549556255340576
32.97489929199219,-7.198442459106445,7.262094974517822
36.01496124267578,-6.358347415924072,7.868957042694092
40.32902526855469,-5.459893703460693,8.756510734558105
44.46377182006836,-4.209170818328857,9.609766960144043
49.329925537109375,-2.6764144897460938,10.629627227783203
62.257545471191406,1.629123568534851,13.400162696838379
47.00944900512695,3.123363494873047,10.137040138244629
74.21513366699219,7.935831546783447,16.059450149536133
90.96128845214844,17.200382232666016,19.91842269897461
93.47163391113281,21.597143173217773,20.6415958404541
70.98979187011719,19.437175750732422,15.836641311645508
68.17707824707031,21.646257400512695,15.390872955322266
67.96015167236328,24.623924255371094,15.55282211303711
58.274391174316406,23.804105758666992,13.544296264648438
65.80408477783203,30.018352508544922,15.562286376953125
58.02174758911133,29.338945388793945,13.989457130432129
72.9376449584961,40.639739990234375,17.965208053588867
30.844388961791992,18.848289489746094,7.777616024017334
28.43683624267578,18.98680305480957,7.3570733070373535
26.248579025268555,19.093551635742188,6.983890533447266
24.278268814086914,19.197830200195312,6.659631252288818
22.43478012084961,19.254150390625,6.361148834228516
20.730043411254883,19.29010772705078,6.0927605628967285
19.146024703979492,19.30818748474121,5.850625514984131
17.740453720092773,19.390085220336914,5.654757022857666
17.852293014526367,21.15985107421875,5.956753730773926
17.962907791137695,23.114566802978516,6.298644542694092
18.072189331054688,25.290103912353516,6.688082218170166
18.059179306030273,27.54778289794922,7.087405681610107
7.917665481567383,13.205938339233398,3.31300950050354
16.42706871032715,30.07602882385254,7.373615264892578
14.82901668548584,29.951017379760742,7.190994739532471
13.908382415771484,31.18275260925293,7.346541404724121
22.994586944580078,57.67744445800781,13.359999656677246
20.31267738342285,57.572837829589844,13.13599681854248
18.20891761779785,59.07355880737305,13.300629615783691
17.29170036315918,65.3115463256836,14.536870002746582
16.384286880493164,73.74044799804688,16.253215789794922
13.21440315246582,73.26087951660156,16.017475128173828
10.18678092956543,73.20088195800781,15.901966094970703
-29.71112632751465,82.95982360839844,18.960187911987305
-27.790931701660156,68.76202392578125,15.95778751373291
-24.63658905029297,54.541351318359375,12.8770170211792
-15.662996292114258,31.263092041015625,7.5236968994140625
-15.494277954101562,28.05234146118164,6.895347595214844
-15.352898597717285,25.33502197265625,6.373992443084717
-15.383410453796387,23.226045608520508,5.9941534996032715
-16.66733741760254,23.092727661132812,6.12773323059082
-18.027177810668945,22.97243881225586,6.283054351806641
-19.413890838623047,22.791391372680664,6.441802501678467
-20.3075008392334,21.98636245727539,6.4398193359375
-19.261581420898438,19.24203109741211,5.858089923858643
-16.536706924438477,15.242881774902344,4.839073657989502
-17.30397605895996,14.709362030029297,4.886602401733398
-15.787554740905762,12.36308479309082,4.314520835876465
-15.692527770996094,11.301961898803711,4.161015033721924
-16.65198516845703,11.004862785339355,4.294638156890869
-11.830768585205078,7.152960300445557,2.974651575088501
-9.199051856994629,5.068767547607422,2.259885787963867
-17.339786529541016,8.665328025817871,4.170830249786377
-16.58463478088379,7.471107482910156,3.913769483566284
-16.484920501708984,6.643115043640137,3.824122667312622
-16.700883865356445,5.962127685546875,3.8155338764190674
-17.313711166381836,5.407222747802734,3.9027297496795654
-17.324495315551758,4.655618667602539,3.859858274459839
-16.800678253173828,3.798372745513916,3.706137180328369
-16.29701042175293,3.002021551132202,3.565525531768799
-15.811445236206055,2.260159969329834,3.436635971069336
-15.509445190429688,1.5843549966812134,3.3544414043426514
-15.198906898498535,0.9377341270446777,3.2764761447906494
-14.748551368713379,0.3162168860435486,3.1740870475769043
-14.310554504394531,-0.26826727390289307,3.0796573162078857
-13.883743286132812,-0.8190622925758362,2.992475748062134
-13.46709156036377,-1.3390799760818481,2.911923408508301
-13.05965805053711,-1.8309273719787598,2.837449073791504
-12.660568237304688,-2.2969255447387695,2.768566846847534
-12.269046783447266,-2.739128828048706,2.704845905303955
-11.88436222076416,-3.159393310546875,2.6459031105041504
-11.505833625793457,-3.559384346008301,2.591395139694214
-11.132852554321289,-3.9405884742736816,2.541018486022949
-10.764824867248535,-4.304354190826416,2.4945006370544434
-10.401200294494629,-4.651909351348877,2.4515955448150635
-10.04146671295166,-4.984342098236084,2.4120900630950928
-9.685139656066895,-5.3026628494262695,2.375784158706665
-9.331737518310547,-5.607781887054443,2.3425064086914062
-8.98083782196045,-5.900509834289551,2.312100648880005
-8.631982803344727,-6.181628227233887,2.2844254970550537
-8.284771919250488,-6.451809883117676,2.2593581676483154
-7.93880558013916,-6.711686611175537,2.2367873191833496
-7.593684196472168,-6.961830139160156,2.2166173458099365
-7.249024391174316,-7.20276403427124,2.1987619400024414
-6.904445648193359,-7.434967041015625,2.1831469535827637
-6.559567928314209,-7.658883094787598,2.169705867767334
-6.214022636413574,-7.874903678894043,2.158385992050171
-5.867421627044678,-8.083399772644043,2.1491410732269287
-5.519391059875488,-8.284700393676758,2.141934633255005
-5.169562339782715,-8.479104995727539,2.136737108230591
-4.817535877227783,-8.666885375976562,2.133528470993042
-4.462917327880859,-8.848299026489258,2.1322946548461914
-4.105285167694092,-9.023560523986816,2.133033037185669
-3.744241952896118,-9.192865371704102,2.135745048522949
-3.3793554306030273,-9.356382369995117,2.140442132949829
-3.0101592540740967,-9.514274597167969,2.1471428871154785
-2.6362035274505615,-9.666662216186523,2.1558728218078613
-2.2570104598999023,-9.813651084899902,2.166668176651001
-1.872042179107666,-9.955333709716797,2.1795713901519775
-1.4808145761489868,-10.09200668334961,2.1946861743927
-1.0826932191848755,-10.223363876342773,2.2120003700256348
-0.6770851016044617,-10.3495454788208,2.23160982131958
-0.2633523643016815,-10.470549583435059,2.253596782684326
0.15917739272117615,-10.586348533630371,2.278057336807251
0.5912503600120544,-10.696891784667969,2.305098533630371
1.033647060394287,-10.802104949951172,2.3348395824432373
1.4872040748596191,-10.901881217956543,2.3674168586730957
1.9528461694717407,-10.996088027954102,2.402982234954834
2.372314453125,-10.814493179321289,2.3822176456451416
2.853114128112793,-10.894862174987793,2.4232301712036133
3.3488402366638184,-10.969194412231445,2.46771502494812
3.8607232570648193,-11.037212371826172,2.515902042388916
4.39013671875,-11.098589897155762,2.568051338195801
4.93856143951416,-11.152950286865234,2.624451160430908
5.466784954071045,-11.116765022277832,2.6654999256134033
5.466503143310547,-10.072918891906738,2.4659171104431152
5.637789726257324,-9.46098804473877,2.36968731880188
6.20640230178833,-9.52318286895752,2.445784568786621
6.7732930183410645,-9.53266716003418,2.5161221027374268
7.367220878601074,-9.532995223999023,2.5922908782958984
7.9908928871154785,-9.523314476013184,2.674859046936035
8.647284507751465,-9.50263500213623,2.764463186264038
9.339822769165039,-9.469809532165527,2.8618385791778564
10.072407722473145,-9.423515319824219,2.967827320098877
10.859037399291992,-9.370438575744629,3.0861127376556396
11.763089179992676,-9.35316276550293,3.2335622310638428
12.76145076751709,-9.335509300231934,3.4020836353302
13.873674392700195,-9.317341804504395,3.5958242416381836
15.124861717224121,-9.298495292663574,3.820133686065674
16.547962188720703,-9.27877426147461,4.082055568695068
18.186872482299805,-9.257865905761719,4.3909807205200195
20.101659774780273,-9.2354097366333,4.759791374206543
22.376667022705078,-9.210882186889648,5.206592082977295
25.062801361083984,-9.157435417175293,5.741297721862793
19.835039138793945,-6.356492042541504,4.481579780578613
20.18842124938965,-5.586126327514648,4.507040023803711
31.948232650756836,-7.472523212432861,7.059632301330566
34.8453483581543,-6.686351299285889,7.634242534637451
38.15681076049805,-5.743441104888916,8.302452087402344
42.86159133911133,-4.699995040893555,9.277544021606445
47.435821533203125,-3.280045986175537,10.230846405029297
52.8716926574707,-1.526036024093628,11.380815505981445
59.45854187011719,0.6734312772750854,12.794150352478027
48.2010498046875,2.48492431640625,10.384900093078613
75.9382553100586,6.982293128967285,16.40808868408203
91.54137420654297,12.142148971557617,19.86890411376953
90.62215423583984,15.74750804901123,19.790822982788086
93.52688598632812,20.15316390991211,20.585498809814453
93.39169311523438,24.087360382080078,20.752120971679688
93.25945281982422,28.093910217285156,20.9567813873291
68.58939361572266,23.706809997558594,15.61461067199707
66.6264419555664,26.069210052490234,15.393899917602539
66.02838134765625,28.94509506225586,15.512056350708008
31.796470642089844,18.78800392150879,7.946527481079102
29.298236846923828,18.93964195251465,7.506405830383301
27.033166885375977,19.05752182006836,7.116631031036377
24.96609878540039,19.146682739257812,6.76963996887207
23.098180770874023,19.235877990722656,6.467618465423584
21.34449577331543,19.279035568237305,6.188605785369873
19.717819213867188,19.303457260131836,5.937183856964111
18.202003479003906,19.311349868774414,5.7099223136901855
17.811140060424805,20.48655128479004,5.84096097946167
17.922216415405273,22.369260787963867,6.167328834533691
18.032005310058594,24.458492279052734,6.538191318511963
18.0103816986084,26.604015350341797,6.91258430480957
8.19160270690918,13.214288711547852,3.345227003097534
7.59042501449585,13.420004844665527,3.3173725605010986
15.410837173461914,29.998516082763672,7.256498336791992
13.92113971710205,30.006649017333984,7.117334842681885
24.008167266845703,57.715667724609375,13.449881553649902
21.292631149291992,57.61165237426758,13.215476989746094
18.66431999206543,57.50597381591797,13.0086030960083
17.95676612854004,63.97209167480469,14.296466827392578
16.80559730529785,70.66837310791016,15.629327774047852
14.374919891357422,73.44080352783203,16.101667404174805
11.256776809692383,72.94576263427734,15.881084442138672
-28.598745346069336,83.74763488769531,19.04116439819336
-14.9179105758667,38.54720687866211,8.89340877532959
-24.772153854370117,57.084075927734375,13.389094352722168
-15.815679550170898,32.773033142089844,7.829742908477783
-18.620899200439453,76.69007873535156,17.667890548706055
-14.306209564208984,38.15315628051758,9.122299194335938
-24.96283721923828,59.220157623291016,14.387677192687988
-24.58913230895996,52.35197067260742,12.948748588562012
-15.723386764526367,30.25437355041504,7.633310317993164
-15.560738563537598,27.210851669311523,7.017587661743164
-15.343961715698242,24.492963790893555,6.470516204833984
-15.768359184265137,23.056808471679688,6.253536701202393
-17.119888305664062,22.99309539794922,6.417749881744385
-18.500328063964844,22.86852264404297,6.585260391235352
-19.99079132080078,22.775379180908203,6.784389019012451
-18.58238983154297,19.52920150756836,6.035075664520264
-16.319759368896484,15.8264799118042,5.089474201202393
-16.54573631286621,14.8032808303833,4.970331192016602
-17.8953800201416,14.760408401489258,5.193304061889648
-15.449024200439453,11.732462882995605,4.342970848083496
-15.904587745666504,11.100104331970215,4.34207820892334
-17.42965316772461,11.150866508483887,4.632301330566406
-11.837506294250488,6.919338703155518,3.0696585178375244
-12.257981300354004,6.519107341766357,3.1082193851470947
-16.117420196533203,7.757808685302734,4.004523277282715
-16.174142837524414,6.999420642852783,3.9455032348632812
-16.157146453857422,6.234042167663574,3.8770880699157715
-16.675556182861328,5.675609588623047,3.9435458183288574
-17.269702911376953,5.113548278808594,4.032183647155762
-16.605314254760742,4.199244499206543,3.834552764892578
-16.12421989440918,3.3948159217834473,3.6889612674713135
-15.659212112426758,2.644970655441284,3.5553741455078125
-15.208755493164062,1.9442408084869385,3.432579278945923
-15.080232620239258,1.3147788047790527,3.388903856277466
-14.646060943603516,0.6857017278671265,3.2824885845184326
-14.223006248474121,0.09390036761760712,3.1842541694641113
-13.810067176818848,-0.4639132022857666,3.093482494354248
-13.406331062316895,-0.9906674027442932,3.009535312652588
-13.010965347290039,-1.4889646768569946,2.9318490028381348
-12.623205184936523,-1.9611010551452637,2.8599300384521484
-12.24234390258789,-2.409167766571045,2.7933290004730225
-11.867744445800781,-2.8350019454956055,2.7316555976867676
-11.498794555664062,-3.24027419090271,2.6745567321777344
-11.134933471679688,-3.6264867782592773,2.6217174530029297
-10.775627136230469,-3.994992256164551,2.5728583335876465
-10.420392036437988,-4.347018718719482,2.527724027633667
-10.068748474121094,-4.683672904968262,2.486091136932373
-9.720243453979492,-5.005969047546387,2.4477572441101074
-9.374458312988281,-5.314814567565918,2.4125397205352783
-9.030983924865723,-5.611050605773926,2.380276679992676
-8.689414978027344,-5.895440578460693,2.350822687149048
-8.349382400512695,-6.168673515319824,2.324047803878784
-8.010509490966797,-6.431387424468994,2.2998344898223877
-7.672430038452148,-6.684160232543945,2.2780826091766357
-7.334786415100098,-6.927525997161865,2.258699655532837
-6.997220993041992,-7.1619672775268555,2.2416067123413086
-6.659395217895508,-7.387924671173096,2.2267346382141113
-6.32094669342041,-7.605810165405273,2.2140228748321533
-5.981537818908691,-7.815983295440674,2.2034225463867188
-5.640806198120117,-8.018791198730469,2.194890260696411
-5.298399925231934,-8.214532852172852,2.188394546508789
-4.9539690017700195,-8.403483390808105,2.1839094161987305
-4.607128620147705,-8.585901260375977,2.181417942047119
-4.257513999938965,-8.762004852294922,2.180910348892212
-3.9047398567199707,-8.931991577148438,2.182384490966797
-3.548401355743408,-9.09604549407959,2.1858460903167725
-3.18809175491333,-9.254313468933105,2.1913089752197266
-2.823370933532715,-9.40693473815918,2.198793411254883
-2.4537994861602783,-9.5540132522583,2.208329439163208
-2.078916072845459,-9.695638656616211,2.2199532985687256
-1.6982122659683228,-9.831883430480957,2.2337114810943604
-1.3111854791641235,-9.962787628173828,2.2496578693389893
-0.9173069000244141,-10.088761329650879,2.2679436206817627
-0.5159226059913635,-10.209168434143066,2.288498878479004
-0.10645563900470734,-10.324238777160645,2.3114678859710693
0.31176382303237915,-10.433938026428223,2.3369460105895996
0.7394371628761292,-10.538186073303223,2.3650434017181396
1.1773262023925781,-10.636894226074219,2.3958826065063477
1.6262381076812744,-10.729923248291016,2.4296011924743652
2.0362303256988525,-10.553705215454102,2.406292200088501
2.498340129852295,-10.632762908935547,2.4452433586120605
2.9739725589752197,-10.705708503723145,2.4875054359436035
3.464240550994873,-10.772285461425781,2.5332889556884766
3.9703197479248047,-10.832179069519043,2.58282470703125
4.493529319763184,-10.885035514831543,2.636373996734619
5.035284042358398,-10.930438995361328,2.694225311279297
5.452798843383789,-10.685051918029785,2.685605049133301
5.409125328063965,-9.623842239379883,2.4715383052825928
5.841154098510742,-9.479592323303223,2.4927890300750732
6.399057388305664,-9.507425308227539,2.5656862258911133
6.957988739013672,-9.491198539733887,2.6346678733825684
7.549687385559082,-9.475168228149414,2.7122838497161865
8.179346084594727,-9.459291458129883,2.799607753753662
8.853135108947754,-9.443526268005371,2.897940158843994
9.578458786010742,-9.427821159362793,3.0088627338409424
10.364250183105469,-9.412125587463379,3.134303092956543
11.221451759338379,-9.396380424499512,3.2766451835632324
12.163636207580566,-9.380513191223145,3.4388623237609863
13.20783805847168,-9.364446640014648,3.624709129333496
14.375730514526367,-9.348079681396484,3.838980197906494
15.695457458496094,-9.331304550170898,4.087924480438232
17.204082489013672,-9.313931465148926,4.379785060882568
18.95164680480957,-9.295769691467285,4.725717544555664
21.00721549987793,-9.276537895202637,5.141137599945068
22.830150604248047,-9.003851890563965,5.494239330291748
24.59527587890625,-8.575216293334961,5.831352233886719
19.615446090698242,-5.9667253494262695,4.590090751647949
20.115013122558594,-5.24584436416626,4.653880596160889
31.102460861206055,-6.789686679840088,7.1270599365234375
33.8094596862793,-5.9689741134643555,7.686164855957031
37.65180969238281,-5.097442150115967,8.506217002868652
41.24525451660156,-3.904489517211914,9.275083541870117
45.41034698486328,-2.4637553691864014,10.181215286254883
56.14457321166992,1.469162940979004,12.573698043823242
46.788272857666016,3.1086678504943848,10.497847557067871
72.05441284179688,7.704813003540039,16.223175048828125
80.97528076171875,11.96562385559082,18.325241088867188
90.47743225097656,17.108888626098633,20.614646911621094
25.57440185546875,5.909107685089111,5.876328945159912
68.52360534667969,18.761932373046875,15.905402183532715
85.74089813232422,27.22281265258789,20.139577865600586
66.8971176147461,24.238750457763672,15.929400444030762
66.30715942382812,27.085325241088867,16.035263061523438
65.70418548583984,29.97277069091797,16.16779327392578
72.78202056884766,40.55302810668945,18.652706146240234
30.064739227294922,18.37186622619629,7.887966632843018
27.7559871673584,18.532209396362305,7.471669673919678
25.651273727416992,18.6590633392334,7.1012983322143555
23.751562118530273,18.781341552734375,6.778941631317139
21.96942710876465,18.854774475097656,6.4814133644104
20.31783103942871,18.906526565551758,6.213388919830322
18.780155181884766,18.939224243164062,5.971179962158203
17.433534622192383,19.054628372192383,5.781917572021484
17.527244567871094,20.77458381652832,6.085083961486816
17.617433547973633,22.670015335083008,6.4276227951049805
17.703563690185547,24.774246215820312,6.816926956176758
17.675601959228516,26.962663650512695,7.217731475830078
7.898128032684326,13.173349380493164,3.438641309738159
16.18328857421875,29.629701614379883,7.55830717086792
14.614324569702148,29.517398834228516,7.373822212219238
13.838733673095703,31.026586532592773,7.605708122253418
22.94254493713379,57.54691696166992,13.869466781616211
20.267475128173828,57.44472885131836,13.637435913085938
17.523109436035156,56.84861755371094,13.317914009094238
17.226337432861328,65.0647201538086,15.068279266357422
16.169822692871094,72.7752456665039,16.68991470336914
13.043914794921875,72.31566619873047,16.450973510742188
10.05706787109375,72.26878356933594,16.335124969482422
1.6682536602020264,16.952411651611328,3.813563108444214
-29.705162048339844,82.94318389892578,19.723894119262695
-27.893070220947266,69.01468658447266,16.664905548095703
-24.717681884765625,54.720909118652344,13.442498207092285
-15.709745407104492,31.35638427734375,7.85167932510376
-15.536652565002441,28.129051208496094,7.194145202636719
-15.471732139587402,25.53114128112793,6.68340539932251
-15.365732192993164,23.19935417175293,6.229679584503174
-16.627077102661133,23.03694725036621,6.360434055328369
-17.98253059387207,22.915542602539062,6.52125358581543
-19.418338775634766,22.796621322631836,6.704159736633301
-19.145984649658203,20.728818893432617,6.3173089027404785
-16.513355255126953,16.496591567993164,5.22560453414917
-16.305574417114258,15.029830932617188,4.964625835418701
-17.283395767211914,14.691869735717773,5.078407287597656
-15.500874519348145,12.138588905334473,4.407690525054932
-15.568881034851074,11.212915420532227,4.295375347137451
-16.64547348022461,11.000564575195312,4.4667744636535645
-11.847917556762695,7.163326740264893,3.099576950073242
-9.165142059326172,5.050083160400391,2.3427186012268066
-16.67671775817871,8.333988189697266,4.173737525939941
-16.211395263671875,7.3029656410217285,3.9805867671966553
-16.164640426635742,6.514054775238037,3.901648998260498
-16.46720314025879,5.878695964813232,3.914470672607422
-17.035751342773438,5.32041072845459,3.9955503940582275
-16.78733253479004,4.511266708374023,3.8916139602661133
