-10.018636703491211,15.478372573852539,2.232775926589966
-10.339438438415527,14.648496627807617,2.1712727546691895
-10.635025024414062,13.850787162780762,2.114699363708496
-10.992536544799805,13.184139251708984,2.0787124633789062
-11.425026893615723,12.634317398071289,2.062777519226074
-6.007621765136719,6.129469394683838,1.0393389463424683
-8.409294128417969,7.917019367218018,1.3986409902572632
-12.63460922241211,10.971766471862793,2.0263984203338623
-12.60008430480957,10.083197593688965,1.9542477130889893
-12.762499809265137,9.397724151611328,1.9192914962768555
-13.05363655090332,8.826029777526855,1.9081685543060303
-13.49951171875,8.357573509216309,1.9226802587509155
-14.048588752746582,7.935204982757568,1.953866720199585
-15.049159049987793,7.720029354095459,2.0482075214385986
-16.288854598999023,7.545487880706787,2.173886299133301
-17.748443603515625,7.370805263519287,2.3272504806518555
-19.489850997924805,7.190385818481445,2.5156588554382324
-20.607223510742188,6.675119876861572,2.623140335083008
-20.858734130859375,5.841920852661133,2.623140335083008
-21.07657241821289,4.999294281005859,2.623140335083008
-21.260387420654297,4.148584365844727,2.623140335083008
-22.02690315246582,3.38604998588562,2.6987383365631104
-22.329748153686523,2.519294261932373,2.7212350368499756
-22.41292381286621,1.6202459335327148,2.7212350368499756
-22.459924697875977,0.7186030149459839,2.7212350368499756
-22.470659255981445,-0.18422149121761322,2.7212350368499756
-22.44512176513672,-1.0867377519607544,2.7212350368499756
-22.38334846496582,-1.9874999523162842,2.7212350368499756
-22.285444259643555,-2.8850646018981934,2.7212350368499756
-22.15155792236328,-3.7779598236083984,2.7212350368499756
-21.981916427612305,-4.664736270904541,2.7212350368499756
-21.117422103881836,-5.3761491775512695,2.6388401985168457
-20.76015853881836,-6.183096408843994,2.623140335083008
-20.495019912719727,-7.012068271636963,2.623140335083008
-20.196796417236328,-7.8297119140625,2.623140335083008
-19.865966796875,-8.634713172912598,2.623140335083008
-18.25935173034668,-8.82470703125,2.4558632373809814
-16.52952766418457,-8.824695587158203,2.2690882682800293
-15.04201889038086,-8.82469654083252,2.111887216567993
-13.745287895202637,-8.824697494506836,1.9780410528182983
-12.671408653259277,-8.873723983764648,1.873328447341919
-12.893791198730469,-9.824429512023926,1.9630126953125
-11.930130004882812,-9.872221946716309,1.8752124309539795
-11.030451774597168,-9.900569915771484,1.7949109077453613
-10.600337982177734,-10.312822341918945,1.7909414768218994
-15.438840866088867,-16.27745246887207,2.716782331466675
-5.625558853149414,-6.429832458496094,1.0345858335494995
-14.082315444946289,-17.46430015563965,2.716782331466675
-13.369380950927734,-18.01590347290039,2.716782331466675
-7.789490222930908,-11.429061889648438,1.6749151945114136
-11.879969596862793,-19.0310115814209,2.716782331466675
-11.105883598327637,-19.492881774902344,2.716782331466675
-10.31387996673584,-19.923274993896484,2.716782331466675
-9.505232810974121,-20.32150650024414,2.716782331466675
-8.681239128112793,-20.686933517456055,2.716782331466675
-7.843206405639648,-21.01896858215332,2.716782331466675
-7.003594398498535,-21.350833892822266,2.7210850715637207
-6.140542507171631,-21.615907669067383,2.7212069034576416
-5.267483234405518,-21.84610366821289,2.721327781677246
-4.385839939117432,-22.041040420532227,2.721447706222534
-3.49704909324646,-22.200395584106445,2.7215659618377686
-2.602527141571045,-22.323923110961914,2.7216832637786865
-1.7037156820297241,-22.411396026611328,2.7217986583709717
-0.8020989298820496,-22.462690353393555,2.721912145614624
0.10090243816375732,-22.47769546508789,2.7220234870910645
1.00380539894104,-22.45639991760254,2.722132682800293
1.905171513557434,-22.39882469177246,2.7222394943237305
2.80352520942688,-22.30506706237793,2.722343921661377
3.6900172233581543,-22.130949020385742,2.717003583908081
4.010335445404053,-19.249372482299805,2.3811051845550537
4.565852642059326,-18.216876983642578,2.2742557525634766
5.412890911102295,-18.423580169677734,2.3253509998321533
6.888415813446045,-20.380046844482422,2.6051385402679443
7.701547145843506,-20.08687973022461,2.6051385402679443
8.21817398071289,-19.101055145263672,2.518099546432495
8.21817398071289,-17.16656494140625,2.30476975440979
8.21817398071289,-15.531862258911133,2.127934694290161
8.21817398071289,-14.127983093261719,1.979264497756958
8.309192657470703,-13.048554420471191,1.873328447341919
9.03843879699707,-13.00908374786377,1.9182783365249634
13.552753448486328,-17.92449188232422,2.7212300300598145
14.261869430541992,-17.365591049194336,2.7212300300598145
14.947943687438965,-16.778667449951172,2.7212300300598145
15.609902381896973,-16.164655685424805,2.7212300300598145
11.21965503692627,-10.720991134643555,1.8792396783828735
11.597509384155273,-10.223050117492676,1.8721752166748047
17.184032440185547,-13.961851119995117,2.681225061416626
17.995634078979492,-13.458173751831055,2.7212324142456055
12.835800170898438,-8.818175315856934,1.8858520984649658
14.010198593139648,-8.8181734085083,2.004690647125244
15.34485912322998,-8.818171501159668,2.1432056427001953
16.880308151245117,-8.818169593811035,2.3062822818756104
18.67185401916504,-8.818181991577148,2.500596761703491
19.94266700744629,-8.456046104431152,2.623140335083008
20.26625633239746,-7.648107051849365,2.623140335083008
20.557132720947266,-6.827809810638428,2.623140335083008
20.814821243286133,-5.996503829956055,2.623140335083008
21.825668334960938,-5.348308086395264,2.7212350368499756
22.022897720336914,-4.467236042022705,2.7212350368499756
22.184574127197266,-3.578941583633423,2.7212350368499756
22.31043815612793,-2.6848790645599365,2.7212350368499756
22.400285720825195,-1.7864831686019897,2.7212350368499756
22.453969955444336,-0.885192334651947,2.7212350368499756
22.47140884399414,0.017516249790787697,2.7212350368499756
20.54271697998047,-4.3922529220581055,2.7212350368499756
20.702571868896484,-3.5634891986846924,2.7212350368499756
20.829015731811523,-2.728973865509033,2.7212350368499756
20.921825408935547,-1.8900424242019653,2.7212350368499756
20.980859756469727,-1.0480692386627197,2.7212350368499756
20.997282028198242,0.639593780040741,2.7212350368499756
20.95464515686035,1.4825478792190552,2.7212350368499756
20.878173828125,2.3231191635131836,2.7212350368499756
20.76799964904785,3.159940481185913,2.7212350368499756
19.880836486816406,3.8477706909179688,2.623140335083008
19.710222244262695,4.6432976722717285,2.623140335083008
19.50778579711914,5.431329250335693,2.623140335083008
19.273862838745117,6.210590839385986,2.623140335083008
18.368389129638672,6.7446746826171875,2.5347652435302734
15.910491943359375,6.578938007354736,2.2302818298339844
14.470742225646973,6.67636775970459,2.0644195079803467
13.45092487335205,6.874123573303223,1.9567760229110718
12.524152755737305,7.048834800720215,1.8616759777069092
17.878080368041992,11.030478477478027,2.7212300300598145
17.420536041259766,11.739760398864746,2.7212252616882324
16.934892654418945,12.43008804321289,2.7212300300598145
16.42188835144043,13.100346565246582,2.7212252616882324
15.882377624511719,13.749462127685547,2.7212252616882324
15.31722640991211,14.37636661529541,2.7212252616882324
14.7273530960083,14.980072975158691,2.7212252616882324
14.113656997680664,15.559532165527344,2.7212347984313965
11.252705574035645,13.454202651977539,2.272073745727539
5.356088638305664,6.953542232513428,1.1369940042495728
8.407008171081543,11.87204360961914,1.884443998336792
8.259930610656738,12.718497276306152,1.9645030498504639
8.238988876342773,13.87648868560791,2.090517044067383
7.942540168762207,14.691299438476562,2.1634151935577393
8.05643367767334,16.4490966796875,2.372652530670166
8.113186836242676,18.401636123657227,2.6051385402679443
7.367429256439209,18.712696075439453,2.6051385402679443
6.609776496887207,18.993547439575195,2.6051385402679443
5.841451168060303,19.243738174438477,2.6051385402679443
5.063698768615723,19.462860107421875,2.6051385402679443
4.469470024108887,20.53118133544922,2.721884250640869
3.640967607498169,20.69330596923828,2.7217729091644287
2.806643009185791,20.822021484375,2.721662998199463
1.967862606048584,20.91712760925293,2.7215545177459717
1.1259689331054688,20.978466033935547,2.721447706222534
0.2823197543621063,21.005956649780273,2.7213423252105713
-0.5617117881774902,20.99954605102539,2.7212398052215576
-1.404778242111206,20.95926284790039,2.7211391925811768
-2.2455217838287354,20.885156631469727,2.721040725708008
-3.082575559616089,20.777355194091797,2.72094464302063
-3.91459321975708,20.636049270629883,2.720851421356201
-4.74025297164917,20.46146011352539,2.720761299133301
-5.543969631195068,20.202007293701172,2.7137069702148438
-6.348660945892334,19.955562591552734,2.7126963138580322
-7.119375228881836,19.613367080688477,2.7029049396514893
-7.792994022369385,19.04631233215332,2.665781259536743
-8.261421203613281,18.082300186157227,2.5752615928649902
-8.691577911376953,17.164016723632812,2.4922332763671875
-9.087193489074707,16.286863327026367,2.4159650802612305
-9.451508522033691,15.446816444396973,2.3458242416381836
-9.787368774414062,14.640284538269043,2.281254529953003
-10.097250938415527,13.864118576049805,2.221771478652954
-10.38333797454834,13.115492820739746,2.1669485569000244
-10.78858470916748,12.5560302734375,2.144442558288574
-11.204133033752441,12.0264892578125,2.129213809967041
-8.404024124145508,8.323775291442871,1.5322530269622803
-8.663278579711914,7.917019367218018,1.5202620029449463
-12.318604469299316,10.380839347839355,2.0867719650268555
-12.226161003112793,9.489880561828613,2.0048768520355225
-12.488029479980469,8.912959098815918,1.987436056137085
-12.897871971130371,8.44461441040039,1.9970210790634155
-13.344073295593262,7.989970684051514,2.0147457122802734
-14.209476470947266,7.750302791595459,2.0966694355010986
-15.264533042907715,7.546596527099609,2.2057955265045166
-16.539209365844727,7.365444183349609,2.3453121185302734
-18.06639289855957,7.190488338470459,2.5188424587249756
-19.099985122680664,6.726336479187012,2.623140335083008
-19.354772567749023,5.953645706176758,2.623140335083008
-19.578311920166016,5.171342849731445,2.623140335083008
-19.770246505737305,4.380682468414307,2.623140335083008
-19.93026351928711,3.5829873085021973,2.623140335083008
-20.80819320678711,2.883410692214966,2.7212350368499756
-20.9072265625,2.0452001094818115,2.7212350368499756
-20.97250747680664,1.2036889791488647,2.7212350368499756
-21.003934860229492,0.36022382974624634,2.7212350368499756
-21.001455307006836,-0.4838123917579651,2.7212350368499756
-20.965065002441406,-1.327067494392395,2.7212350368499756
-20.89482879638672,-2.1681900024414062,2.7212350368499756
-20.790870666503906,-3.005793333053589,2.7212350368499756
-20.653339385986328,-3.838562488555908,2.7212350368499756
-20.48246955871582,-4.665136814117432,2.7212350368499756
-19.879175186157227,-5.376155376434326,2.6676430702209473
-19.319400787353516,-6.067451000213623,2.623140335083008
-19.060070037841797,-6.838629722595215,2.623140335083008
-18.769973754882812,-7.598768711090088,2.623140335083008
-18.449569702148438,-8.346649169921875,2.623140335083008
-17.588441848754883,-8.824694633483887,2.5490899085998535
-15.955188751220703,-8.824695587158203,2.361893653869629
-14.5432710647583,-8.824697494506836,2.203622817993164
-13.30683422088623,-8.824698448181152,2.068362236022949
-12.211743354797363,-8.824698448181152,1.951714277267456
-11.371562004089355,-8.934295654296875,1.873328447341919
-11.44144344329834,-9.75737476348877,1.9478895664215088
-10.671440124511719,-9.868082046508789,1.8828201293945312
-10.459773063659668,-10.482580184936523,1.918281078338623
-14.205415725708008,-15.429134368896484,2.716782331466675
-13.574142456054688,-15.98733139038086,2.716782331466675
-12.920954704284668,-16.519716262817383,2.716782331466675
-12.246917724609375,-17.025421142578125,2.716782331466675
-7.442961692810059,-11.276516914367676,1.7502551078796387
-10.840665817260742,-17.9536075592041,2.716782331466675
-10.110694885253906,-18.374603271484375,2.716782331466675
-9.364405632019043,-18.765928268432617,2.716782331466675
-4.412639141082764,-9.810562133789062,1.3934868574142456
-7.827708721160889,-19.45710563659668,2.716782331466675
-7.050656795501709,-19.786396026611328,2.7209835052490234
-6.250405788421631,-20.05449676513672,2.721097707748413
-5.439973831176758,-20.29024314880371,2.7212114334106445
-4.620686054229736,-20.493244171142578,2.7213239669799805
-3.7938897609710693,-20.663166046142578,2.721435785293579
-2.9608840942382812,-20.79973602294922,2.721545934677124
-2.123041868209839,-20.902727127075195,2.7216548919677734
-1.2816938161849976,-20.971961975097656,2.72176194190979
-0.43820875883102417,-21.007335662841797,2.721867561340332
0.40601846575737,-21.008779525756836,2.721970796585083
1.2496799230575562,-20.976293563842773,2.7220723628997803
2.091395616531372,-20.90991973876953,2.7221713066101074
2.9297730922698975,-20.80976676940918,2.7222676277160645
3.7634856700897217,-20.675989151000977,2.7223613262176514
4.591185092926025,-20.508806228637695,2.7224528789520264
5.178145408630371,-19.43272590637207,2.6051385402679443
5.334677219390869,-17.20920181274414,2.333920478820801
6.721431255340576,-18.954322814941406,2.6051385402679443
7.477426052093506,-18.669015884399414,2.6051385402679443
8.21817398071289,-18.346487045288086,2.604132652282715
8.21817398071289,-16.53230857849121,2.3915903568267822
8.21817398071289,-14.989595413208008,2.2144267559051514
8.21817398071289,-13.65768814086914,2.0648045539855957
8.21817398071289,-12.492615699768066,1.9370514154434204
8.42673397064209,-11.752622604370117,1.873328447341919
9.057127952575684,-11.61634635925293,1.908105492591858
13.571849822998047,-16.034345626831055,2.7212324142456055
14.205018997192383,-15.476218223571777,2.7212300300598145
14.815253257751465,-14.893085479736328,2.7212324142456055
11.21965503692627,-10.406949043273926,1.9823542833328247
15.963007926940918,-13.655707359313965,2.7212300300598145
11.357864379882812,-8.951704978942871,1.8733282089233398
12.163426399230957,-8.818175315856934,1.946149230003357
13.25288200378418,-8.818174362182617,2.062072515487671
14.482454299926758,-8.818172454833984,2.1964516639709473
15.885892868041992,-8.818171501159668,2.3536319732666016
17.50847816467285,-8.818168640136719,2.539456367492676
18.436756134033203,-8.374909400939941,2.623140335083008
18.75830078125,-7.627528667449951,2.623140335083008
19.049564361572266,-6.867827415466309,2.623140335083008
19.310075759887695,-6.097046375274658,2.623140335083008
19.758892059326172,-5.376140594482422,2.6526055335998535
20.47529411315918,-4.696506500244141,2.7212350368499756
20.647430419921875,-3.870206117630005,2.7212350368499756
20.786235809326172,-3.037677049636841,2.7212350368499756
20.8914794921875,-2.200225591659546,2.7212350368499756
20.963003158569336,-1.3592115640640259,2.7212350368499756
21.000680923461914,-0.5160127282142639,2.7212350368499756
21.004459381103516,0.328020304441452,2.7212350368499756
20.97433090209961,1.1715253591537476,2.7212350368499756
20.910341262817383,2.013139009475708,2.7212350368499756
20.812591552734375,2.8515024185180664,2.7212350368499756
19.935733795166016,3.552417516708374,2.623140335083008
19.776933670043945,4.350388050079346,2.623140335083008
19.586214065551758,5.141335487365723,2.623140335083008
19.363874435424805,5.923960208892822,2.623140335083008
19.110280990600586,6.697046756744385,2.623140335083008
16.74536895751953,6.634988784790039,2.333256244659424
14.874273300170898,6.596688270568848,2.1077938079833984
13.815767288208008,6.803999900817871,1.9949461221694946
12.856476783752441,6.986775875091553,1.895456075668335
18.03975486755371,10.764042854309082,2.7212300300598145
17.592792510986328,11.480024337768555,2.7212300300598145
17.117431640625,12.177485466003418,2.7212252616882324
5.858832836151123,4.533219337463379,0.9596056938171387
16.084613800048828,13.5123291015625,2.7212252616882324
15.528827667236328,14.14754867553711,2.7212300300598145
14.947973251342773,14.759941101074219,2.7212252616882324
14.342944145202637,15.348438262939453,2.7212347984313965
11.439536094665527,13.272404670715332,2.2697858810424805
5.637467384338379,7.0984697341918945,1.174238681793213
8.457368850708008,11.575148582458496,1.8570315837860107
8.316137313842773,12.398406982421875,1.9339077472686768
8.519919395446777,13.87648868560791,2.109327554702759
7.981337547302246,14.253487586975098,2.1161489486694336
8.011626243591309,15.761282920837402,2.290334463119507
8.141807556152344,17.748493194580078,2.5294950008392334
7.644217491149902,18.601343154907227,2.6051385402679443
5.464135646820068,14.981691360473633,2.065767765045166
6.126282691955566,19.154964447021484,2.6051385402679443
5.35186767578125,19.385601043701172,2.6051385402679443
4.751893043518066,20.369754791259766,2.7095322608947754
3.947596311569214,20.637325286865234,2.7218141555786133
3.115262746810913,20.77840232849121,2.721703052520752
2.2779741287231445,20.885942459106445,2.7215943336486816
1.4370675086975098,20.959754943847656,2.721486806869507
0.5939107537269592,20.999752044677734,2.721381187438965
-0.2501407563686371,21.005861282348633,2.7212777137756348
-1.0937223434448242,20.97807502746582,2.7211761474609375
-1.9354805946350098,20.916444778442383,2.7210769653320312
-2.7740321159362793,20.821069717407227,2.720979690551758
-3.608067750930786,20.692115783691406,2.7208855152130127
-4.436221599578857,20.529781341552734,2.7207939624786377
-5.257177829742432,20.334341049194336,2.72070574760437
-6.042625427246094,20.016769409179688,2.708531618118286
-6.872162818908691,19.845458984375,2.7205379009246826
-7.609530925750732,19.414823532104492,2.7012603282928467
-8.093148231506348,18.43263053894043,2.6077675819396973
-8.536969184875488,17.498031616210938,2.522063970565796
-8.944937705993652,16.606184005737305,2.44337797164917
-9.320454597473145,15.752886772155762,2.371044635772705
-9.66651725769043,14.934361457824707,2.3044772148132324
-9.985713005065918,14.147354125976562,2.243170738220215
-10.280349731445312,13.38886833190918,2.1866729259490967
-10.631365776062012,12.750960350036621,2.150559186935425
-11.052430152893066,12.222283363342285,2.1346113681793213
-6.0076212882995605,6.129469394683838,1.1117910146713257
-8.409294128417969,7.917019367218018,1.496139407157898
-12.22960090637207,10.620059967041016,2.0981719493865967
-11.865017890930176,9.494951248168945,1.9685404300689697
-12.385978698730469,9.120478630065918,1.9925142526626587
-12.738265037536621,8.612788200378418,1.9918745756149292
-13.169987678527832,8.153578758239746,2.0065035820007324
-13.886701583862305,7.843764305114746,2.065985918045044
-14.83326530456543,7.609277248382568,2.159555196762085
-16.05882453918457,7.438935279846191,2.2925875186920166
-17.474529266357422,7.257040977478027,2.451068878173828
-19.167314529418945,7.071391582489014,2.646493673324585
-19.264318466186523,6.240123271942139,2.623140335083008
-19.499441146850586,5.461223602294922,2.623140335083008
-19.703081130981445,4.673505783081055,2.623140335083008
-19.874916076660156,3.8782355785369873,2.623140335083008
-20.76313018798828,3.1917784214019775,2.7212350368499756
-20.874589920043945,2.355120897293091,2.7212350368499756
-20.952348709106445,1.5146595239639282,2.7212350368499756
-20.996278762817383,0.6717737913131714,2.7212350368499756
-21.006317138671875,-0.17221641540527344,2.7212350368499756
-20.982446670532227,-1.0159186124801636,2.7212350368499756
-20.924699783325195,-1.8579809665679932,2.7212350368499756
-20.833173751831055,-2.6970536708831787,2.7212350368499756
-20.708009719848633,-3.5317625999450684,2.7212350368499756
-20.549428939819336,-4.360751152038574,2.7212350368499756
-20.357662200927734,-5.182728290557861,2.7212350368499756
-19.407285690307617,-5.780163288116455,2.623140335083008
-19.159425735473633,-6.555116653442383,2.623140335083008
-18.88063621520996,-7.319474220275879,2.623140335083008
-18.571369171142578,-8.072016716003418,2.623140335083008
-18.23210906982422,-8.811537742614746,2.623140335083008
-16.52953338623047,-8.824695587158203,2.4272658824920654
-15.042017936706543,-8.82469654083252,2.259105682373047
-13.745288848876953,-8.824697494506836,2.11592960357666
-12.60140323638916,-8.824698448181152,1.9928460121154785
-11.5817232131958,-8.824699401855469,1.8861727714538574
-11.852710723876953,-9.808154106140137,1.9929137229919434
-10.967768669128418,-9.844308853149414,1.9091225862503052
-10.16843032836914,-9.892626762390137,1.8377294540405273
-10.553703308105469,-11.126962661743164,1.9866024255752563
-5.625558376312256,-6.429831504821777,1.106705904006958
-13.164612770080566,-16.326204299926758,2.716782331466675
-12.498139381408691,-16.841869354248047,2.716782331466675
-7.685523509979248,-11.276516914367676,1.7677586078643799
-11.105793952941895,-17.790822982788086,2.716782331466675
-10.382149696350098,-18.22259521484375,2.716782331466675
-9.64175796508789,-18.624942779541016,2.716782331466675
-8.8858060836792,-18.997222900390625,2.716782331466675
-8.115511894226074,-19.33883285522461,2.716782331466675
-7.3433122634887695,-19.67930793762207,2.7209408283233643
-6.547120094299316,-19.959257125854492,2.721055507659912
-5.740304946899414,-20.206995010375977,2.7211692333221436
-4.924134254455566,-20.4221248626709,2.7212822437286377
-4.09994649887085,-20.60430145263672,2.7213945388793945
-3.26908802986145,-20.753210067749023,2.7215054035186768
-2.4328651428222656,-20.868621826171875,2.7216145992279053
-1.5926486253738403,-20.950342178344727,2.7217226028442383
-0.7498040795326233,-20.99822235107422,2.7218284606933594
0.0943274274468422,-21.01219940185547,2.721933126449585
0.938353419303894,-20.99223518371582,2.7220351696014404
1.7809504270553589,-20.938371658325195,2.722134828567505
2.620720863342285,-20.85067367553711,2.7222323417663574
3.4563069343566895,-20.729284286499023,2.72232723236084
4.2863874435424805,-20.574403762817383,2.7224197387695312
4.889311790466309,-19.507400512695312,2.6051385402679443
5.668989658355713,-19.295251846313477,2.6051385402679443
6.43951940536499,-19.051944732666016,2.6051385402679443
7.199666976928711,-18.777881622314453,2.6051385402679443
7.94817590713501,-18.4735107421875,2.6051385402679443
8.21817398071289,-17.166566848754883,2.4654343128204346
8.21817398071289,-15.53187370300293,2.276273250579834
8.21817398071289,-14.127984046936035,2.1172378063201904
8.21817398071289,-12.905622482299805,1.981966257095337
8.251439094543457,-11.876351356506348,1.873328447341919
9.00808048248291,-11.913840293884277,1.9348034858703613
13.332475662231445,-16.23394203186035,2.7212300300598145
13.973847389221191,-15.685263633728027,2.7212300300598145
14.592665672302246,-15.111268997192383,2.7212300300598145
11.21965503692627,-10.720992088317871,2.0102412700653076
11.597512245178223,-10.223050117492676,2.002683639526367
11.223803520202637,-9.11922550201416,1.8733282089233398
11.791242599487305,-8.81817626953125,1.907325029373169
12.835800170898438,-8.818175315856934,2.0173137187957764
14.010197639465332,-8.8181734085083,2.1444358825683594
15.34486198425293,-8.818171501159668,2.292607307434082
16.880308151245117,-8.818169593811035,2.4670517444610596
18.31047248840332,-8.6475191116333,2.623140335083008
18.643070220947266,-7.904994487762451,2.623140335083008
18.945573806762695,-7.149704456329346,2.623140335083008
19.217493057250977,-6.382864475250244,2.623140335083008
19.458385467529297,-5.6057305335998535,2.623140335083008
20.40336799621582,-4.999777317047119,2.7212350368499756
20.587736129760742,-4.176120758056641,2.7212350368499756
20.73887825012207,-3.3457133769989014,2.7212350368499756
20.856544494628906,-2.5099148750305176,2.7212350368499756
20.940532684326172,-1.6700637340545654,2.7212350368499756
20.990718841552734,-0.8275072574615479,2.7212350368499756
21.007020950317383,0.01637474074959755,2.7212350368499756
19.283369064331055,-4.122991561889648,2.7212350368499756
19.43342399597168,-3.345034122467041,2.7212350368499756
19.552114486694336,-2.5616772174835205,2.7212350368499756
19.639240264892578,-1.7741756439208984,2.7212350368499756
19.694652557373047,-0.9838185906410217,2.7212350368499756
19.710071563720703,0.600384533405304,2.7212350368499756
19.6700439453125,1.3916620016098022,2.7212350368499756
19.598264694213867,2.18070387840271,2.7212350368499756
19.494842529296875,2.966224193572998,2.7212350368499756
18.662065505981445,3.6118879318237305,2.623140335083008
18.501909255981445,4.358645439147949,2.623140335083008
18.3118839263916,5.0983686447143555,2.623140335083008
18.092296600341797,5.82985782623291,2.623140335083008
17.843502044677734,6.551937580108643,2.623140335083008
16.149145126342773,6.677620887756348,2.4115755558013916
14.168803215026855,6.537060260772705,2.153353691101074
13.15589714050293,6.723349571228027,2.038846731185913
12.262527465820312,6.901586055755615,1.9418277740478516
11.443045616149902,7.06016731262207,1.8555080890655518
16.352598190307617,11.020072937011719,2.7212252616882324
15.896713256835938,11.668075561523438,2.7212300300598145
15.4151611328125,12.297250747680664,2.7212252616882324
14.908730506896973,12.906561851501465,2.7212252616882324
14.378227233886719,13.495048522949219,2.7212252616882324
13.824511528015137,14.061742782592773,2.7212252616882324
13.248480796813965,14.605731964111328,2.7212252616882324
11.258479118347168,13.461104393005371,2.421699047088623
5.356088638305664,6.9535441398620605,1.2112482786178589
8.249855995178223,11.65011978149414,1.9699862003326416
8.099096298217773,12.470848083496094,2.0520496368408203
8.23898696899414,13.87648868560791,2.227043390274048
8.033873558044434,14.860240936279297,2.331205129623413
8.158147811889648,16.656763076782227,2.559514284133911
7.615818977355957,17.273544311523438,2.6051385402679443
6.915777206420898,17.565534591674805,2.6051385402679443
6.204573631286621,17.829174041748047,2.6051385402679443
5.4833478927612305,18.064023971557617,2.6051385402679443
4.753273010253906,18.26971435546875,2.6051385402679443
4.195539951324463,19.27284812927246,2.7219278812408447
3.4178295135498047,19.425085067749023,2.721823215484619
2.634641170501709,19.54595947265625,2.721719741821289
1.8472669124603271,19.63528823852539,2.721618175506592
1.0569725036621094,19.692916870117188,2.72151780128479
0.26502174139022827,19.718769073486328,2.7214195728302
-0.5272908806800842,19.712800979614258,2.721322774887085
-1.3187034130096436,19.67502212524414,2.7212281227111816
-2.1079366207122803,19.605499267578125,2.7211358547210693
-2.8937065601348877,19.504350662231445,2.721045970916748
-3.674760341644287,19.371742248535156,2.7209582328796387
-4.449838638305664,19.207887649536133,2.7208733558654785
-5.217688083648682,19.0130558013916,2.7207911014556885
-5.977075099945068,18.78756332397461,2.720712184906006
-6.726772308349609,18.53177261352539,2.7206358909606934
-7.465580940246582,18.246109008789062,2.7205629348754883
-7.948559284210205,17.39751625061035,2.639549493789673
-8.372645378112793,16.53420066833496,2.5575714111328125
-8.763585090637207,15.706868171691895,2.482091188430786
-9.124360084533691,14.912154197692871,2.412525177001953
-9.457608222961426,14.147014617919922,2.348356246948242
-9.76562786102295,13.408780097961426,2.2891347408294678
-10.050463676452637,12.69503116607666,2.2344601154327393
-10.445623397827148,12.156882286071777,2.2118680477142334
-10.850412368774414,11.646801948547363,2.1966564655303955
-8.404024124145508,8.323773384094238,1.6323198080062866
-8.663276672363281,7.917019367218018,1.6195460557937622
-11.324136734008789,9.542786598205566,2.04360294342041
-11.947397232055664,9.273515701293945,2.087099075317383
-12.235116958618164,8.732451438903809,2.074355125427246
-12.585161209106445,8.239877700805664,2.0758590698242188
-13.168766021728516,7.88500452041626,2.118124485015869
-14.044870376586914,7.660527229309082,2.207724094390869
-15.047198295593262,7.439145565032959,2.3163959980010986
-16.310306549072266,7.263510704040527,2.4639010429382324
-17.77850341796875,7.075912952423096,2.640580654144287
-17.9290828704834,6.3139872550964355,2.623140335083008
-18.168254852294922,5.588664531707764,2.623140335083008
-18.378087997436523,4.854318618774414,2.623140335083008
-18.558256149291992,4.1121296882629395,2.623140335083008
-18.83472442626953,3.386035680770874,2.6408438682556152
-19.532575607299805,2.706646680831909,2.7212350368499756
-19.625537872314453,1.919822096824646,2.7212350368499756
-19.686819076538086,1.1298985481262207,2.7212350368499756
-19.71631622314453,0.3381408751010895,2.7212350368499756
-19.713985443115234,-0.45415279269218445,2.7212350368499756
-19.679832458496094,-1.245713472366333,2.7212350368499756
-19.613903045654297,-2.0352723598480225,2.7212350368499756
-19.516313552856445,-2.8215277194976807,2.7212350368499756
-19.38721466064453,-3.603245258331299,2.7212350368499756
-19.226818084716797,-4.379147052764893,2.7212350368499756
-19.035388946533203,-5.1479597091674805,2.7212350368499756
-18.135046005249023,-5.695491790771484,2.623140335083008
-17.8916072845459,-6.419394493103027,2.623140335083008
-17.619306564331055,-7.132936954498291,2.623140335083008
-17.31853675842285,-7.834968090057373,2.623140335083008
-16.989824295043945,-8.524344444274902,2.623140335083008
-15.955187797546387,-8.824695587158203,2.5161423683166504
-14.5432710647583,-8.824697494506836,2.3475356101989746
-13.306832313537598,-8.824698448181152,2.203441858291626
-12.21174430847168,-8.824698448181152,2.079176664352417
-11.232068061828613,-8.824699401855469,1.9711902141571045
-10.34779167175293,-8.824700355529785,1.87674880027771
-10.606271743774414,-9.807817459106445,1.9935342073440552
-9.826507568359375,-9.847933769226074,1.9198367595672607
-9.099860191345215,-9.883768081665039,1.8540048599243164
-12.741996765136719,-15.007246971130371,2.716782331466675
-12.128849983215332,-15.50699520111084,2.716782331466675
-11.496132850646973,-15.98169994354248,2.716782331466675
-7.442961692810059,-11.276516914367676,1.864559531211853
-10.176092147827148,-16.852983474731445,2.716782331466675
-9.49086856842041,-17.248167037963867,2.716782331466675
-8.790329933166504,-17.615503311157227,2.716782331466675
-4.412639141082764,-9.810562133789062,1.4844920635223389
-7.358854293823242,-18.291685104370117,2.7208540439605713
-6.618374347686768,-18.573270797729492,2.720961809158325
-5.8671698570251465,-18.82488441467285,2.7210693359375
-5.106418132781982,-19.046125411987305,2.7211761474609375
-4.337350845336914,-19.23663330078125,2.7212815284729004
-3.561246156692505,-19.396087646484375,2.721386671066284
-2.779313325881958,-19.524234771728516,2.7214903831481934
-1.9928455352783203,-19.620859146118164,2.7215921878814697
-1.203090786933899,-19.68580436706543,2.7216930389404297
-0.41133543848991394,-19.718963623046875,2.721791982650757
0.3811180293560028,-19.72027015686035,2.721889019012451
1.1730324029922485,-19.689729690551758,2.7219841480255127
1.96311354637146,-19.62738609313965,2.722076892852783
2.7500641345977783,-19.533334732055664,2.722167491912842
3.5326337814331055,-19.407718658447266,2.7222557067871094
4.309548854827881,-19.250749588012695,2.722341299057007
4.860703945159912,-18.241426467895508,2.6051385402679443
5.334677219390869,-17.209203720092773,2.4863436222076416
6.309383869171143,-17.792348861694336,2.6051385402679443
7.0190324783325195,-17.524534225463867,2.6051385402679443
7.717344760894775,-17.228424072265625,2.6051385402679443
8.21817398071289,-16.532312393188477,2.547779083251953
8.21817398071289,-14.989590644836426,2.359044075012207
8.21817398071289,-13.657685279846191,2.199651002883911
8.21817398071289,-12.492619514465332,2.063555955886841
8.21817398071289,-11.461746215820312,1.9462774991989136
8.34693431854248,-10.70547866821289,1.873328447341919
9.022162437438965,-10.659158706665039,1.927137851715088
8.20716381072998,-8.941621780395508,1.6749151945114136
13.907021522521973,-13.980085372924805,2.7212300300598145
11.21965503692627,-10.406949043273926,2.111816883087158
10.315423011779785,-8.824430465698242,1.8733282089233398
11.188444137573242,-8.81817626953125,1.965902328491211
12.16342830657959,-8.818175315856934,2.0732474327087402
13.252882957458496,-8.818174362182617,2.196742057800293
14.482453346252441,-8.818172454833984,2.3398962020874023
15.885891914367676,-8.818171501159668,2.5073413848876953
16.97673988342285,-8.55036735534668,2.623140335083008
17.30651092529297,-7.861496925354004,2.623140335083008
17.60834503173828,-7.159931659698486,2.623140335083008
17.881755828857422,-6.446801662445068,2.623140335083008
18.126293182373047,-5.723275661468506,2.623140335083008
19.027469635009766,-5.177130222320557,2.7212350368499756
19.22008514404297,-4.408593654632568,2.7212350368499756
19.38166618347168,-3.632948160171509,2.7212350368499756
19.511959075927734,-2.851456880569458,2.7212350368499756
19.610755920410156,-2.0653433799743652,2.7212350368499756
19.67789077758789,-1.2758864164352417,2.7212350368499756
19.71326446533203,-0.4843791723251343,2.7212350368499756
19.716808319091797,0.3079115152359009,2.7212350368499756
19.68852424621582,1.0997064113616943,2.7212350368499756
19.62845230102539,1.8897255659103394,2.7212350368499756
19.536699295043945,2.676694631576538,2.7212350368499756
19.002140045166016,3.3860578536987305,2.6635866165161133
18.564531326293945,4.0836920738220215,2.623140335083008
18.385501861572266,4.826150894165039,2.623140335083008
18.176799774169922,5.560801029205322,2.623140335083008
17.93874168395996,6.286493301391602,2.623140335083008
17.008323669433594,6.7391791343688965,2.524667263031006
14.847997665405273,6.5850348472595215,2.241481304168701
13.506958961486816,6.651918888092041,2.077728271484375
12.583136558532715,6.838231563568115,1.9763133525848389
11.737733840942383,7.003718852996826,1.8862342834472656
16.514286041259766,10.776259422302246,2.7212300300598145
16.068065643310547,11.430961608886719,2.7212252616882324
5.858832836151123,4.533220291137695,1.0222750902175903
15.098564147949219,12.683964729309082,2.7212252616882324
14.576849937438965,13.280253410339355,2.7212252616882324
14.031600952148438,13.8551025390625,2.7212252616882324
13.46371078491211,14.40758228302002,2.7212300300598145
11.439536094665527,13.272404670715332,2.4180192947387695
5.637468338012695,7.098470211029053,1.2509253025054932
8.301533699035645,11.36186695098877,1.941857099533081
8.156682968139648,12.16067886352539,2.0207037925720215
7.995091915130615,13.021697998046875,2.1086621284484863
7.993981838226318,14.276068687438965,2.257920503616333
8.109224319458008,15.953295707702637,2.469634532928467
7.871233940124512,17.158660888671875,2.6051385402679443
7.175599098205566,17.461013793945312,2.6051385402679443
5.464135646820068,14.981691360473633,2.2006771564483643
5.750723838806152,17.980695724487305,2.6051385402679443
5.023778438568115,18.197187423706055,2.6051385402679443
4.481053352355957,19.20876121520996,2.721966505050659
3.7056593894958496,19.372522354125977,2.7218618392944336
2.924345016479492,19.5049991607666,2.7217578887939453
2.1383702754974365,19.60599136352539,2.7216553688049316
1.3490020036697388,19.675338745117188,2.721554756164551
0.5575153827667236,19.712932586669922,2.7214555740356445
-0.2348133772611618,19.718708038330078,2.721357822418213
-1.026706576347351,19.69267463684082,2.7212629318237305
-1.8168914318084717,19.634857177734375,2.7211697101593018
-2.604067325592041,19.545368194580078,2.721078634262085
-3.3870065212249756,19.424354553222656,2.7209901809692383
-4.164435386657715,19.272010803222656,2.7209043502807617
-4.935103893280029,19.088579177856445,2.7208211421966553
-5.697760105133057,18.874366760253906,2.720740795135498
-6.451172828674316,18.629716873168945,2.720663547515869
-7.194151401519775,18.35502815246582,2.7205898761749268
-7.782938003540039,17.72610855102539,2.6715903282165527
-8.220102310180664,16.848552703857422,2.587048053741455
-8.622913360595703,16.008350372314453,2.5092403888702393
-8.994495391845703,15.201974868774414,2.4375553131103516
-9.337624549865723,14.426237106323242,2.3714489936828613
-9.654698371887207,13.678385734558105,2.3104517459869385
-9.947874069213867,12.955860137939453,2.254141330718994
-10.292471885681152,12.344499588012695,2.2179760932922363
-10.702640533447266,11.835469245910645,2.2020483016967773
-6.0076212882995605,6.129469394683838,1.184399127960205
-8.409295082092285,7.917019367218018,1.593848466873169
-11.848956108093262,10.289512634277344,2.16562819480896
-11.865242958068848,9.49513053894043,2.097139596939087
-12.10428524017334,8.91305160522461,2.07436466217041
-12.456623077392578,8.42236328125,2.0750434398651123
-12.88192367553711,7.975229263305664,2.0907905101776123
-13.693437576293945,7.734604358673096,2.1702778339385986
-14.608683586120605,7.494077205657959,2.265756368637085
-15.811127662658691,7.324193954467773,2.4046382904052734
-17.204288482666016,7.144814491271973,2.570761203765869
-17.833436965942383,6.579283714294434,2.623140335083008
-18.083345413208008,5.857580661773682,2.623140335083008
-18.304052352905273,5.126430511474609,2.623140335083008
-18.495206832885742,4.387002468109131,2.623140335083008
-18.65651512145996,3.640486001968384,2.623140335083008
-19.490278244018555,2.9961113929748535,2.7212350368499756
-19.594898223876953,2.210742950439453,2.7212350368499756
-19.667888641357422,1.421805500984192,2.7212350368499756
-19.70912742614746,0.6305917501449585,2.7212350368499756
-19.718549728393555,-0.1616588532924652,2.7212350368499756
-19.696144104003906,-0.953639030456543,2.7212350368499756
-19.641937255859375,-1.74407958984375,2.7212350368499756
-19.5560245513916,-2.531714677810669,2.7212350368499756
-19.43853187561035,-3.3152520656585693,2.7212350368499756
-19.2896671295166,-4.093419551849365,2.7212350368499756
-19.109661102294922,-4.865006446838379,2.7212350368499756
-18.217548370361328,-5.425817966461182,2.623140335083008
-17.98487663269043,-6.153261184692383,2.623140335083008
-17.723180770874023,-6.870762825012207,2.623140335083008
-17.43287467956543,-7.57717227935791,2.623140335083008
-17.114418029785156,-8.271357536315918,2.623140335083008
-16.529523849487305,-8.824695587158203,2.5857841968536377
-15.04201602935791,-8.82469654083252,2.406641721725464
-13.745283126831055,-8.824697494506836,2.254114866256714
-12.601402282714844,-8.824698448181152,2.1229939460754395
-11.581727027893066,-8.824699401855469,2.0093533992767334
-10.664247512817383,-8.824700355529785,1.9101874828338623
-10.102373123168945,-9.067557334899902,1.873328447341919
-10.107807159423828,-9.833650588989258,1.9460759162902832
-9.362447738647461,-9.871000289916992,1.8774595260620117
-12.963234901428223,-14.816558837890625,2.716782331466675
-12.357574462890625,-15.325348854064941,2.716782331466675
-11.731959342956543,-15.80939769744873,2.716782331466675
-7.645210266113281,-11.217368125915527,1.873328447341919
-10.424969673156738,-16.700178146362305,2.716782331466675
-9.745683670043945,-17.10548210144043,2.716782331466675
-9.050682067871094,-17.483165740966797,2.716782331466675
-8.341073036193848,-17.832622528076172,2.716782331466675
-7.617997646331787,-18.153291702270508,2.716782331466675
-6.893091201782227,-18.47276496887207,2.7209222316741943
-6.145697593688965,-18.735502243041992,2.721029758453369
-5.388339042663574,-18.96799659729004,2.7211365699768066
-4.622198581695557,-19.169891357421875,2.721242904663086
-3.848540782928467,-19.340845108032227,2.7213480472564697
-3.0686211585998535,-19.48057746887207,2.721451997756958
-2.2836742401123047,-19.588863372802734,2.721554756164551
-1.4949712753295898,-19.6655216217041,2.721656084060669
-0.7038190960884094,-19.710424423217773,2.7217555046081543
0.08854220807552338,-19.723495483398438,2.721853494644165
0.8808043003082275,-19.704713821411133,2.721949338912964
1.6717156171798706,-19.65410041809082,2.7220427989959717
2.459975481033325,-19.57173728942871,2.7221343517303467
3.2443010807037354,-19.4577579498291,2.7222232818603516
4.02345609664917,-19.31233787536621,2.7223100662231445
4.752174377441406,-18.96027183532715,2.697434186935425
5.321459770202637,-18.11237907409668,2.6051385402679443
6.044752597808838,-17.883987426757812,2.6051385402679443
6.758299350738525,-17.626726150512695,2.6051385402679443
7.460923194885254,-17.341014862060547,2.6051385402679443
8.151508331298828,-17.027305603027344,2.6051385402679443
8.21817398071289,-15.531866073608398,2.424929618835449
8.21817398071289,-14.127984046936035,2.255509376525879
8.21817398071289,-12.905620574951172,2.111402750015259
8.21817398071289,-11.82846736907959,1.987624168395996
8.21817398071289,-10.869129180908203,1.8804197311401367
8.976739883422852,-10.930299758911133,1.9518628120422363
8.173697471618652,-9.174758911132812,1.695680856704712
8.475311279296875,-8.77651596069336,1.6836923360824585
11.21965503692627,-10.720993041992188,2.1415247917175293
10.183366775512695,-8.9765043258667,1.8733282089233398
10.853278160095215,-8.81817626953125,1.92978835105896
11.791244506835938,-8.81817626953125,2.031888008117676
12.83580207824707,-8.818175315856934,2.149059534072876
14.010199546813965,-8.8181734085083,2.2844836711883545
15.344860076904297,-8.818171501159668,2.442331552505493
16.84801483154297,-8.801305770874023,2.623140335083008
17.187971115112305,-8.11739444732666,2.623140335083008
17.500181198120117,-7.420384883880615,2.623140335083008
17.78413963317871,-6.711400508880615,2.623140335083008
18.03938865661621,-5.991570949554443,2.623140335083008
18.661426544189453,-5.37613582611084,2.6799983978271484
19.152563095092773,-4.693272590637207,2.7212350368499756
19.325634002685547,-3.920109272003174,2.7212350368499756
19.467512130737305,-3.1406090259552,2.7212350368499756
19.577959060668945,-2.3560473918914795,2.7212350368499756
19.656801223754883,-1.5676831007003784,2.7212350368499756
19.703914642333984,-0.7767782211303711,2.7212350368499756
19.719207763671875,0.015370864421129227,2.7212350368499756
18.16710090637207,-3.8843212127685547,2.7212350368499756
18.308473587036133,-3.1513988971710205,2.7212350368499756
18.420289993286133,-2.4133875370025635,2.7212350368499756
18.502370834350586,-1.6714729070663452,2.7212350368499756
18.554582595825195,-0.926867663860321,2.7212350368499756
18.569103240966797,0.5656295418739319,2.7212350368499756
18.53139305114746,1.3111019134521484,2.7212350368499756
18.463764190673828,2.0544676780700684,2.7212350368499756
18.366329193115234,2.7945165634155273,2.7212350368499756
17.58176612854004,3.402804374694824,2.623140335083008
17.430879592895508,4.106334686279297,2.623140335083008
17.251853942871094,4.803236484527588,2.623140335083008
17.044973373413086,5.492380142211914,2.623140335083008
16.810585021972656,6.172661781311035,2.623140335083008
16.39564323425293,6.779545783996582,2.598825216293335
14.36159896850586,6.626009941101074,2.316765785217285
12.872905731201172,6.578725814819336,2.1175696849823
12.0110445022583,6.76004695892334,2.018872022628784
11.218599319458008,6.921687602996826,1.9308865070343018
10.485702514648438,7.066344261169434,1.852146029472351
14.976489067077637,10.992636680603027,2.7212300300598145
14.52281665802002,11.585390090942383,2.7212300300598145
14.045702934265137,12.159433364868164,2.7212252616882324
13.545903205871582,12.713847160339355,2.7212300300598145
13.024248123168945,13.247743606567383,2.7212252616882324
8.474615097045898,9.342794418334961,1.8476440906524658
8.361689567565918,9.997584342956543,1.9091123342514038
5.356088638305664,6.953543663024902,1.285672903060913
8.098133087158203,11.435858726501465,2.0525741577148438
7.944056987762451,12.232125282287598,2.136442184448242
8.238991737365723,13.87648868560791,2.363882303237915
8.127547264099121,15.033510208129883,2.503296375274658
7.822894096374512,15.972262382507324,2.6051385402679443
7.174959659576416,16.273622512817383,2.6051385402679443
6.515440464019775,16.548707962036133,2.6051385402679443
5.845406532287598,16.797086715698242,2.6051385402679443
5.165931224822998,17.01834487915039,2.6051385402679443
4.679111003875732,17.984663009643555,2.7220656871795654
3.952730417251587,18.157447814941406,2.721966505050659
3.220031976699829,18.30091667175293,2.721867799758911
2.482173442840576,18.414838790893555,2.721770763397217
1.740370750427246,18.499034881591797,2.721674680709839
0.9958091378211975,18.553369522094727,2.7215800285339355
0.2496863454580307,18.5777587890625,2.721487283706665
-0.49678632616996765,18.57217788696289,2.7213964462280273
-1.2424018383026123,18.53662109375,2.7213070392608643
-1.9859739542007446,18.471160888671875,2.7212202548980713
-2.726288318634033,18.375898361206055,2.721135377883911
-3.4621574878692627,18.250995635986328,2.721053123474121
-4.19240140914917,18.096649169921875,2.720973014831543
-4.915835857391357,17.913122177124023,2.720895528793335
-5.631298542022705,17.70070457458496,2.7208211421966553
-6.337640285491943,17.459741592407227,2.7207493782043457
-7.033719539642334,17.19062614440918,2.7206807136535645
-7.657886981964111,16.761301040649414,2.6992783546447754
-8.075637817382812,15.947670936584473,2.6184186935424805
-8.461566925048828,15.16556453704834,2.5438058376312256
-8.818425178527832,14.412158012390137,2.474900960922241
-9.148658752441406,13.684877395629883,2.4112231731414795
-9.45440673828125,12.981453895568848,2.352353811264038
-9.73757553100586,12.299814224243164,2.2979187965393066
-10.123077392578125,11.781494140625,2.2752792835235596
-10.51760196685791,11.289565086364746,2.2601115703582764
-8.404024124145508,8.323775291442871,1.7326167821884155
-8.663275718688965,7.917019367218018,1.7190583944320679
-11.277579307556152,9.503555297851562,2.1602532863616943
-11.653429985046387,9.045341491699219,2.160829544067383
-11.99660873413086,8.562226295471191,2.158891201019287
-12.35394287109375,8.088496208190918,2.1629292964935303
-12.997614860534668,7.782524108886719,2.219052314758301
-13.840789794921875,7.549208641052246,2.309325695037842
-14.817331314086914,7.325498104095459,2.4211666584014893
-16.05596923828125,7.150249004364014,2.5745065212249756
-16.63862419128418,6.622225761413574,2.623140335083008
-16.891212463378906,5.948486328125,2.623140335083008
-17.116535186767578,5.265148639678955,2.623140335083008
-17.31422233581543,4.573314666748047,2.623140335083008
-17.483964920043945,3.874088764190674,2.623140335083008
-18.284591674804688,3.287134885787964,2.7212350368499756
-18.401880264282227,2.5499658584594727,2.7212350368499756
-18.48946189880371,1.8086882829666138,2.7212350368499756
-18.54719352722168,1.0644911527633667,2.7212350368499756
-18.574989318847656,0.3185667395591736,2.7212350368499756
-18.57278823852539,-0.4278630316257477,2.7212350368499756
-18.540611267089844,-1.1736019849777222,2.7212350368499756
-18.47850227355957,-1.9174554347991943,2.7212350368499756
-18.38656234741211,-2.658195734024048,2.7212350368499756
-18.264936447143555,-3.3946619033813477,2.7212350368499756
-18.11382293701172,-4.125648498535156,2.7212350368499756
-17.933475494384766,-4.849957466125488,2.7212350368499756
-17.118284225463867,-5.376168251037598,2.628211736679077
-16.855911254882812,-6.047791481018066,2.623140335083008
-16.599361419677734,-6.720026016235352,2.623140335083008
-16.316011428833008,-7.3814215660095215,2.623140335083008
-16.00632095336914,-8.030890464782715,2.623140335083008
-15.670798301696777,-8.66739559173584,2.623140335083008
