-79.05406188964844,-26.496461868286133,17.939571380615234
-85.9120864868164,-32.68949508666992,19.778106689453125
-76.12442016601562,-32.52329635620117,17.811485290527344
-66.0595474243164,-38.202232360839844,16.41924476623535
-64.2853775024414,-40.70710754394531,16.371810913085938
-65.5815658569336,-45.318214416503906,17.152063369750977
66.06834411621094,-19.481475830078125,14.820651054382324
68.71090698242188,-17.29328727722168,15.245158195495605
84.39513397216797,2.9306681156158447,18.169736862182617
79.2862319946289,5.949141502380371,17.107492446899414
72.36827087402344,8.36474895477295,15.674711227416992
65.85771179199219,10.307806968688965,14.342729568481445
61.18173599243164,12.111863136291504,13.419584274291992
56.57429504394531,13.5823335647583,12.518648147583008
52.467430114746094,14.849053382873535,11.732511520385742
48.32734298706055,15.800045013427734,10.939929962158203
45.08073425292969,16.771451950073242,10.34926986694336
42.3865852355957,17.738554000854492,9.886480331420898
39.59438705444336,18.47266960144043,9.400843620300293
37.02040481567383,19.118743896484375,8.964957237243652
34.635704040527344,19.68844223022461,8.572230339050293
32.400516510009766,20.18168830871582,8.213217735290527
30.34164047241211,20.6358642578125,7.895223617553711
28.38125991821289,21.01824951171875,7.598862648010254
26.076269149780273,20.9843807220459,7.201778888702393
22.67316436767578,19.797847747802734,6.476494789123535
19.89550018310547,18.83345603942871,5.894590377807617
17.57796287536621,18.0325984954834,5.418370723724365
15.608458518981934,17.3554630279541,5.022298812866211
13.577818870544434,16.375455856323242,4.577042579650879
12.366415977478027,16.196964263916016,4.384648323059082
11.248226165771484,16.028640747070312,4.2132568359375
10.210113525390625,15.868942260742188,4.060102462768555
9.241181373596191,15.716586112976074,3.922898054122925
8.525423049926758,15.931319236755371,3.8878040313720703
7.6482157707214355,15.785520553588867,3.774136543273926
6.8385329246521,15.691337585449219,3.682910919189453
6.887646675109863,17.715118408203125,4.08961820602417
6.548842430114746,19.07994270324707,4.340404987335205
2.974745035171509,9.95218276977539,2.234961986541748
2.5067434310913086,9.806199073791504,2.177786350250244
4.929127216339111,23.116134643554688,5.085574150085449
3.958502769470215,23.073640823364258,5.03714656829834
3.0015978813171387,23.008506774902344,4.992554664611816
2.0587875843048096,22.93096351623535,4.953761577606201
1.128361701965332,22.841161727905273,4.920587539672852
0.20874369144439697,22.739219665527344,4.8928704261779785
-0.7016621232032776,22.625202178955078,4.870467185974121
-1.6042957305908203,22.499094009399414,4.8532819747924805
-2.500582695007324,22.36083221435547,4.841233730316162
-3.1999847888946533,20.953426361083984,4.560695648193359
-4.244943141937256,21.868318557739258,4.793103218078613
-5.12328577041626,21.694110870361328,4.796189785003662
-6.000735759735107,21.507043838500977,4.804287433624268
-6.934718608856201,21.480518341064453,4.856715679168701
-7.8216142654418945,21.265071868896484,4.8751654624938965
-8.71165657043457,21.03541374206543,4.898850440979004
-9.606241226196289,20.79098892211914,4.927887439727783
-10.506791114807129,20.531164169311523,4.962414741516113
-11.414750099182129,20.255229949951172,5.002598762512207
-12.331665992736816,19.962373733520508,5.048641681671143
-13.259123802185059,19.651714324951172,5.10076904296875
-14.198787689208984,19.32223892211914,5.15924596786499
-15.152446746826172,18.97280502319336,5.224383354187012
-15.973498344421387,18.430877685546875,5.247750759124756
-16.951629638671875,18.04108238220215,5.32650899887085
-17.949609756469727,17.627330780029297,5.413036823272705
-18.103357315063477,16.40291404724121,5.256289958953857
-19.60726547241211,16.380563735961914,5.497292995452881
-20.316184997558594,15.6310453414917,5.515406608581543
-21.17826271057129,14.979562759399414,5.581447601318359
-21.05162239074707,13.655328750610352,5.399023056030273
-22.582000732421875,13.390938758850098,5.648876667022705
-23.433666229248047,12.652227401733398,5.730051040649414
-19.190038681030273,16.37753677368164,5.648064136505127
-19.88956642150879,15.638352394104004,5.664328098297119
-20.733570098876953,14.994400024414062,5.728384494781494
-21.13948631286621,14.030167579650879,5.680102825164795
-20.79025650024414,12.625655174255371,5.445479393005371
-22.94569206237793,12.702021598815918,5.871544361114502
-23.794189453125,11.949173927307129,5.960920333862305
-24.456968307495117,11.075150489807129,6.01055908203125
-22.908733367919922,9.284022331237793,5.533859729766846
-23.687646865844727,8.508719444274902,5.634832382202148
-27.603008270263672,8.680072784423828,6.477976322174072
-28.994474411010742,7.8526716232299805,6.725008010864258
-30.46760368347168,6.951064586639404,6.996218204498291
-32.033050537109375,5.965664863586426,7.2947211265563965
-33.822601318359375,4.902437210083008,7.651185035705566
-35.57179641723633,3.7042930126190186,8.006696701049805
-37.4113883972168,2.3818211555480957,8.392440795898438
-15.141840934753418,0.3543573021888733,3.3908164501190186
-14.989542007446289,-0.2515997290611267,3.356264352798462
-20.794092178344727,-1.1858315467834473,4.6628499031066895
-37.07050704956055,-3.6126489639282227,8.338499069213867
-12.017827987670898,-1.6608480215072632,2.7160696983337402
-58.47166061401367,-10.489725112915039,13.299348831176758
-62.80152893066406,-13.89151382446289,14.399569511413574
-67.17064666748047,-17.716012954711914,15.552098274230957
-72.16424560546875,-22.16936683654785,16.90097427368164
-77.2387924194336,-27.169139862060547,18.330469131469727
-79.4316177368164,-31.580480575561523,19.136716842651367
-74.19868469238281,-36.64924240112305,18.527122497558594
-52.61111831665039,-28.670856475830078,13.41376781463623
-62.223697662353516,-37.22652816772461,16.233064651489258
-60.90099334716797,-39.8419189453125,16.292707443237305
-61.89216232299805,-44.139549255371094,17.018869400024414
-53.780879974365234,-80.38394927978516,21.652328491210938
60.57496643066406,-22.267528533935547,14.448501586914062
63.12013626098633,-20.36455726623535,14.848316192626953
65.61650085449219,-18.294666290283203,15.250216484069824
68.19459533691406,-16.09145164489746,15.686379432678223
89.45121765136719,-2.7573940753936768,20.035457611083984
84.95549011230469,0.7957031726837158,19.02029037475586
79.94065856933594,3.964113712310791,17.91874885559082
73.01606750488281,6.569318771362305,16.41254425048828
66.49189758300781,8.686939239501953,15.012422561645508
61.810787200927734,10.616134643554688,14.040550231933594
57.19380187988281,12.206832885742188,13.092689514160156
53.077476501464844,13.578665733337402,12.26544189453125
43.01993179321289,12.867583274841309,10.052706718444824
45.668460845947266,15.684394836425781,10.81022834777832
40.34778594970703,15.695914268493652,9.692302703857422
40.17021560668945,17.515762329101562,9.81086254119873
37.58882522583008,18.220787048339844,9.351764678955078
35.197322845458984,18.843793869018555,8.938035011291504
32.971553802490234,19.395198822021484,8.563908576965332
30.891311645507812,19.88368797302246,8.224586486816406
28.925485610961914,20.30674934387207,7.912181854248047
27.089767456054688,20.691091537475586,7.63142204284668
24.984846115112305,20.724224090576172,7.267291069030762
21.783153533935547,19.597808837890625,6.559896469116211
19.152252197265625,18.67635726928711,5.988892555236816
16.944866180419922,17.9071044921875,5.519308090209961
15.06009578704834,17.25381851196289,5.127193450927734
13.032079696655273,16.200519561767578,4.65473747253418
11.867762565612793,16.031465530395508,4.4654717445373535
10.790023803710938,15.871367454528809,4.296574592590332
9.786906242370605,15.718866348266602,4.145425796508789
8.893717765808105,15.652568817138672,4.030389785766602
8.151323318481445,15.790994644165039,3.9784364700317383
7.298022270202637,15.650253295898438,3.8659348487854004
7.084621906280518,16.937721252441406,4.110290050506592
6.769682884216309,18.20693016052246,4.348728179931641
6.4154462814331055,19.635236740112305,4.624539852142334
2.8113555908203125,9.940695762634277,2.312767744064331
2.4038541316986084,10.020988464355469,2.3070993423461914
4.500392436981201,22.75554656982422,5.193083763122559
3.5504865646362305,22.71225357055664,5.146471977233887
2.6133084297180176,22.646352767944336,5.103610038757324
1.6891118288040161,22.567882537841797,5.066529750823975
0.7763293981552124,22.477005004882812,5.03505277633667
-0.12655580043792725,22.37381935119629,5.009030818939209
-1.0210081338882446,22.258359909057617,4.988345146179199
-1.9083919525146484,22.13062286376953,4.972896099090576
-2.688715934753418,21.19161033630371,4.782315254211426
-3.63761043548584,21.660648345947266,4.9171953201293945
-4.504738807678223,21.496755599975586,4.9171319007873535
-5.37008810043335,21.320056915283203,4.922121047973633
-5.3747878074646,18.215211868286133,4.251762866973877
-7.1584343910217285,21.097671508789062,4.987728595733643
-8.033197402954102,20.87893295288086,5.008326530456543
-8.911345481872559,20.645700454711914,5.034251689910889
-9.79416275024414,20.39741325378418,5.065629482269287
-10.68305778503418,20.133420944213867,5.102605819702148
-11.579429626464844,19.852985382080078,5.145363807678223
-12.484760284423828,19.5553035736084,5.194103717803955
-13.400565147399902,19.23946189880371,5.249069690704346
-14.328460693359375,18.904436111450195,5.3105363845825195
-15.129693984985352,18.37843894958496,5.32934045791626
-16.07806396484375,18.004772186279297,5.404058933258057
-17.04381561279297,17.608287811279297,5.486290454864502
-18.029022216796875,17.187406539916992,5.576491355895996
-18.015125274658203,15.842691421508789,5.370848655700684
-19.628238677978516,15.909675598144531,5.6565070152282715
-20.396291732788086,15.216383934020996,5.696948051452637
-21.276172637939453,14.580118179321289,5.774320125579834
-20.915821075439453,13.13054084777832,5.528785228729248
-20.974401473999023,12.020692825317383,5.412153244018555
-23.479217529296875,12.230477333068848,5.926817893981934
-24.181859970092773,11.385870933532715,5.98380708694458
-22.778995513916016,9.627288818359375,5.5364155769348145
-23.380203247070312,8.792033195495605,5.592113018035889
-24.960514068603516,8.257960319519043,5.8859333992004395
-28.471755981445312,8.166332244873047,6.631136894226074
-29.913576126098633,7.293159484863281,6.8930816650390625
-31.443544387817383,6.3399338722229,7.181107044219971
-33.41524887084961,5.3506927490234375,7.576159477233887
-34.685420989990234,4.133029937744141,7.820131301879883
-36.69551467895508,2.883439064025879,8.240535736083984
-39.149169921875,1.4975701570510864,8.770929336547852
-15.045430183410645,-0.029295802116394043,3.3683102130889893
-20.512977600097656,-0.8647077679634094,4.596429824829102
-26.159521102905273,-2.158090353012085,5.876372814178467
-53.63648223876953,-6.60312557220459,12.09854793548584
-57.16217041015625,-9.381718635559082,12.96842098236084
-60.75267028808594,-12.495919227600098,13.885757446289062
-65.49191284179688,-16.23797607421875,15.105973243713379
-70.238525390625,-20.442472457885742,16.377140045166016
-75.01801300048828,-25.143699645996094,17.712940216064453
-82.10722351074219,-31.241744995117188,19.6674861907959
-75.93080139160156,-32.44057846069336,18.485509872436523
-73.55445861816406,-34.98333740234375,18.23465347290039
-65.42059326171875,-37.83272933959961,16.918787002563477
-61.689422607421875,-39.06328582763672,16.346790313720703
-61.52265167236328,-42.51342010498047,16.741981506347656
-62.49985885620117,-47.00730895996094,17.508039474487305
54.95670700073242,-18.63532257080078,12.991567611694336
64.68574523925781,-19.073793411254883,15.098003387451172
67.23267364501953,-16.92124366760254,15.521148681640625
69.76507568359375,-14.606002807617188,15.957316398620605
68.93868255615234,-3.149359941482544,15.449790954589844
82.14572143554688,2.852558135986328,18.40150260925293
75.45063781738281,5.661344528198242,16.93903350830078
68.58602142333984,7.927549839019775,15.456972122192383
63.66280746459961,9.964265823364258,14.426071166992188
58.83503341674805,11.647297859191895,13.42735481262207
54.544761657714844,13.095084190368652,12.558237075805664
50.69944381713867,14.348685264587402,11.796188354492188
46.85913848876953,15.320034980773926,11.037055969238281
43.725547790527344,16.26727867126465,10.444583892822266
41.176856994628906,17.232303619384766,9.993175506591797
38.518367767333984,17.97065544128418,9.515645980834961
36.05976867675781,18.622629165649414,9.085887908935547
33.77534484863281,19.199382781982422,8.69774055480957
31.643518447875977,19.71017837524414,8.34608268737793
29.631772994995117,20.15306854248047,8.022706985473633
27.755704879760742,20.554981231689453,7.732253074645996
25.98366355895996,20.90985870361328,7.466756820678711
22.88899803161621,19.98631477355957,6.80286979675293
20.067737579345703,18.996496200561523,6.1863484382629395
17.71773910522461,18.175994873046875,5.682584762573242
15.723437309265137,17.48331069946289,5.264137268066406
14.004097938537598,16.889562606811523,4.911874771118164
12.286855697631836,16.092761993408203,4.53282356262207
11.17867374420166,15.929527282714844,4.356739044189453
10.14925479888916,15.774361610412598,4.199311256408691
9.187957763671875,15.626063346862793,4.058218955993652
8.478789329528809,15.84417724609375,4.023086071014404
7.607602119445801,15.701684951782227,3.90609073638916
6.840860843658447,15.696673393249512,3.8333284854888916
6.890121936798096,17.72148323059082,4.25672721862793
6.551339626312256,19.08721923828125,4.517862319946289
2.9879512786865234,9.996359825134277,2.335773468017578
2.5175838470458984,9.84860897064209,2.2757620811462402
4.855717658996582,22.771852493286133,5.212673187255859
3.900117874145508,22.73335838317871,5.163801193237305
2.9577250480651855,22.67215347290039,5.118752956390381
2.0289130210876465,22.59830665588379,5.079557418823242
1.112095594406128,22.511991500854492,5.046031951904297
0.20574891567230225,22.41334342956543,5.018015384674072
-0.6916519403457642,22.302419662475586,4.99536657333374
-1.5814846754074097,22.179224014282227,4.977993011474609
-2.4651243686676025,22.04370880126953,4.965808868408203
-3.158828020095825,20.683971405029297,4.684323787689209
-4.18485164642334,21.558744430541992,4.916567802429199
-5.050714015960693,21.38680648803711,4.919689178466797
-5.91559362411499,21.201881408691406,4.927877426147461
-6.836045265197754,21.174867630004883,4.981454372406006
-7.709901332855225,20.96135902404785,5.000102519989014
-8.586637496948242,20.733543395996094,5.024049758911133
-9.467580795288086,20.490877151489258,5.053398609161377
-10.354079246520996,20.232757568359375,5.088291645050049
-11.247526168823242,19.95848846435547,5.128889083862305
-12.149373054504395,19.667278289794922,5.175395488739014
-13.061121940612793,19.35825538635254,5.228034019470215
-13.984360694885254,19.03043556213379,5.287066459655762
-14.920762062072754,18.682720184326172,5.352795600891113
-15.725998878479004,18.145307540893555,5.375621795654297
-16.68509292602539,17.757421493530273,5.455029487609863
-17.662874221801758,17.34574317932129,5.542231559753418
-18.002647399902344,16.311662673950195,5.438680648803711
-19.366403579711914,16.17934799194336,5.649605751037598
-20.0744571685791,15.445060729980469,5.670434474945068
-20.970760345458984,14.832793235778809,5.750530242919922
-21.04528045654297,13.651211738586426,5.615926265716553
-21.03339385986328,12.472627639770508,5.474525451660156
-23.166242599487305,12.507845878601074,5.894016265869141
-17.929080963134766,15.301383972167969,5.48303747177124
-19.669620513916016,15.465415954589844,5.820481777191162
-20.470134735107422,14.803882598876953,5.876497268676758
-21.133024215698242,14.025880813598633,5.900154113769531
-20.784164428710938,12.621955871582031,5.656511306762695
-22.686813354492188,12.558719635009766,6.032045364379883
-23.38507652282715,11.74372673034668,6.087249755859375
-22.413143157958984,10.149616241455078,5.723409175872803
-22.698135375976562,9.198674201965332,5.697146415710449
-23.610307693481445,8.480939865112305,5.8358001708984375
-26.984952926635742,8.485719680786133,6.58027982711792
-28.321088790893555,7.670298099517822,6.825384616851807
-29.73215675354004,6.7832722663879395,7.093998432159424
-31.227649688720703,5.815668106079102,7.389065265655518
-33.12765121459961,4.801704406738281,7.786674499511719
-34.60331726074219,3.6034395694732666,8.092911720275879
-36.7348518371582,2.3387556076049805,8.562536239624023
-15.138603210449219,0.35428011417388916,3.522501230239868
-15.304457664489746,-0.25688618421554565,3.5606191158294678
-20.873855590820312,-1.1903791427612305,4.863557815551758
-37.062782287597656,-3.6118967533111572,8.662374496459961
-12.015336036682129,-1.6605037450790405,2.821568489074707
-56.308250427246094,-10.101611137390137,13.30750846862793
-60.31291198730469,-13.341038703918457,14.369095802307129
-64.30494689941406,-16.960189819335938,15.47011947631836
-68.83080291748047,-21.14531135559082,16.749906539916992
-73.37149810791016,-25.808794021606445,18.0927734375
-79.01703643798828,-31.415645599365234,19.780376434326172
-70.41497802734375,-34.780330657958984,18.269073486328125
-52.429500579833984,-28.571884155273438,13.889569282531738
-62.16774368286133,-37.193058013916016,16.8519287109375
-61.393611907958984,-40.1641960144043,17.06600570678711
-60.61327362060547,-43.22748565673828,17.318193435668945
-59.314788818359375,-46.005191802978516,17.4615478515625
-53.55935287475586,-80.05284881591797,22.405353546142578
54.42241287231445,-20.00584602355957,13.487995147705078
55.791202545166016,-18.000011444091797,13.636871337890625
64.2532730102539,-17.914583206176758,15.516643524169922
66.73812103271484,-15.747771263122559,15.950943946838379
69.35160827636719,-13.448664665222168,16.433076858520508
85.84884643554688,-2.6463446617126465,19.979618072509766
82.71672058105469,0.7747340202331543,19.24238395690918
76.0350570678711,3.770439863204956,17.708984375
67.4130859375,6.0652174949646,15.744953155517578
63.72698211669922,8.325709342956543,14.950138092041016
59.41873550415039,10.205291748046875,14.024360656738281
55.12444305419922,11.765169143676758,13.111845016479492
51.274253845214844,13.117351531982422,12.311534881591797
42.73355484008789,12.781925201416016,10.375814437866211
44.28543472290039,15.209405899047852,10.892288208007812
39.4710807800293,15.354857444763184,9.852033615112305
39.071380615234375,17.036630630493164,9.915203094482422
36.60747146606445,17.745086669921875,9.463335990905762
34.31802749633789,18.373046875,9.055123329162598
32.181522369384766,18.930471420288086,8.685187339782715
30.17976951599121,19.425697326660156,8.348976135253906
28.2851619720459,19.857206344604492,8.039216995239258
26.509593963623047,20.247955322265625,7.759664535522461
24.828670501708984,20.594682693481445,7.503937244415283
21.985729217529297,19.78006362915039,6.879502773284912
19.31473159790039,18.83479881286621,6.275599956512451
17.077268600463867,18.04701805114746,5.779687881469727
15.16933822631836,17.37897491455078,5.366096496582031
13.517681121826172,16.804180145263672,5.016763687133789
11.792741775512695,15.930130004882812,4.610554218292236
10.724384307861328,15.774813652038574,4.437230110168457
9.729447364807129,15.626585960388184,4.282050132751465
8.826760292053223,15.5347261428833,4.156280040740967
8.107307434082031,15.705721855163574,4.111504554748535
7.2597246170043945,15.568119049072266,3.995849609375
7.087090969085693,16.943618774414062,4.272314548492432
6.772176742553711,18.213647842407227,4.520247459411621
6.417961597442627,19.642932891845703,4.807049751281738
2.8238179683685303,9.98474407196045,2.4137463569641113
2.4067180156707764,10.032920837402344,2.400064468383789
4.434352874755859,22.421619415283203,5.316735744476318
3.4988749027252197,22.38205909729004,5.269737720489502
2.5756239891052246,22.319814682006836,5.226484298706055
1.664927363395691,22.24480628967285,5.189054012298584
0.7652902603149414,22.157197952270508,5.157277584075928
-0.1247701644897461,22.057106018066406,5.130998611450195
-1.006605625152588,21.944562911987305,5.110108375549316
-1.881575584411621,21.819581985473633,5.0945024490356445
-2.6264965534210205,20.701223373413086,4.854119777679443
-3.5866379737854004,21.357141494750977,5.037662506103516
-4.441622734069824,21.19554901123047,5.03759765625
-5.2947678565979,21.021028518676758,5.042635917663574
-5.394570350646973,18.282257080078125,4.434088230133057
-7.0575127601623535,20.80023193359375,5.10947322845459
-7.919482231140137,20.5833797454834,5.1302714347839355
-8.784550666809082,20.351953506469727,5.156452178955078
-9.65395450592041,20.105411529541016,5.188132286071777
-10.529022216796875,19.84311866760254,5.225459575653076
-11.411094665527344,19.564373016357422,5.268607139587402
-12.301566123962402,19.268369674682617,5.317783355712891
-13.20188045501709,18.9542179107666,5.373224258422852
-14.113571166992188,18.620920181274414,5.435203552246094
-15.018350601196289,18.24317741394043,5.4967427253723145
-15.381758689880371,17.225019454956055,5.371953010559082
-16.777509689331055,17.33316993713379,5.611509323120117
-17.74277114868164,16.914520263671875,5.702302932739258
-17.916332244873047,15.755819320678711,5.550016403198242
-19.403104782104492,15.727195739746094,5.810025215148926
-20.141204833984375,15.026080131530762,5.845431327819824
-21.031293869018555,14.412311553955078,5.930797576904297
-20.909597396850586,13.12663745880127,5.743021011352539
-20.601539611816406,11.806995391845703,5.523570537567139
-23.21186065673828,12.091204643249512,6.088185787200928
-22.419776916503906,10.556198120117188,5.764463424682617
-22.555397033691406,9.532787322998047,5.69619083404541
-23.10042381286621,8.686822891235352,5.740996360778809
-24.89435577392578,8.23607349395752,6.099614143371582
-27.81950569152832,7.9792585372924805,6.732295036315918
-29.201881408691406,7.119645118713379,6.991910934448242
-30.66497230529785,6.182952880859375,7.276828765869141
-32.73558044433594,5.241861343383789,7.711952209472656
-33.95257568359375,4.045709133148193,7.953883647918701
-36.02519989013672,2.830770969390869,8.405984878540039
-38.3510856628418,1.4670403003692627,8.927719116210938
-15.042234420776367,-0.029289275407791138,3.4991259574890137
-20.590538024902344,-0.8679782152175903,4.794016361236572
-31.69685935974121,-2.614903450012207,7.3983635902404785
-52.44477844238281,-6.4564127922058105,12.291770935058594
-55.09793472290039,-9.042928695678711,12.988335609436035
-58.489986419677734,-12.030518531799316,13.890743255615234
-62.77467346191406,-15.564268112182617,15.044759750366211
-67.09013366699219,-19.526147842407227,16.254024505615234
-72.01778411865234,-24.13810157775879,17.668689727783203
-77.74794006347656,-29.583036422729492,19.350669860839844
-82.1089096069336,-35.08010482788086,20.770328521728516
-69.77810668945312,-33.187255859375,17.97410774230957
-36.208091735839844,-19.04074478149414,9.516324996948242
-64.79157257080078,-37.468963623046875,17.41057014465332
-61.69148254394531,-39.064571380615234,16.985822677612305
-60.90412902832031,-42.08601760864258,17.22100067138672
-60.1082649230957,-45.20854187011719,17.495742797851562
55.024959564208984,-21.159093856811523,13.713623046875
54.992393493652344,-18.647411346435547,13.507753372192383
63.35494613647461,-18.68138885498047,15.364954948425293
65.81153869628906,-16.563568115234375,15.786481857299805
68.34716033935547,-14.309173583984375,16.243595123291016
68.77629852294922,-3.141934633255005,16.01540756225586
78.60697174072266,2.7296714782714844,18.29655647277832
67.66378021240234,5.07706356048584,15.784175872802734
65.6531753540039,7.588554382324219,15.373912811279297
61.13410186767578,9.568479537963867,14.39414119720459
56.65388488769531,11.215506553649902,13.434577941894531
52.649009704589844,12.639949798583984,12.59521484375
42.956787109375,12.157416343688965,10.385076522827148
45.411190032958984,14.846644401550293,11.113776206970215
42.44483184814453,15.790813446044922,10.53465747833252
40.0301513671875,16.752403259277344,10.094325065612793
37.495574951171875,17.493484497070312,9.624759674072266
35.144412994384766,18.1499080657959,9.20111083984375
32.953712463378906,18.732330322265625,8.817608833312988
30.904138565063477,19.249637603759766,8.469428062438965
28.96531105041504,19.69979476928711,8.148569107055664
27.153568267822266,20.109060287475586,7.859968185424805
25.438941955566406,20.471500396728516,7.595742225646973
23.109830856323242,20.17913818359375,7.136771202087402
20.24363899230957,19.16301155090332,6.484318733215332
17.86030387878418,18.322240829467773,5.952042579650879
15.840566635131836,17.613550186157227,5.510489463806152
14.101384162902832,17.00689697265625,5.139178276062012
12.208024978637695,15.98951244354248,4.679649353027344
11.109723091125488,15.831270217895508,4.498981475830078
10.088903427124023,15.680559158325195,4.337381362915039
9.135147094726562,15.536245346069336,4.19248628616333
8.432487487792969,15.757659912109375,4.15739631652832
7.567264080047607,15.618429183959961,4.037132263183594
7.148056507110596,16.40156364440918,4.161916732788086
6.892607688903809,17.72787857055664,4.424581050872803
6.553849220275879,19.094528198242188,4.696122169494629
3.0013198852539062,10.041096687316895,2.4378669261932373
2.5285580158233643,9.891545295715332,2.3749561309814453
4.784196853637695,22.43644905090332,5.336493968963623
3.8432321548461914,22.40176010131836,5.287222385406494
2.914947748184204,22.344295501708984,5.241764068603516
1.9998035430908203,22.273975372314453,5.202206134796143
1.0962436199188232,22.19100570678711,5.168358325958252
0.20283454656600952,22.095516204833984,5.1400675773620605
-0.681882381439209,21.987571716308594,5.117198944091797
-1.5592296123504639,21.8671817779541,5.0996527671813965
-2.4305202960968018,21.734315872192383,5.087347507476807
-3.1185760498046875,20.42039680480957,4.805258274078369
-4.126223087310791,21.256704330444336,5.037027359008789
-4.979908466339111,21.086984634399414,5.040180206298828
-5.832525253295898,20.904165267944336,5.048452377319336
-6.73978328704834,20.876708984375,5.103134632110596
-7.600940227508545,20.665111541748047,5.121973037719727
-8.464704513549805,20.439130783081055,5.146153450012207
-9.33237361907959,20.1982364654541,5.17578649520874
-10.20520305633545,19.94183349609375,5.2110090255737305
-11.084525108337402,19.669252395629883,5.251987457275391
-11.9717378616333,19.379722595214844,5.298909664154053
-12.86823844909668,19.072376251220703,5.352007865905762
-13.775547981262207,18.746274948120117,5.411538124084473
-14.695237159729004,18.400333404541016,5.477800369262695
-15.4851713180542,17.867431640625,5.500046730041504
-16.425867080688477,17.481534957885742,5.580028533935547
-17.38413429260254,17.072011947631836,5.667821884155273
-17.902681350708008,16.221088409423828,5.619724750518799
-19.143444061279297,15.993083953857422,5.802685737609863
-19.858219146728516,15.278688430786133,5.828446865081787
-20.7043399810791,14.64435863494873,5.899224281311035
-21.038923263549805,13.64709758758545,5.833514213562012
-20.62628173828125,12.23121452331543,5.578248500823975
-22.903892517089844,12.366195678710938,6.054868221282959
-17.832094192504883,15.218611717224121,5.659163475036621
-19.436731338500977,15.282304763793945,5.968605041503906
-20.210601806640625,14.616205215454102,6.02093505859375
-21.082704544067383,13.992490768432617,6.108220100402832
-20.34331703186035,12.354233741760254,5.745456218719482
-22.43274688720703,12.41807746887207,6.1895647048950195
-23.064924240112305,11.58294677734375,6.230471611022949
-22.21892738342285,10.061667442321777,5.887913703918457
-22.519594192504883,9.126322746276855,5.865624904632568
-23.615283966064453,8.482728004455566,6.0572943687438965
-26.448741912841797,8.31710147857666,6.692902088165283
-27.675830841064453,7.495541572570801,6.921567916870117
-29.028709411621094,6.622785568237305,7.187522888183594
-30.45886993408203,5.672494888305664,7.479116916656494
-32.47747802734375,4.707472324371338,7.921894550323486
-33.782188415527344,3.51792573928833,8.199024200439453
-36.06789779663086,2.2962913513183594,8.724313735961914
-15.135354995727539,0.35420483350753784,3.654639482498169
-41.335289001464844,-0.6938043236732483,9.979625701904297
-26.1624698638916,-1.4919748306274414,6.3258209228515625
-37.05503463745117,-3.611140251159668,8.987372398376465
-51.74544143676758,-7.151142120361328,12.609928131103516
-54.29171371459961,-9.739848136901855,13.315114974975586
-57.99828338623047,-12.82905101776123,14.33906364440918
-61.66400909423828,-16.263654708862305,15.394571304321289
-65.780517578125,-20.208240509033203,16.61167335510254
-70.4614486694336,-24.78514862060547,18.030826568603516
-76.00738525390625,-30.219066619873047,19.744949340820312
-77.5894775390625,-34.519187927246094,20.499908447265625
-66.9286880493164,-33.0583381652832,18.019817352294922
-68.40869140625,-37.27986526489258,18.806621551513672
-62.15432357788086,-37.18503189086914,17.484066009521484
-61.395545959472656,-40.16545867919922,17.710554122924805
-60.599822998046875,-43.21788024902344,17.967708587646484
-59.79412841796875,-46.376949310302734,18.266891479492188
-53.33878707885742,-79.72319030761719,23.15506935119629
55.466365814208984,-22.958873748779297,14.491156578063965
53.840187072753906,-19.79182243347168,13.847227096557617
56.04961395263672,-18.083385467529297,14.217008590698242
62.940528869628906,-17.5485782623291,15.773198127746582
65.3372573852539,-15.417226791381836,16.205402374267578
94.73329162597656,-10.576020240783691,23.010459899902344
86.76436614990234,-6.170437812805176,20.997617721557617
85.86752319335938,-2.6469273567199707,20.738067626953125
79.1123275756836,0.7409718036651611,19.098373413085938
68.1098861694336,3.3774402141571045,16.461772918701172
66.72535705566406,6.00334358215332,16.17239761352539
61.67396926879883,8.057493209838867,15.014482498168945
57.19668197631836,9.823651313781738,14.009320259094238
53.192420959472656,11.352819442749023,13.12973403930664
49.583251953125,12.684745788574219,12.354759216308594
41.98223876953125,12.55720043182373,10.578044891357422
42.97882080078125,14.760662078857422,10.96981430053711
38.62845230102539,15.027064323425293,10.005547523498535
38.02713394165039,16.581298828125,10.014358520507812
35.672515869140625,17.291885375976562,9.56962776184082
33.47845458984375,17.92356300354004,9.166927337646484
31.42561149597168,18.485822677612305,8.801216125488281
29.49770164489746,18.98668098449707,8.468217849731445
27.66884422302246,19.42453384399414,8.16080379486084
25.951631546020508,19.821788787841797,7.882996559143066
24.322969436645508,20.175216674804688,7.6284942626953125
22.192916870117188,19.96646499633789,7.206380844116211
19.480627059936523,18.99657440185547,6.56834602355957
17.212261199951172,18.189678192138672,6.045201301574707
15.280618667602539,17.506460189819336,5.609437465667725
13.610344886779785,16.919368743896484,5.241759300231934
12.14681625366211,16.408418655395508,4.928187370300293
10.659287452697754,15.679059028625488,4.576719760894775
9.672440528869629,15.535028457641602,4.417599678039551
8.760551452636719,15.418203353881836,4.280766487121582
8.06359577178955,15.621039390563965,4.243648052215576
7.221676349639893,15.486530303955078,4.124899864196777
7.08957052230835,16.949546813964844,4.435081958770752
6.774685382843018,18.22038459777832,4.692554473876953
6.420489311218262,19.650663375854492,4.990405082702637
2.8364315032958984,10.029356002807617,2.516021728515625
2.4096004962921143,10.044934272766113,2.4936139583587646
4.371861934661865,22.10564613342285,5.439613342285156
3.4485480785369873,22.06009292602539,5.389932632446289
2.5388734340667725,22.001352310180664,5.34631872177124
1.6413418054580688,21.929651260375977,5.308574676513672
0.7545062303543091,21.845184326171875,5.276519298553467
-0.12302452325820923,21.7480525970459,5.250015735626221
-0.9925582408905029,21.638328552246094,5.228935718536377
-1.8553898334503174,21.51601219177246,5.213188171386719
-2.566866397857666,20.231287002563477,4.922937393188477
-3.5368900299072266,21.06089973449707,5.155245780944824
-4.3800153732299805,20.90155029296875,5.155179500579834
-5.221256256103516,20.729164123535156,5.160264492034912
-5.414577007293701,18.350059509277344,4.618474006652832
-6.959024429321289,20.509950637817383,5.228285789489746
-7.808523178100586,20.29496955871582,5.249270915985107
-8.660844802856445,20.06536102294922,5.275677680969238
-9.517184257507324,19.82056999206543,5.307631492614746
-10.378798484802246,19.560001373291016,5.345273971557617
-11.246960639953613,19.282958984375,5.388777256011963
-12.122993469238281,18.988662719726562,5.438344478607178
-13.008273124694824,18.67624855041504,5.4942097663879395
-13.904243469238281,18.34473419189453,5.556644439697266
-14.81242561340332,17.993043899536133,5.625953674316406
-15.374933242797852,17.217376708984375,5.5721917152404785
-16.518436431884766,17.065505981445312,5.733334064483643
-17.482585906982422,16.666481018066406,5.830702304840088
-17.818239212036133,15.669553756713867,5.727914810180664
-19.173778533935547,15.541314125061035,5.958010196685791
-19.900232315063477,14.84631061553955,5.99343204498291
-20.76616859436035,14.230627059936523,6.07701301574707
-20.90335464477539,13.12271499633789,5.957955837249756
-20.717885971069336,11.873682022094727,5.764378547668457
-22.800994873046875,11.877182006835938,6.2060933113098145
-22.123741149902344,10.41680908203125,5.903000831604004
-22.39205551147461,9.463753700256348,5.868332386016846
-23.005674362182617,8.651191711425781,5.933200359344482
-24.94203758239746,8.251851081848145,6.341909408569336
-27.194135665893555,7.7998857498168945,6.829288959503174
-28.520702362060547,6.953568458557129,7.086500644683838
-29.92122459411621,6.032993316650391,7.3682708740234375
-32.1215705871582,5.143537998199463,7.852856159210205
-32.4755973815918,3.8697099685668945,7.894991874694824
-35.34111404418945,2.777010679244995,8.557544708251953
-37.375240325927734,1.4297130107879639,9.028877258300781
-15.03902816772461,-0.029282748699188232,3.6303927898406982
-20.66899299621582,-0.8712854385375977,4.993875503540039
-31.69913101196289,-2.615091562271118,7.678091049194336
-50.71820831298828,-6.243856430053711,12.335670471191406
-45.407562255859375,-7.452512264251709,11.107930183410645
-56.30693817138672,-11.581498146057129,13.87690258026123
-60.26461410522461,-14.941926002502441,14.988214492797852
-64.20118713378906,-18.68534278869629,16.14105987548828
-68.65933990478516,-23.0124568939209,17.480379104614258
-73.7787094116211,-28.072750091552734,19.05570411682129
-80.43344116210938,-34.364280700683594,21.114276885986328
-67.8652572631836,-35.688289642333984,18.50962257385254
-64.17216491699219,-37.11075973510742,17.89483642578125
-61.67805862426758,-39.05607986450195,17.622953414916992
-60.905921936035156,-42.08723831176758,17.871360778808594
-60.094791412353516,-45.19841003417969,18.151884078979492
-58.826255798339844,-48.062644958496094,18.33755874633789
54.42654037475586,-20.928966522216797,14.076338768005371
54.700279235839844,-18.54836082458496,13.943012237548828
62.072975158691406,-18.30337142944336,15.622116088867188
64.444091796875,-16.21941375732422,16.04179573059082
66.9066162109375,-14.007583618164062,16.501270294189453
87.48902130126953,-7.528014183044434,21.197689056396484
68.61405181884766,-3.134526252746582,16.580547332763672
74.81588745117188,2.598024368286133,18.071264266967773
67.67815399169922,5.078144073486328,16.383275985717773
63.46574783325195,7.33571720123291,15.422496795654297
58.78993606567383,9.201579093933105,14.364540100097656
54.62112808227539,10.813090324401855,13.441307067871094
50.873992919921875,12.21380615234375,12.629838943481445
42.904598236083984,12.142646789550781,10.763870239257812
44.044944763183594,14.399967193603516,11.18616771697998
41.23247528076172,15.339776992797852,10.619927406311035
38.941471099853516,16.29680061340332,10.190351486206055
36.522056579589844,17.03927993774414,9.728635787963867
34.271095275878906,17.698896408081055,9.311046600341797
32.168148040771484,18.285778045654297,8.932215690612793
30.195863723754883,18.80845832824707,8.58759880065918
28.33945083618164,19.274147033691406,8.273333549499512
26.574832916259766,19.680465698242188,7.982721328735352
24.91460418701172,20.049549102783203,7.7198991775512695
23.33582878112793,20.37647819519043,7.4785051345825195
20.423355102539062,19.333133697509766,6.788743019104004
18.005735397338867,18.471437454223633,6.226939678192139
15.959918022155762,17.746253967285156,5.7615156173706055
14.200427055358887,17.126340866088867,5.370563507080078
12.665918350219727,16.589237213134766,5.038380146026611
11.041354179382324,15.733846664428711,4.64001989364624
10.029035568237305,15.587508201599121,4.4743428230285645
9.082738876342773,15.447113037109375,4.325733184814453
8.386516571044922,15.671756744384766,4.290756702423096
7.527196407318115,15.535733222961426,4.167294979095459
7.19736385345459,16.514684677124023,4.348756790161133
6.895105361938477,17.734302520751953,4.593209266662598
6.556368350982666,19.101877212524414,4.875204563140869
3.014863967895508,10.086409568786621,2.541275978088379
2.53967547416687,9.935029983520508,2.4754114151000977
4.714491367340088,22.109539031982422,5.457179546356201
3.787768840789795,22.07846450805664,5.4075541496276855
2.873241424560547,22.02455711364746,5.361728668212891
1.9713973999023438,21.957618713378906,5.321839332580566
1.0807758569717407,21.87784194946289,5.287703990936279
0.19998407363891602,21.785385131835938,5.259163856506348
-0.6723553538322449,21.68031120300293,5.236090660095215
-1.5375187397003174,21.56264305114746,5.218386173248291
-2.396756649017334,21.432350158691406,5.205968856811523
-3.0791900157928467,20.16246795654297,4.923604965209961
-4.068991661071777,20.961889266967773,5.154604434967041
-4.910797595977783,20.794349670410156,5.157784938812256
-5.751457691192627,20.613597869873047,5.166131973266602
-6.645837306976318,20.585712432861328,5.221893310546875
-7.49460506439209,20.37602424621582,5.240894317626953
-8.345738410949707,20.15187644958496,5.265288352966309
-9.200470924377441,19.912752151489258,5.295181751251221
-10.059988021850586,19.6580867767334,5.3307037353515625
-10.925583839416504,19.387210845947266,5.372020244598389
-11.79856014251709,19.09937858581543,5.419323444366455
-12.680256843566895,18.79375648498535,5.472835540771484
-13.572103500366211,18.46942138671875,5.532810688018799
-14.475602149963379,18.125314712524414,5.599542617797852
-15.25072193145752,17.596912384033203,5.621177673339844
-16.173616409301758,17.21306610107422,5.701665878295898
-17.130836486816406,16.823257446289062,5.795994281768799
-17.803438186645508,16.131162643432617,5.799460411071777
-17.968774795532227,15.011722564697266,5.652153015136719
-19.628389358520508,15.101858139038086,5.978379249572754
-20.439476013183594,14.457015037536621,6.043521404266357
-21.032541275024414,13.642955780029297,6.051806926727295
-20.55767059326172,12.19052791595459,5.76948881149292
-22.64643669128418,12.227190017700195,6.212719440460205
-17.73577117919922,15.136404991149902,5.8340911865234375
-19.217262268066406,15.109737396240234,6.116660118103027
-19.960010528564453,14.434969902038574,6.163374900817871
-20.816316604614258,13.815685272216797,6.251232147216797
-20.032726287841797,12.165617942810059,5.86430025100708
-22.05036735534668,12.206401824951172,6.306184768676758
-22.75218391418457,11.425890922546387,6.370377063751221
-22.041093826293945,9.981136322021484,6.054034233093262
-22.347850799560547,9.056719779968262,6.033409118652344
-23.568618774414062,8.465962409973145,6.266035556793213
-26.05198097229004,8.192337989807129,6.833188533782959
-27.0568904876709,7.327913284301758,7.013827800750732
-28.355165481567383,6.469116687774658,7.277073860168457
-29.724149703979492,5.535662651062012,7.565180778503418
-31.70101547241211,4.5949225425720215,8.014810562133789
-32.95735168457031,3.432035446166992,8.290857315063477
-35.363258361816406,2.2514288425445557,8.866167068481445
-15.132095336914062,0.354128360748291,3.787252426147461
-20.810302734375,-0.34930193424224854,5.207697868347168
-26.062496185302734,-1.4862726926803589,6.531717777252197
-37.04725646972656,-3.610382080078125,9.313542366027832
-49.66714096069336,-6.863918781280518,12.545370101928711
-52.407344818115234,-9.401795387268066,13.322222709655762
-55.85231018066406,-12.354365348815918,14.312650680541992
-59.216705322265625,-15.618185997009277,15.323336601257324
-62.978328704833984,-19.347389221191406,16.484682083129883
-67.21524810791016,-23.643287658691406,17.828105926513672
-72.17023468017578,-28.69349479675293,19.432636260986328
-76.55758666992188,-34.06010437011719,20.965755462646484
-63.75922775268555,-31.492834091186523,17.793212890625
-65.03465270996094,-35.441158294677734,18.531803131103516
-62.14085388183594,-37.17697525024414,18.11847496032715
-61.3820686340332,-40.156646728515625,18.35312843322754
-60.601478576660156,-43.219058990478516,18.624210357666016
-59.780582427978516,-46.36646270751953,18.929523468017578
-58.464229583740234,-49.231021881103516,19.123973846435547
-53.119140625,-79.3949203491211,23.901628494262695
54.84980010986328,-22.703659057617188,14.853252410888672
53.26801681518555,-19.581483840942383,14.200247764587402
55.746463775634766,-17.985578536987305,14.656362533569336
61.67539978027344,-17.195838928222656,16.020442962646484
63.988739013671875,-15.099015235900879,16.450368881225586
94.0205307006836,-10.496459007263184,23.671119689941406
86.7835693359375,-6.1718010902404785,21.769046783447266
82.14424133300781,-2.5321526527404785,20.563152313232422
75.26085662841797,0.7049016952514648,18.831918716430664
68.12448120117188,3.3781697750091553,17.066434860229492
63.931480407714844,5.751972675323486,16.060970306396484
59.28817367553711,7.745796203613281,14.960622787475586
55.126834869384766,9.468151092529297,13.995309829711914
51.384220123291016,10.966898918151855,13.146472930908203
47.99330520629883,12.277998924255371,12.395193099975586
41.51035690307617,12.416056632995605,10.841002464294434
41.742271423339844,14.335982322692871,11.043182373046875
39.14922332763672,15.229641914367676,10.510664939880371
37.03338623046875,16.147987365722656,10.108719825744629
34.78067398071289,16.859569549560547,9.671022415161133
32.67582702636719,17.49384880065918,9.273815155029297
30.701568603515625,18.059906005859375,8.912367820739746
28.84322166442871,18.565406799316406,8.582642555236816
27.07651138305664,19.008691787719727,8.277661323547363
25.414575576782227,19.411590576171875,8.001707077026367
23.835540771484375,19.770906448364258,7.748551368713379
22.331117630004883,20.09079933166504,7.515992641448975
19.65009117126465,19.16182518005371,6.867376327514648
17.349971771240234,18.335206985473633,6.316035270690918
15.39399528503418,17.636350631713867,5.857377052307129
13.70466136932373,17.036619186401367,5.4707818031311035
12.225919723510742,16.51527976989746,5.141379356384277
10.594720840454102,15.584085464477539,4.715077877044678
9.615880012512207,15.44417953491211,4.552103519439697
8.695066452026367,15.302953720092773,4.40388822555542
8.02017879486084,15.536931037902832,4.374899864196777
7.183877468109131,15.40546703338623,4.253118515014648
7.0920610427856445,16.95550537109375,4.598620414733887
6.777205944061279,18.22715187072754,4.865682601928711
6.423027515411377,19.65843391418457,5.174648284912109
2.849215507507324,10.074551582336426,2.6196322441101074
2.4124996662139893,10.057024002075195,2.5877652168273926
4.309058666229248,21.788066864013672,5.557210922241211
3.3994522094726562,21.746028900146484,5.507175445556641
2.5030200481414795,21.69061279296875,5.463247299194336
1.6183264255523682,21.622089385986328,5.4252166748046875
0.743988573551178,21.54062843322754,5.392913818359375
-0.12131088972091675,21.446353912353516,5.3662004470825195
-0.9788437485694885,21.339340209960938,5.344952583312988
-1.829827070236206,21.219587326049805,5.329081058502197
-2.5096654891967773,19.780393600463867,4.988946914672852
-3.488308906555176,20.771617889404297,5.270065784454346
-4.319854259490967,20.61446189880371,5.269997596740723
-5.149471282958984,20.444164276123047,5.2751264572143555
-5.434815883636475,18.418642044067383,4.804985523223877
-6.862865447998047,20.226543426513672,5.344285488128662
-7.700194358825684,20.0134220123291,5.3654375076293945
-8.540101051330566,19.785612106323242,5.392055511474609
-9.383708000183105,19.542593002319336,5.424252986907959
-10.232219696044922,19.283761978149414,5.462177753448486
-11.086845397949219,19.008441925048828,5.506004333496094
-11.948845863342285,18.71588706970215,5.555919170379639
-12.819515228271484,18.405244827270508,5.61216402053833
-13.70021915435791,18.0755615234375,5.675004005432129
-14.592416763305664,17.725788116455078,5.74473762512207
-15.371014595031738,17.212989807128906,5.774156093597412
-16.28314971923828,16.82242774963379,5.858012676239014
-17.211475372314453,16.408031463623047,5.949858665466309
-17.7208251953125,15.583889961242676,5.9045796394348145
-18.376543045043945,14.89511489868164,5.918752193450928
-19.67963218688965,14.68173599243164,6.143388271331787
-20.503637313842773,14.050718307495117,6.219250202178955
-19.737863540649414,12.39104175567627,5.8311567306518555
-20.83603858947754,11.94139575958252,6.008906841278076
-22.493022918701172,11.716757774353027,6.34578800201416
-21.869367599487305,10.297039031982422,6.048165798187256
-22.211288452148438,9.38735294342041,6.0334792137146
-22.99567222595215,8.647430419921875,6.147143363952637
-25.708065032958984,8.505289077758789,6.775336265563965
-26.647754669189453,7.643171310424805,6.936399936676025
-27.86802101135254,6.794437885284424,7.177134990692139
-29.209918975830078,5.889571666717529,7.455724239349365
-30.62791633605957,4.9043660163879395,7.761064529418945
-32.2053108215332,3.837503433227539,8.115124702453613
-34.360130310058594,2.699923515319824,8.623771667480469
-15.189046859741211,0.5810210704803467,3.8032453060150146
-15.035810470581055,-0.029276281595230103,3.7621312141418457
-20.748367309570312,-0.8746302127838135,5.196078300476074
-31.701406478881836,-2.6152799129486084,7.958984851837158
-49.09542465209961,-6.044071197509766,12.37692928314209
-51.36622619628906,-8.430461883544922,13.024337768554688
-54.27315139770508,-11.163178443908691,13.864007949829102
-57.93244171142578,-14.363691329956055,14.934218406677246
-61.54057312011719,-17.910985946655273,16.037019729614258
-65.58842468261719,-21.983182907104492,17.308191299438477
-69.95011138916016,-26.615949630737305,18.726451873779297
-76.14118194580078,-32.53046798706055,20.717266082763672
-81.58563995361328,-38.80305480957031,22.604854583740234
-52.83143997192383,-27.782459259033203,14.935362815856934
-63.562068939208984,-36.75794219970703,18.371826171875
-61.66459274291992,-39.04754638671875,18.262371063232422
-60.892433166503906,-42.077919006347656,18.519733428955078
-60.081268310546875,-45.188232421875,18.810361862182617
-59.25754928588867,-48.415016174316406,19.14640235900879
54.22718811035156,-23.394113540649414,14.777009963989258
53.83866882324219,-20.702913284301758,14.432663917541504
54.410091400146484,-18.449966430664062,14.375397682189941
57.497802734375,-16.95430564880371,14.998988151550293
