-35.26894760131836,3.6688477993011475,6.100605487823486
-34.774566650390625,2.2101054191589355,5.994877338409424
-34.29561996459961,0.7988800406455994,5.902007102966309
-33.82986068725586,-0.5715231895446777,5.821104526519775
-34.33543395996094,-1.9617793560028076,5.916889190673828
-38.389892578125,-3.745439052581787,6.636164665222168
-68.52902221679688,-9.478216171264648,11.902337074279785
-70.08084869384766,-12.580278396606445,12.249809265136719
-78.85122680664062,-17.4506778717041,13.894240379333496
-79.14595031738281,-20.883678436279297,14.082740783691406
72.78511047363281,-33.60348892211914,13.792491912841797
56.88071823120117,-23.537050247192383,10.590797424316406
55.43536376953125,-20.37139129638672,10.160984992980957
56.239524841308594,-18.137903213500977,10.166510581970215
60.21274185180664,-16.780981063842773,10.754111289978027
64.44739532470703,-15.199851989746094,11.392081260681152
69.13946533203125,-13.399748802185059,12.11646556854248
72.54833221435547,-11.057567596435547,12.625750541687012
72.73875427246094,-8.112550735473633,12.591958999633789
87.36666107177734,-6.203749656677246,15.06887435913086
88.63563537597656,-2.722611904144287,15.256546020507812
85.74817657470703,0.8124431371688843,14.753239631652832
82.43119049072266,4.096590042114258,14.199405670166016
79.23812103271484,7.137812614440918,13.687750816345215
76.15925598144531,9.95838737487793,13.214391708374023
73.18582153320312,12.578009605407715,12.775891304016113
70.30980682373047,15.014163970947266,12.369207382202148
67.5239028930664,17.282316207885742,11.991649627685547
64.82726287841797,19.398006439208984,11.641838073730469
61.73102951049805,21.208391189575195,11.229856491088867
57.77248764038086,22.481584548950195,10.665539741516113
57.157196044921875,24.93010139465332,10.72829532623291
54.73278045654297,26.538469314575195,10.465044975280762
52.365943908691406,28.04277801513672,10.219825744628906
50.05264663696289,29.45030975341797,9.991357803344727
47.78908157348633,30.767555236816406,9.77853012084961
45.555641174316406,31.989110946655273,9.576948165893555
43.3819580078125,33.14249038696289,9.392508506774902
25.46208381652832,21.1247501373291,5.692005157470703
23.088232040405273,20.776491165161133,5.3437418937683105
20.97684097290039,20.460052490234375,5.041375160217285
19.10093879699707,20.190000534057617,4.781754493713379
17.3843994140625,19.921058654785156,4.548855304718018
15.819660186767578,19.670207977294922,4.342838287353516
14.431507110595703,19.49911117553711,4.173596382141113
13.71434211730957,20.17754554748535,4.19740104675293
13.119844436645508,21.07705307006836,4.271346092224121
12.499556541442871,22.0042667388916,4.353893280029297
11.85040283203125,22.9631290435791,4.445759296417236
11.123811721801758,23.861305236816406,4.529407501220703
10.419605255126953,24.9185733795166,4.6468281745910645
9.673779487609863,26.02617645263672,4.776991844177246
8.488443374633789,25.98951530456543,4.703823566436768
7.273726940155029,25.729883193969727,4.600193977355957
6.145389556884766,25.630599975585938,4.53460693359375
5.664597988128662,28.65842628479004,5.025946140289307
4.832993507385254,30.938308715820312,5.387347221374512
9.783479690551758,25.49740982055664,4.932588577270508
8.75,25.865951538085938,4.931846618652344
7.531699180603027,25.61104965209961,4.821615695953369
6.379148006439209,25.424009323120117,4.734294891357422
5.864190101623535,28.11174964904785,5.186701774597168
5.085899829864502,30.45467185974121,5.5767436027526855
4.785187244415283,37.99290084838867,6.916296482086182
3.179426670074463,37.26716995239258,6.755458831787109
1.8196460008621216,40.475399017333984,7.317844390869141
0.20800089836120605,43.83659362792969,7.917619705200195
-1.5553301572799683,43.8719482421875,7.928892135620117
-3.2950854301452637,43.491973876953125,7.877809047698975
-4.998682498931885,42.973331451416016,7.813957214355469
-6.676937580108643,42.4581298828125,7.762813091278076
-8.335233688354492,41.944793701171875,7.723987579345703
-10.400352478027344,43.18247985839844,8.022422790527344
-12.203194618225098,42.99965286254883,8.07308292388916
-14.126511573791504,43.102760314941406,8.192447662353516
-15.972887992858887,42.83916091918945,8.257729530334473
-17.83670425415039,42.5345458984375,8.330509185791016
-19.719768524169922,42.18762969970703,8.411046028137207
-21.623899459838867,41.796939849853516,8.499608993530273
-23.395397186279297,41.087646484375,8.539740562438965
-25.334917068481445,40.60811233520508,8.644791603088379
-27.26027488708496,40.01940155029297,8.745691299438477
-28.825021743774414,38.86387634277344,8.739362716674805
-30.339799880981445,37.64582824707031,8.732695579528809
-31.85765838623047,36.43111801147461,8.740954399108887
-33.4145393371582,35.24757385253906,8.772242546081543
-35.05450439453125,34.12116622924805,8.835508346557617
-24.182331085205078,21.71643829345703,5.870370388031006
-24.245901107788086,20.07401466369629,5.685295581817627
-24.295673370361328,18.521930694580078,5.517900466918945
-42.72897720336914,29.93917465209961,9.423391342163086
-43.434635162353516,27.901466369628906,9.324104309082031
-29.377094268798828,17.244762420654297,6.152569770812988
-28.746349334716797,15.356388092041016,5.886414527893066
-28.166255950927734,13.621601104736328,5.6509270668029785
-27.62921905517578,12.017419815063477,5.441853046417236
-27.036762237548828,10.489333152770996,5.237875461578369
-27.283248901367188,9.342366218566895,5.20865535736084
-28.977563858032227,8.638618469238281,5.461404800415039
-30.83578872680664,7.858693599700928,5.747434139251709
-32.889312744140625,6.988189697265625,6.072914123535156
-35.28223419189453,6.026679992675781,6.464799404144287
-35.567115783691406,4.61373233795166,6.47777795791626
-35.062522888183594,3.1223671436309814,6.357879638671875
-34.57477569580078,1.6828880310058594,6.252117156982422
-34.101524353027344,0.28828006982803345,6.159467697143555
-33.640689849853516,-1.0677196979522705,6.079072952270508
-34.98065185546875,-2.5197906494140625,6.334400177001953
-39.19572830200195,-4.411990165710449,7.124042510986328
-68.15225982666016,-10.45870590209961,12.453418731689453
-78.84799194335938,-15.364860534667969,14.508994102478027
-78.41584014892578,-18.5787353515625,14.555159568786621
-94.49703979492188,-26.43976593017578,17.723058700561523
-32.73362350463867,-10.593859672546387,6.214099407196045
-42.842506408691406,-87.75627899169922,17.638084411621094
-28.434560775756836,-94.10507202148438,17.755733489990234
66.65775299072266,-65.85289764404297,16.92378044128418
57.64128112792969,-25.581401824951172,11.390094757080078
56.52164840698242,-22.412263870239258,10.981929779052734
55.485050201416016,-19.460290908813477,10.6199312210083
57.67607879638672,-17.660964965820312,10.894598007202148
61.613807678222656,-16.19034194946289,11.50616455078125
65.94693756103516,-14.524209976196289,12.196459770202637
69.87664794921875,-12.470005989074707,12.820157051086426
70.11969757080078,-9.625320434570312,12.783430099487305
71.75865936279297,-6.927134990692139,13.0209379196167
87.11155700683594,-4.888021469116211,15.758397102355957
80.79330444335938,1.9644626379013062,14.59679126739502
77.79350280761719,5.0239949226379395,14.079935073852539
71.19609832763672,7.479672908782959,12.929845809936523
71.59722900390625,10.444360733032227,13.068399429321289
69.3455810546875,12.97995662689209,12.742372512817383
66.69654083251953,15.280529022216797,12.358501434326172
64.1173095703125,17.42787742614746,12.000726699829102
61.13932418823242,19.287158966064453,11.579113006591797
56.32902908325195,20.29168701171875,10.813865661621094
56.761131286621094,23.06336784362793,11.065861701965332
54.42604064941406,24.706268310546875,10.795547485351562
52.14240264892578,26.244895935058594,10.543359756469727
49.90679931640625,27.68631935119629,10.308066368103027
47.71604919433594,29.036943435668945,10.088545799255371
45.55108642578125,30.291887283325195,9.8803129196167
43.322811126708984,31.39105224609375,9.662920951843262
26.747163772583008,21.06969451904297,6.1497802734375
24.234821319580078,20.721181869506836,5.759023666381836
22.010190963745117,20.40540885925293,5.420945644378662
20.021469116210938,20.11636734008789,5.1261796951293945
18.246658325195312,19.869325637817383,4.87235689163208
16.615829467773438,19.620437622070312,4.643760681152344
15.123747825622559,19.386945724487305,4.441003799438477
13.963619232177734,19.464284896850586,4.326627254486084
13.386858940124512,20.338302612304688,4.397721767425537
12.786218643188477,21.236953735351562,4.477268695831299
12.158889770507812,22.1638240814209,4.565929889678955
11.501725196838379,23.122892379760742,4.664477348327637
10.773115158081055,24.033740997314453,4.75700569152832
10.05807113647461,25.093551635742188,4.882791042327881
9.213720321655273,25.96143341064453,4.9755706787109375
7.975373268127441,25.704570770263672,4.860963821411133
6.804800987243652,25.51095199584961,4.768760681152344
6.124944686889648,27.327232360839844,5.058164119720459
5.386501312255859,29.549535751342773,5.425034523010254
4.428650856018066,31.397689819335938,5.727025985717773
3.75864839553833,37.48219680786133,6.803797245025635
2.3297066688537598,38.93638610839844,7.045070648193359
0.8580305576324463,43.81455993652344,7.915069580078125
-0.9037555456161499,43.863006591796875,7.923989295959473
-2.670207977294922,43.87594223022461,7.93930196762085
-4.372947692871094,43.16433334350586,7.836026668548584
-6.059904098510742,42.64805221557617,7.780241012573242
-7.724955081939697,42.13420486450195,7.736910820007324
-9.77817153930664,43.418968200683594,8.038520812988281
-11.53599739074707,43.07161331176758,8.053567886352539
-13.347591400146484,42.86455535888672,8.10864543914795
-15.2892427444458,42.94118881225586,8.232767105102539
-17.146411895751953,42.65187454223633,8.302750587463379
-19.022174835205078,42.32072830200195,8.380392074584961
-20.918296813964844,41.946388244628906,8.46595573425293
-22.712173461914062,41.30084228515625,8.513086318969727
-24.615819931030273,40.79074478149414,8.604976654052734
-26.588720321655273,40.305877685546875,8.721134185791016
-28.281530380249023,39.33763122558594,8.750578880310059
-29.618995666503906,37.88845443725586,8.68609619140625
-23.02699089050293,27.134729385375977,6.427802085876465
-32.848960876464844,35.69704055786133,8.761839866638184
-34.39746856689453,34.49006652832031,8.79791259765625
-36.23981857299805,33.5287971496582,8.917156219482422
-24.22411346435547,20.669275283813477,5.751460075378418
-24.2788143157959,19.085159301757812,5.5777692794799805
-42.00366973876953,30.36985969543457,9.361772537231445
-43.88630294799805,29.120256423950195,9.512758255004883
-29.624563217163086,17.9862003326416,6.259597301483154
-28.97287940979004,16.03435707092285,5.980858325958252
-28.37504768371582,14.245770454406738,5.734588623046875
-27.822898864746094,12.595739364624023,5.516199111938477
-27.216867446899414,11.026472091674805,5.3038763999938965
-26.693944931030273,9.585315704345703,5.122735500335693
-28.334400177001953,8.906641960144043,5.364500999450684
-30.128828048706055,8.156351089477539,5.637596130371094
-32.106109619140625,7.321182727813721,5.947698593139648
-34.30265426635742,6.384433269500732,6.301972389221191
-35.7581787109375,5.17899227142334,6.525850772857666
-35.246726989746094,3.666534185409546,6.400440216064453
-34.75303268432617,2.20873761177063,6.289584159851074
-34.27471160888672,0.798389732837677,6.192205905914307
-33.80951690673828,-0.5711811184883118,6.10737943649292
-33.644615173339844,-1.9223076105117798,6.08663272857666
-37.52572250366211,-3.661128520965576,6.809887886047363
-68.48907470703125,-9.472691535949707,12.487905502319336
-70.81816864013672,-12.712636947631836,12.995267868041992
-78.80581665039062,-17.440624237060547,14.577910423278809
-81.02165985107422,-21.378604888916016,15.134572982788086
57.956695556640625,-26.757474899291992,11.529600143432617
56.92540740966797,-23.555538177490234,11.127058029174805
55.855857849121094,-20.525903701782227,10.748011589050293
55.65794372558594,-17.950334548950195,10.562530517578125
60.13324737548828,-16.758831024169922,11.274869918823242
64.28836059570312,-15.16234302520752,11.930011749267578
68.9580307006836,-13.364583969116211,12.686603546142578
70.03971862792969,-10.675212860107422,12.79631233215332
70.23004150390625,-7.832756996154785,12.763245582580566
88.32843017578125,-6.2720561027526855,15.99360466003418
85.0702133178711,-2.6130900382995605,15.372199058532715
81.92662811279297,0.7762283086776733,14.797840118408203
78.88947296142578,3.9205751419067383,14.266200065612793
71.79840850830078,6.467640399932861,13.020368576049805
72.6192855834961,9.495490074157715,13.227779388427734
69.87702941894531,12.009345054626465,12.805875778198242
67.66681671142578,14.449767112731934,12.497191429138184
65.06147003173828,16.652067184448242,12.129862785339355
62.52544021606445,18.70924186706543,11.787761688232422
59.598968505859375,20.475894927978516,11.382036209106445
57.637020111083984,22.428882598876953,11.170514106750488
55.282020568847656,24.112213134765625,10.893178939819336
52.97979736328125,25.688488006591797,10.634439468383789
50.72682571411133,27.165002822875977,10.393051147460938
48.51988983154297,28.5484561920166,10.167826652526855
46.33954620361328,29.834312438964844,9.954221725463867
44.21630859375,31.048635482788086,9.75838851928711
42.72727966308594,32.642333984375,9.7115478515625
25.125713348388672,20.84567642211914,5.896583080291748
22.80164337158203,20.51860237121582,5.540280818939209
20.731029510498047,20.220294952392578,5.230466365814209
18.88871192932129,19.965681076049805,4.9641594886779785
17.20055389404297,19.71038818359375,4.72493314743042
15.659866333007812,19.471521377563477,4.5131025314331055
14.244525909423828,19.246475219726562,4.324712753295898
13.602446556091309,20.01291275024414,4.370521545410156
13.010929107666016,20.90207862854004,4.446877479553223
12.393800735473633,21.81809425354004,4.532088756561279
11.74804401397705,22.76477813720703,4.626889228820801
11.043292045593262,23.688573837280273,4.72059440612793
10.32680892944336,24.696653366088867,4.834843635559082
9.585234642028809,25.78795623779297,4.969030380249023
8.426138877868652,25.798770904541016,4.901880264282227
7.221510887145996,25.54517936706543,4.794658660888672
6.373176574707031,26.58062744140625,4.936929702758789
5.6712846755981445,28.69228172302246,5.282517433166504
4.862536907196045,31.12740135192871,5.6902594566345215
9.695123672485352,25.267152786254883,5.120660781860352
8.685670852661133,25.67578887939453,5.128564834594727
7.477553844451904,25.42693519592285,5.014760494232178
6.332394599914551,25.23767852783203,4.923247337341309
5.871021747589111,28.144481658935547,5.439855098724365
5.092270851135254,30.492799758911133,5.849449634552002
3.9670166969299316,31.496845245361328,6.006608486175537
3.1845550537109375,37.327308654785156,7.088365077972412
1.8226228952407837,40.54168701171875,7.678647041320801
0.20314311981201172,42.81261444091797,8.100666046142578
-1.518939733505249,42.84572219848633,8.111930847167969
-3.245922088623047,42.84324645996094,8.129607200622559
-4.97910213470459,42.80496597290039,8.15373706817627
-6.658058166503906,42.33806610107422,8.109243392944336
-8.311782836914062,41.826778411865234,8.06879997253418
-10.152461051940918,42.15324401855469,8.203888893127441
-11.91054916381836,41.96845245361328,8.254453659057617
-13.785435676574707,42.06205749511719,8.375099182128906
-15.584228515625,41.7967643737793,8.440215110778809
-17.398967742919922,41.49067687988281,8.512777328491211
-19.231260299682617,41.14250946044922,8.593035697937012
-21.082719802856445,40.75086212158203,8.681254386901855
-22.95498275756836,40.31415557861328,8.777729034423828
-24.685951232910156,39.56793212890625,8.824212074279785
-26.51194190979004,38.92078399658203,8.910396575927734
-28.09856414794922,37.88440704345703,8.924543380737305
-29.618677139282227,36.751033782958984,8.9308500289917
-31.104694366455078,35.57004928588867,8.940508842468262
-32.6152458190918,34.40442657470703,8.969881057739258
-34.12986755371094,33.221160888671875,9.011837005615234
-23.874174118041992,21.439708709716797,6.071369171142578
-23.946550369262695,19.826168060302734,5.882320404052734
-24.004436492919922,18.299911499023438,5.711202144622803
-24.04916000366211,16.850671768188477,5.556171894073486
-43.41219711303711,27.88704490661621,9.762782096862793
-29.35137939453125,17.229671478271484,6.43972110748291
-28.72226905822754,15.34351921081543,6.161375999450684
-28.143604278564453,13.610636711120605,5.915085792541504
-27.607826232910156,12.00811767578125,5.6964111328125
-27.01654052734375,10.481486320495605,5.48303747177124
-27.000619888305664,9.245586395263672,5.400003433227539
-28.6629695892334,8.544837951660156,5.659192085266113
-30.483694076538086,7.768960475921631,5.952198028564453
-32.72923278808594,6.954173564910889,6.3309526443481445
-36.042205810546875,6.156510353088379,6.918328285217285
-35.58576965332031,4.616161823272705,6.789601802825928
-35.04052734375,3.120408535003662,6.656264305114746
-34.39411163330078,1.6741036176681519,6.515422821044922
-34.08079528808594,0.28810495138168335,6.448668479919434
-33.62050247192383,-1.0670794248580933,6.364548206329346
-34.261112213134766,-2.4679582118988037,6.4993510246276855
-38.29130554199219,-4.310184955596924,7.2908616065979
-68.112548828125,-10.45261287689209,13.03846263885498
-78.81880187988281,-15.359170913696289,15.193836212158203
-75.99918365478516,-18.006168365478516,14.777908325195312
-94.4427490234375,-26.424575805664062,18.55581283569336
-32.714847564697266,-10.58778190612793,6.506088733673096
-83.37310791015625,-51.58687210083008,18.55059051513672
-42.77155685424805,-87.61093139648438,18.44685935974121
-28.25306510925293,-93.50440979003906,18.481983184814453
66.60977935791016,-65.80548858642578,17.71640396118164
57.68782043457031,-25.602060317993164,11.941770553588867
56.565643310546875,-22.429706573486328,11.513504028320312
55.521018981933594,-19.472902297973633,11.13253402709961
57.604251861572266,-17.63896942138672,11.398849487304688
61.46706771850586,-16.15178680419922,12.02502155303955
65.78048706054688,-14.487553596496582,12.744627952575684
67.53016662597656,-12.051265716552734,12.979266166687012
67.77161407470703,-9.302986145019531,12.94332504272461
71.53553771972656,-6.905595779418945,13.598177909851074
83.15325927734375,-4.66591215133667,15.758195877075195
73.22352600097656,1.7804018259048462,13.858735084533691
72.219482421875,4.6640214920043945,13.693130493164062
71.23910522460938,7.484194278717041,13.55334758758545
68.86067199707031,10.045162200927734,13.167044639587402
66.7772216796875,12.4992094039917,12.854371070861816
64.29585266113281,14.730520248413086,12.480628967285156
61.87397003173828,16.8181095123291,12.131958961486816
59.058013916015625,18.630584716796875,11.717218399047852
54.52253723144531,19.64092445373535,10.965178489685059
54.925132751464844,22.317352294921875,11.217508316040039
52.70719909667969,23.9260196685791,10.952138900756836
50.53297805786133,25.43482780456543,10.70418930053711
48.39971923828125,26.850248336791992,10.472521781921387
46.288578033447266,28.168270111083984,10.252477645874023
44.109222412109375,29.33303451538086,10.022873878479004
43.21281433105469,31.311344146728516,10.097070693969727
26.3825740814209,20.78249168395996,6.354625701904297
23.92519187927246,20.456451416015625,5.9560089111328125
21.745298385620117,20.159828186035156,5.6105756759643555
19.793468475341797,19.887285232543945,5.308976650238037
18.049232482910156,19.654354095458984,5.049002170562744
16.444400787353516,19.418014526367188,4.814565181732178
14.974472999572754,19.195579528808594,4.606424331665039
13.851404190063477,19.307865142822266,4.496103286743164
13.2775239944458,20.172191619873047,4.5693769454956055
12.679912567138672,21.06039810180664,4.651342391967773
12.055819511413574,21.975948333740234,4.742671012878418
11.402142524719238,22.92268180847168,4.844145774841309
10.6792573928833,23.824356079101562,4.93997049331665
9.968146324157715,24.869203567504883,5.0694260597229
9.145391464233398,25.768892288208008,5.173696041107178
7.9175825119018555,25.518293380737305,5.05539083480835
6.754571914672852,25.322641372680664,4.958826065063477
6.131899833679199,27.35826873779297,5.304893493652344
5.393065452575684,29.585529327392578,5.690129280090332
4.411727428436279,31.27775764465332,5.976654529571533
3.7647523880004883,37.54311752319336,7.139166831970215
2.3333778381347656,38.99777603149414,7.391974449157715
0.8379777669906616,42.79142761230469,8.098118782043457
-0.8826344013214111,42.837642669677734,8.107027053833008
-2.6076574325561523,42.84831237792969,8.122330665588379
-4.33840274810791,42.82330322265625,8.144067764282227
-6.042728424072266,42.52717971801758,8.127398490905762
-7.703187942504883,42.01545333862305,8.082260131835938
-9.506319999694824,42.2119140625,8.186956405639648
-11.260000228881836,42.041107177734375,8.234979629516602
-13.125044822692871,42.14990997314453,8.352900505065918
-14.91831111907959,41.899417877197266,8.415316581726074
-16.72696304321289,41.608524322509766,8.485102653503418
-18.552614212036133,41.276039123535156,8.562493324279785
-20.396799087524414,40.9006233215332,8.647737503051758
-22.261178970336914,40.480751037597656,8.74112606048584
-24.040233612060547,39.83694839477539,8.803693771362305
-25.859718322753906,39.200767517089844,8.88568115234375
-27.531503677368164,38.294395446777344,8.923910140991211
-29.0600528717041,37.17344665527344,8.927735328674316
-23.08612632751465,27.204397201538086,6.7509846687316895
-32.05234909057617,34.83134460449219,8.95621109008789
-33.57231140136719,33.66268539428711,8.995500564575195
-35.25838851928711,32.620784759521484,9.088529586791992
-23.92159652709961,20.411163330078125,5.949925899505615
-23.984661102294922,18.85393524169922,5.772414684295654
-24.03410530090332,17.377361297607422,5.611639976501465
-42.706268310546875,28.33724594116211,9.697509765625
-29.598180770874023,17.970184326171875,6.551647186279297
-28.948223114013672,16.02071189880371,6.260148525238037
-28.351892471313477,14.234137535095215,6.00258731842041
-27.80105972290039,12.585853576660156,5.774176120758057
-27.28908348083496,11.055739402770996,5.571020126342773
-26.421918869018555,9.487642288208008,5.311835289001465
-28.032188415527344,8.811646461486816,5.559850215911865
-29.791305541992188,8.064971923828125,5.839723110198975
-31.726882934570312,7.23470401763916,6.1571502685546875
-34.96464157104492,6.507658958435059,6.729280471801758
-35.77676010131836,5.181695938110352,6.83996057510376
-35.224464416503906,3.6642186641693115,6.7007951736450195
-34.73146438598633,2.207367420196533,6.584809303283691
-34.25376510620117,0.7979053258895874,6.482923984527588
-33.78914260864258,-0.5708341598510742,6.394165515899658
-32.88152313232422,-1.8787264823913574,6.231668949127197
-36.69717025756836,-3.580289602279663,6.976449012756348
-41.36484146118164,-5.72114896774292,7.901156425476074
-71.57342529296875,-12.848211288452148,13.758888244628906
-76.3770751953125,-16.903118133544922,14.800997734069824
-83.17940521240234,-21.947954177856445,16.277053833007812
-84.09363555908203,-50.32295227050781,18.542734146118164
-68.815185546875,-45.030094146728516,15.560441017150879
58.1242561340332,-26.834840774536133,12.113204002380371
56.970306396484375,-23.574127197265625,11.665780067443848
55.898406982421875,-20.541542053222656,11.268074989318848
56.21881103515625,-18.131221771240234,11.17669677734375
59.992923736572266,-16.719717025756836,11.783862113952637
64.12962341308594,-15.124908447265625,12.466890335083008
67.4202651977539,-13.066553115844727,12.993971824645996
67.69200134277344,-10.317390441894531,12.955936431884766
69.38902282714844,-7.738958835601807,13.210516929626465
84.25769805908203,-5.98300313949585,15.982561111450195
81.29521942138672,-2.4971373081207275,15.389139175415039
78.42115783691406,0.743022084236145,14.838749885559082
72.58721160888672,3.6073715686798096,13.751189231872559
71.59855651855469,6.449638366699219,13.602029800415039
69.81111145019531,9.128299713134766,13.321420669555664
67.70919036865234,11.636770248413086,12.999101638793945
65.20487976074219,13.924036026000977,12.615594863891602
62.761444091796875,16.063390731811523,12.257892608642578
60.375247955322266,18.06584358215332,11.924070358276367
57.60346984863281,19.79032325744629,11.524467468261719
55.75562286376953,21.696754455566406,11.320133209228516
53.520877838134766,23.344058990478516,11.048029899597168
51.33082962036133,24.888946533203125,10.793781280517578
49.18276596069336,26.338150024414062,10.556218147277832
47.05743408203125,27.68796157836914,10.330644607543945
44.98634338378906,28.963096618652344,10.123422622680664
43.478302001953125,30.530412673950195,10.05215835571289
27.372356414794922,20.91164779663086,6.517579078674316
24.797142028808594,20.573074340820312,6.0964155197143555
22.521265029907227,20.266294479370117,5.732568740844727
20.490198135375977,19.985395431518555,5.415725231170654
18.6805477142334,19.74563980102539,5.1430864334106445
17.020023345947266,19.503524780273438,4.897836685180664
15.502805709838867,19.276227951049805,4.680459499359131
14.10756778717041,19.061418533325195,4.48696231842041
13.492030143737793,19.850467681884766,4.541346549987793
12.903491020202637,20.72947120666504,4.620029449462891
12.289511680603027,21.634498596191406,4.7078142166137695
11.647138595581055,22.569246292114258,4.805444240570068
10.973030090332031,23.537845611572266,4.913778305053711
10.23537826538086,24.47800064086914,5.020085334777832
9.498040199279785,25.553363800048828,5.158146381378174
8.364566802978516,25.610246658325195,5.097631454467773
7.169886589050293,25.36256217956543,4.986927509307861
6.380237579345703,26.61009407043457,5.177606105804443
5.678014755249023,28.726299285888672,5.540467739105225
4.859786033630371,31.10984992980957,5.957691669464111
9.608083724975586,25.040300369262695,5.305942535400391
8.622084617614746,25.48781967163086,5.323021411895752
7.424016952514648,25.244888305664062,5.205744743347168
6.556291580200195,26.1300106048584,5.329607963562012
5.877885341644287,28.177406311035156,5.694406509399414
5.070185661315918,30.360595703125,6.089494705200195
3.89280104637146,30.907548904418945,6.1628313064575195
3.1897215843200684,37.38783645629883,7.42340087890625
1.8256210088729858,40.608402252197266,8.041781425476074
0.19838285446166992,41.808860778808594,8.271246910095215
-1.4841231107711792,41.8634147644043,8.287137985229492
-3.1713497638702393,41.858909606933594,8.304776191711426
-4.864360809326172,41.81865692138672,8.32886028289795
-6.564385890960693,41.74230194091797,8.359468460083008
-8.029967308044434,40.408626556396484,8.150455474853516
-9.915389060974121,41.16890335083008,8.377440452575684
-11.630763053894043,40.982540130615234,8.427862167358398
-13.459436416625977,41.067352294921875,8.549677848815918
-15.212885856628418,40.80084991455078,8.61456298828125
-16.980918884277344,40.493751525878906,8.686847686767578
-18.764928817749023,40.144859313964844,8.76676082611084
-20.566364288330078,39.75281524658203,8.8545560836792
-22.38668441772461,39.31611251831055,8.950520515441895
-24.227462768554688,38.833030700683594,9.054976463317871
-25.925081253051758,38.05924987792969,9.110220909118652
-27.43177032470703,36.98540496826172,9.109804153442383
-28.915319442749023,35.878318786621094,9.116089820861816
-30.376506805419922,34.73731231689453,9.129098892211914
-31.85094451904297,33.59820556640625,9.15886402130127
-33.32642364501953,32.439109802246094,9.200695991516113
-23.572834014892578,21.169086456298828,6.267919063568115
-23.653594970703125,19.583621978759766,6.075137138366699
-23.71921157836914,18.082468032836914,5.900509834289551
-23.771074295043945,16.65583038330078,5.742193698883057
-42.181243896484375,27.096303939819336,9.91823673248291
-29.32562255859375,17.214550018310547,6.72727632522583
-28.698156356811523,15.330642700195312,6.436746597290039
-28.12092399597168,13.599676132202148,6.179656982421875
-27.586395263671875,11.998795509338379,5.9513750076293945
-27.088430404663086,10.509385108947754,5.7481513023376465
-26.722909927368164,9.150498390197754,5.588013648986816
-28.354175567626953,8.452778816223145,5.85333776473999
-30.914472579956055,7.878758430480957,6.3113861083984375
-33.35021209716797,7.086130142211914,6.745046138763428
-36.027462005615234,6.153992652893066,7.230637550354004
-35.56296157836914,4.6132049560546875,7.094459533691406
-35.05926513671875,3.1220860481262207,6.963311672210693
-34.532066345214844,1.6808085441589355,6.839659690856934
-34.060028076171875,0.2879301905632019,6.738429069519043
-33.600284576416016,-1.0664385557174683,6.650582313537598
-33.56844711303711,-2.4180617332458496,6.658141136169434
-37.425018310546875,-4.212672710418701,7.450647354125977
-42.28453826904297,-6.489017486572266,8.463190078735352
-76.37516784667969,-14.882991790771484,15.393696784973145
-75.95527648925781,-17.99576187133789,15.442413330078125
-94.38835144042969,-26.409353256225586,19.390235900878906
-32.69602966308594,-10.58169174194336,6.798659324645996
-82.53864288330078,-51.070552825927734,19.201820373535156
-42.700599670410156,-87.46558380126953,19.2554931640625
-28.20303726196289,-93.33890533447266,19.29001235961914
66.56170654296875,-65.75801086425781,18.510385513305664
57.73457336425781,-25.62281036376953,12.496085166931152
56.60984802246094,-22.447235107421875,12.047586441040039
55.609371185302734,-19.50389862060547,11.658374786376953
57.474090576171875,-17.599117279052734,11.891369819641113
61.32058334350586,-16.11328887939453,12.54304313659668
65.00951385498047,-14.317750930786133,13.16922664642334
65.3294677734375,-11.658539772033691,13.128490447998047
65.60133361816406,-9.005081176757812,13.099782943725586
71.3130874633789,-6.884128570556641,14.173635482788086
75.3681411743164,-4.229068756103516,14.933728218078613
73.26892852783203,1.7815113067626953,14.499262809753418
71.68598937988281,4.629575252532959,14.211357116699219
69.1953125,7.2694854736328125,13.764415740966797
66.76171875,9.738970756530762,13.347436904907227
64.38291931152344,12.05104923248291,12.95824909210205
62.0551872253418,14.217171669006348,12.594615936279297
59.775917053222656,16.24782943725586,12.254692077636719
57.10784149169922,18.015377044677734,11.846622467041016
52.82318115234375,19.028751373291016,11.107522964477539
53.198917388916016,21.61594581604004,11.360082626342773
51.08870315551758,23.19130516052246,11.09959602355957
49.01531219482422,24.67094612121582,10.855843544006348
46.96007537841797,26.05158805847168,10.624061584472656
44.83161926269531,27.281658172607422,10.382278442382812
43.953792572021484,29.229673385620117,10.442695617675781
32.572139739990234,23.60127067565918,7.95760440826416
26.026689529418945,20.50214958190918,6.5545830726623535
23.622434616088867,20.197593688964844,6.148625373840332
21.48590660095215,19.91934585571289,5.796275615692139
19.569902420043945,19.662660598754883,5.488211154937744
17.85544204711914,19.44332504272461,5.222407817840576
16.275951385498047,19.219104766845703,4.982399940490723
14.827640533447266,19.007366180419922,4.7691168785095215
13.740628242492676,19.153453826904297,4.663397312164307
13.169625282287598,20.008262634277344,4.738781929016113
12.57503604888916,20.886205673217773,4.823082447052002
11.954161643981934,21.790645599365234,4.916982650756836
11.303958892822266,22.725297927856445,5.02128267288208
10.586734771728516,23.617938995361328,5.120335578918457
9.87954044342041,24.648136138916016,5.2533278465271
9.077853202819824,25.578590393066406,5.369516372680664
7.860429763793945,25.33411979675293,5.247615337371826
6.704917907714844,25.136503219604492,5.146690368652344
6.138893127441406,27.38947105407715,5.552966594696045
5.399661540985107,29.621723175048828,5.956712245941162
4.329586982727051,30.6954345703125,6.132668972015381
3.1355059146881104,31.26808738708496,6.216869354248047
2.3370683193206787,39.0595588684082,7.741078853607178
0.8183512687683105,41.78846740722656,8.268706321716309
-0.862415075302124,41.85608673095703,8.282243728637695
-2.5478036403656006,41.864707946777344,8.297517776489258
-4.238535404205322,41.83769226074219,8.319215774536133
-5.9358229637146,41.77472686767578,8.347402572631836
-7.640830039978027,41.67538833618164,8.382166862487793
-9.2847900390625,41.22819137573242,8.360553741455078
-10.996097564697266,41.055755615234375,8.408443450927734
-12.815468788146973,41.155723571777344,8.527548789978027
-14.563864707946777,40.9039192199707,8.58975601196289
-16.32633399963379,40.6119384765625,8.659282684326172
-18.104299545288086,40.27863311767578,8.73635196685791
-19.89912986755371,39.902687072753906,8.82120418548584
-21.712291717529297,39.4826545715332,8.914118766784668
-23.545360565185547,39.01689910888672,9.015400886535645
-25.362768173217773,38.447452545166016,9.112067222595215
-26.878206253051758,37.38571548461914,9.109179496765137
-28.370197296142578,36.290992736816406,9.11298656463623
-23.145723342895508,27.27463722229004,7.076852798461914
-31.30236053466797,34.016334533691406,9.145235061645508
-32.78339385986328,32.87163162231445,9.184410095214844
-23.53887367248535,21.777984619140625,6.344101905822754
-23.625625610351562,20.158620834350586,6.144094467163086
-23.6966609954834,18.627532958984375,5.962991714477539
-23.75345230102539,17.174436569213867,5.798849105834961
-41.503196716308594,27.538972854614258,9.853790283203125
-29.571758270263672,17.954139709472656,6.8440937995910645
-28.923526763916016,16.007036209106445,6.539843559265137
-28.328704833984375,14.222503662109375,6.270997524261475
-27.77918815612793,12.575953483581543,6.032557010650635
-27.268367767333984,11.047348022460938,5.820472717285156
-26.171600341796875,9.397751808166504,5.501279354095459
-27.735435485839844,8.718362808227539,5.751675128936768
-29.55147933959961,8.000052452087402,6.056687355041504
-32.412498474121094,7.391059875488281,6.576848983764648
-35.07048034667969,6.527359962463379,7.057234287261963
-35.753665924072266,5.178354263305664,7.147043704986572
-35.24314880371094,3.6661734580993652,7.009866714477539
-34.7098503112793,2.2059943675994873,6.880597114562988
-34.23278045654297,0.7974134087562561,6.774200916290283
-33.76872253417969,-0.5704903602600098,6.681510925292969
-33.31574249267578,-1.9035329818725586,6.601692199707031
-35.901981353759766,-3.5027105808258057,7.1363067626953125
-40.35260009765625,-5.581146240234375,8.059053421020508
-72.34742736816406,-12.987153053283691,14.541458129882812
-76.36260986328125,-16.899913787841797,15.472551345825195
-83.27884674072266,-49.83538055419922,19.19988441467285
-68.65057373046875,-44.92237091064453,16.23061752319336
58.172035217285156,-26.856887817382812,12.675615310668945
57.01541519165039,-23.592796325683594,12.20705509185791
55.987884521484375,-20.574451446533203,11.800434112548828
56.15102767944336,-18.109363555908203,11.671934127807617
59.852806091308594,-16.680667877197266,12.29207992553711
63.97117233276367,-15.087543487548828,13.002806663513184
65.22075653076172,-12.640271186828613,13.142879486083984
65.48988342285156,-9.981746673583984,13.105659484863281
69.17939758300781,-7.715571403503418,13.770795822143555
76.13104248046875,-5.405939102172852,15.099130630493164
74.69165802001953,-2.2942914962768555,14.783413887023926
73.64690399169922,0.6977927684783936,14.57040786743164
72.3345947265625,3.5948190689086914,14.327800750732422
70.10812377929688,6.315381050109863,13.925819396972656
67.20414733886719,8.787420272827148,13.408350944519043
65.25509643554688,11.215005874633789,13.098857879638672
62.9088249206543,13.433731079101562,12.726017951965332
60.61195755004883,15.5132474899292,12.377544403076172
57.92129135131836,17.331562042236328,11.960715293884277
55.73158264160156,19.147214889526367,11.658077239990234
53.98779296875,21.008825302124023,11.460708618164062
51.678836822509766,22.540613174438477,11.153943061828613
49.77668380737305,24.135377883911133,10.943965911865234
47.70658493041992,25.547616958618164,10.706011772155762
45.691566467285156,26.884302139282227,10.487897872924805
44.21382141113281,28.465728759765625,10.402986526489258
43.505043029785156,30.549184799194336,10.516698837280273
26.99378776550293,20.62242889404297,6.720339298248291
24.476055145263672,20.30668830871582,6.291694641113281
22.246829986572266,20.019344329833984,5.9207682609558105
20.254167556762695,19.755178451538086,5.597292423248291
18.47627830505371,19.52972984313965,5.318654537200928
16.84269905090332,19.300321578979492,5.067678451538086
15.348383903503418,19.08422088623047,4.845004081726074
13.972798347473145,18.87932586669922,4.646616458892822
13.383055686950684,19.69013214111328,4.709945201873779
12.79747200012207,20.559165954589844,4.790877819061279
12.186639785766602,21.45340347290039,4.881146430969238
11.547643661499023,22.37644386291504,4.981509208679199
10.877197265625,23.332277297973633,5.092831134796143
10.145280838012695,24.262510299682617,5.2026448249816895
9.412148475646973,25.322280883789062,5.3444342613220215
8.303703308105469,25.42388153076172,5.291145324707031
7.118828296661377,25.18197250366211,5.177056312561035
6.3873372077941895,26.639720916748047,5.419578552246094
5.684772491455078,28.760543823242188,5.799856185913086
4.761782169342041,30.48248291015625,6.103564739227295
9.522306442260742,24.816762924194336,5.488523006439209
8.559223175048828,25.30197525024414,5.515275955200195
7.37107515335083,25.064842224121094,5.394631385803223
6.563501358032227,26.158737182617188,5.568776607513428
5.88478946685791,28.210508346557617,5.9503912925720215
4.973113059997559,29.7792911529541,6.234085559844971
3.821073055267334,30.338071823120117,6.313800811767578
2.635361671447754,30.889999389648438,6.4014482498168945
1.8286495208740234,40.6755256652832,8.407306671142578
0.1939314603805542,40.87002944946289,8.439074516296387
-1.4499313831329346,40.89908218383789,8.450284004211426
-3.099896192550659,40.91573715209961,8.472622871398926
-4.754443168640137,40.87372970581055,8.4966402053833
-6.415514945983887,40.79572296142578,8.527152061462402
-7.799863815307617,39.250675201416016,8.26308536529541
-9.68840503692627,40.2264518737793,8.543606758117676
-11.362931251525879,40.03884506225586,8.593841552734375
-13.147496223449707,40.115577697753906,8.716723442077637
-14.857694625854492,39.84823989868164,8.781332015991211
-16.581195831298828,39.540565490722656,8.853282928466797
-18.319242477416992,39.19139099121094,8.932791709899902
-20.073123931884766,38.799434661865234,9.02010440826416
-21.8441162109375,38.36323165893555,9.115494728088379
-23.633594512939453,37.88114929199219,9.21926498413086
-25.32217025756836,37.17414474487305,9.287463188171387
-26.793855667114258,36.125308990478516,9.287046432495117
-28.242456436157227,35.043418884277344,9.293306350708008
-29.66865348815918,33.92783737182617,9.306259155273438
-31.11930274963379,32.82642364501953,9.339776039123535
-32.55746841430664,31.69062614440918,9.381447792053223
-23.27804946899414,20.904369354248047,6.460193157196045
-23.366788864135742,19.34617042541504,6.2639079093933105
-23.439783096313477,17.869443893432617,6.085973262786865
-23.49846076965332,16.464815139770508,5.9245524406433105
-41.01445007324219,26.346790313720703,10.065587043762207
-29.299827575683594,17.19940757751465,7.015269756317139
-28.67400550842285,15.317741394042969,6.712556838989258
-28.09819793701172,13.588676452636719,6.444667339324951
-27.564929962158203,11.989459037780762,6.206781387329102
-27.068071365356445,10.501489639282227,5.994998455047607
-26.44997787475586,9.057037353515625,5.772797107696533
-28.846210479736328,8.59947395324707,6.215303421020508
-30.9986572265625,7.90022087097168,6.605307579040527
-33.44729232788086,7.1067609786987305,7.060487270355225
-36.06232833862305,6.1599531173706055,7.554122447967529
-35.54011154174805,4.610239505767822,7.399925708770752
-35.03715133666992,3.120116949081421,7.263217926025391
-34.51064682006836,1.6797641515731812,7.134314060211182
-34.039215087890625,0.2877548336982727,7.028787612915039
-33.580020904541016,-1.0657939910888672,6.9372124671936035
-32.78590393066406,-2.361701011657715,6.787289619445801
-36.59439468383789,-4.119177341461182,7.603855609893799
-41.22920227050781,-6.327065467834473,8.61280632019043
-75.5841293334961,-14.728842735290527,15.900423049926758
-75.86373138427734,-17.974077224731445,16.09825325012207
-32.67717742919922,-10.575591087341309,7.091858863830566
-82.15802764892578,-50.83503723144531,19.949054718017578
-80.83226776123047,-54.623287200927734,20.144100189208984
-54.06509780883789,-76.5555191040039,19.352001190185547
-42.62967300415039,-87.32025909423828,20.064102172851562
-28.16001319885254,-93.19652557373047,20.102807998657227
36.74916458129883,-46.2973747253418,12.205157279968262
66.51354217529297,-65.71045684814453,19.305831909179688
74.72603607177734,-57.84931182861328,19.512977600097656
72.6097640991211,-51.68321228027344,18.402912139892578
57.82981491088867,-25.665102005004883,13.064034461975098
56.70158004760742,-22.483623504638672,12.594780921936035
55.65155792236328,-19.51870346069336,12.17740249633789
57.34410095214844,-17.559310913085938,12.383284568786621
61.17430114746094,-16.074853897094727,13.060294151306152
64.47160339355469,-14.199275970458984,13.63135814666748
63.456764221191406,-11.324336051940918,13.309778213500977
65.60821533203125,-9.006024360656738,13.674043655395508
71.09130096435547,-6.862715721130371,14.74741268157959
75.41645812988281,-4.2317891120910645,15.596744537353516
71.32782745361328,1.7343180179595947,14.732357025146484
68.96554565429688,4.453885078430176,14.269893646240234
66.62979888916016,6.999951362609863,13.833662033081055
64.37631225585938,9.390998840332031,13.433334350585938
62.14726638793945,11.632586479187012,13.055241584777832
59.958797454833984,13.736875534057617,12.701265335083008
57.809226989746094,15.713257789611816,12.36974048614502
55.27651596069336,17.437665939331055,11.9681396484375
51.22140884399414,18.451738357543945,11.241687774658203
51.57273483276367,20.9552001953125,11.49438762664795
49.561767578125,22.498172760009766,11.238699913024902
47.5627326965332,23.939802169799805,10.994786262512207
45.614479064941406,25.305105209350586,10.770895004272461
44.62409210205078,27.15536880493164,10.78610897064209
33.175662994384766,22.06212043762207,8.226653099060059
28.348913192749023,20.541187286376953,7.228692054748535
25.679155349731445,20.22838020324707,6.749846935272217
23.32630729675293,19.944387435913086,6.337038993835449
21.231800079345703,19.68376922607422,5.978185653686523
19.37007713317871,19.46188735961914,5.669709205627441
17.665159225463867,19.23611068725586,5.392678737640381
16.11038589477539,19.023595809936523,5.147371292114258
14.68320083618164,18.822208404541016,4.929168701171875
13.631258964538574,19.001001358032227,4.828577041625977
13.063118934631348,19.846450805664062,4.906000137329102
12.47154426574707,20.714313507080078,4.992556571960449
11.8538818359375,21.607847213745117,5.0889434814453125
11.207136154174805,22.530651092529297,5.195962429046631
10.527937889099121,23.48676300048828,5.3145551681518555
9.79221248626709,24.430259704589844,5.434575080871582
9.01108455657959,25.390466690063477,5.563092231750488
7.803921699523926,25.151994705200195,5.437710285186768
6.6558380126953125,24.952484130859375,5.332417964935303
6.145928382873535,27.420839309692383,5.802423477172852
5.406303405761719,29.658119201660156,6.224825382232666
4.250209808349609,30.13257598876953,6.2834649085998535
3.0772323608398438,30.687000274658203,6.36813497543335
2.340787649154663,39.121734619140625,8.092437744140625
0.7999881505966187,40.85036849975586,8.436541557312012
-0.8425519466400146,40.8924560546875,8.445408821105957
-2.489044666290283,40.899200439453125,8.4606294631958
-4.14286994934082,40.89339828491211,8.487020492553711
-5.801388740539551,40.828739166259766,8.515124320983887
-7.467113018035889,40.72781753540039,8.549778938293457
-9.072661399841309,40.2862548828125,8.526777267456055
-10.743460655212402,40.112510681152344,8.57449722290039
-12.51920223236084,40.20430374145508,8.694683074951172
-14.224778175354004,39.95158004760742,8.756635665893555
-15.943221092224121,39.65892791748047,8.825848579406738
-17.675762176513672,39.32522964477539,8.90253734588623
-19.423646926879883,38.94921875,8.986943244934082
-21.18816375732422,38.529537200927734,9.079316139221191
-22.97066307067871,38.06458282470703,9.179956436157227
-24.77281379699707,37.55314636230469,9.289301872253418
-26.253211975097656,36.51638412475586,9.286422729492188
-27.71022605895996,35.44676208496094,9.290218353271484
-23.20583152770996,27.345474243164062,7.405492305755615
-30.584362030029297,33.236083984375,9.326193809509277
-32.02827835083008,32.114498138427734,9.365224838256836
-23.240982055664062,21.502368927001953,6.537716388702393
-23.3359432220459,19.911449432373047,6.334137439727783
-23.41457176208496,18.40578842163086,6.149653434753418
-23.478384017944336,16.975555419921875,5.982332706451416
-23.528669357299805,15.612180709838867,5.830508232116699
-29.54530143737793,17.93808364868164,7.136980056762695
-28.8987979888916,15.993356704711914,6.819981098175049
-28.30547523498535,14.210832595825195,6.539846897125244
-27.757272720336914,12.566027641296387,6.291380882263184
-27.24761199951172,11.038935661315918,6.070365905761719
-26.771055221557617,9.613019943237305,5.873351573944092
-28.114633560180664,8.83757209777832,6.085256576538086
-30.172855377197266,8.168278694152832,6.454452991485596
-32.504493713378906,7.412039279937744,6.8839240074157715
-34.825469970703125,6.481754302978516,7.314370155334473
-35.73051834106445,5.174994945526123,7.454737663269043
-35.22077178955078,3.6638402938842773,7.311746597290039
-34.72859573364258,2.207192897796631,7.1853437423706055
-34.211753845214844,0.7969244718551636,7.066076278686523
-33.748260498046875,-0.5701444149017334,6.969453811645508
-33.29579544067383,-1.9023946523666382,6.886245250701904
-35.138057708740234,-3.4281787872314453,7.289875507354736
-39.3856086730957,-5.44740104675293,8.209894180297852
-72.83976745605469,-13.075535774230957,15.280609130859375
-76.24081420898438,-16.87295913696289,16.123374938964844
-82.6856918334961,-49.48042678833008,19.896718978881836
-68.4862060546875,-44.8148193359375,16.8997859954834
38.15229415893555,-49.557411193847656,12.9139404296875
36.06993103027344,-43.149112701416016,11.61253547668457
75.3577880859375,-60.147159576416016,19.908763885498047
73.37139129638672,-53.88288879394531,18.796485900878906
72.4276123046875,-48.83620071411133,18.03716468811035
58.268680572509766,-26.901521682739258,13.251877784729004
57.1083984375,-23.631271362304688,12.761618614196777
56.03087615966797,-20.59024429321289,12.325897216796875
56.0263786315918,-18.069156646728516,12.15527629852295
59.71287155151367,-16.641672134399414,12.799595832824707
63.81300735473633,-15.050235748291016,13.537832260131836
63.82470703125,-12.369710922241211,13.423967361450195
63.55055236816406,-9.686164855957031,13.273679733276367
68.97032928466797,-7.692259788513184,14.32952880859375
75.81988525390625,-5.383842468261719,15.694966316223145
74.4331283569336,-2.2863500118255615,15.376453399658203
72.21184539794922,0.6841847896575928,14.911211967468262
69.83232116699219,3.470473289489746,14.43700122833252
67.47964477539062,6.078597068786621,13.98984432220459
