-20.911758422851562,5.123932838439941,-1.1642491817474365
-22.162261962890625,4.4950737953186035,-1.2228224277496338
-22.953641891479492,3.7025833129882812,-1.257257342338562
-23.80394172668457,2.8641717433929443,-1.296477198600769
-24.723037719726562,1.9712656736373901,-1.3411355018615723
-25.72287368774414,1.0135935544967651,-1.392038106918335
-26.818099975585938,-0.021391630172729492,-1.4501831531524658
-28.026885986328125,-1.1491786241531372,-1.516821026802063
-29.37200355529785,-2.3891072273254395,-1.593529462814331
-30.882604598999023,-3.7658915519714355,-1.6823400259017944
-31.8206729888916,-5.185012340545654,-1.7433890104293823
-33.74066162109375,-6.899530410766602,-1.8622742891311646
-31.73359489440918,-7.829294204711914,-1.767440676689148
-39.467350006103516,-11.43752384185791,-2.2219958305358887
-42.707435607910156,-14.259613037109375,-2.434720516204834
-46.124267578125,-17.489599227905273,-2.667442798614502
-25.848953247070312,-11.008548736572266,-1.5192545652389526
-23.22808837890625,-11.014813423156738,-1.390119194984436
-21.015209197998047,-11.020453453063965,-1.2831666469573975
-19.116243362426758,-11.025614738464355,-1.1933181285858154
-17.723447799682617,-11.194411277770996,-1.1335526704788208
-16.985301971435547,-11.70837688446045,-1.1155468225479126
-17.43977928161621,-13.08542251586914,-1.178995132446289
-17.40548324584961,-14.18742561340332,-1.2142560482025146
-16.853498458862305,-14.903458595275879,-1.2165656089782715
-18.50735092163086,-17.740673065185547,-1.3863112926483154
-18.46113395690918,-19.177650451660156,-1.439439296722412
-20.274024963378906,-22.829425811767578,-1.6510224342346191
-18.24604034423828,-22.28838348388672,-1.5575871467590332
-17.45235824584961,-13.922898292541504,-1.021236538887024
-17.279151916503906,-14.959176063537598,-1.045448899269104
-18.561580657958984,-17.422056198120117,-1.1644779443740845
-18.51787567138672,-18.8362979888916,-1.2082685232162476
-17.983501434326172,-19.826528549194336,-1.2244220972061157
-19.063098907470703,-22.79344367980957,-1.3592190742492676
-18.55256462097168,-24.08675193786621,-1.3907413482666016
-20.814857482910156,-29.39504051208496,-1.6475861072540283
-19.357830047607422,-29.807992935180664,-1.6257987022399902
-18.018592834472656,-30.3489990234375,-1.6144940853118896
-23.485889434814453,-53.27128219604492,-2.663090467453003
10.502120018005371,-9.597110748291016,-0.6507695913314819
28.432035446166992,6.476285457611084,-1.3338762521743774
56.3314208984375,40.70892333984375,-3.179197311401367
27.906606674194336,21.926189422607422,-1.623412847518921
24.6951847076416,21.06106185913086,-1.4846525192260742
22.110414505004883,20.446640014648438,-1.3775655031204224
20.354347229003906,20.399436950683594,-1.3181883096694946
20.008386611938477,21.732778549194336,-1.3512744903564453
19.647464752197266,23.141191482543945,-1.3886109590530396
15.414780616760254,19.70882225036621,-1.1445350646972656
10.279312133789062,14.290618896484375,-0.805238664150238
18.429553985595703,27.922958374023438,-1.5304011106491089
16.8348445892334,27.881956100463867,-1.4898529052734375
16.78384780883789,30.503328323364258,-1.5925829410552979
14.84493637084961,29.750045776367188,-1.5208652019500732
13.080462455749512,29.083049774169922,-1.4587056636810303
16.926679611206055,42.076377868652344,-2.0745997428894043
16.698467254638672,46.863861083984375,-2.2757084369659424
18.41459083557129,59.087249755859375,-2.8310561180114746
15.340729713439941,57.22260665893555,-2.7099623680114746
8.841094970703125,39.214439392089844,-1.8388028144836426
9.155068397521973,49.86758804321289,-2.3192050457000732
6.342593669891357,44.56142044067383,-2.0589122772216797
4.080039024353027,40.17799377441406,-1.8473105430603027
2.354008197784424,38.529457092285156,-1.7657339572906494
0.7447917461395264,35.735740661621094,-1.6350109577178955
-0.645042359828949,33.34275436401367,-1.5254807472229004
-1.8631783723831177,31.264028549194336,-1.4326435327529907
-2.9447219371795654,29.436033248901367,-1.3532109260559082
-3.9160115718841553,27.811094284057617,-1.2847107648849487
-4.79727840423584,26.3526554107666,-1.2252566814422607
-5.604315757751465,25.032289505004883,-1.1733949184417725
-6.190098285675049,23.2286376953125,-1.0996267795562744
-6.866386413574219,22.148942947387695,-1.0607261657714844
-7.565408706665039,21.333072662353516,-1.0353820323944092
-8.305217742919922,20.73468589782715,-1.0217194557189941
-8.88810920715332,19.84111785888672,-0.9944943785667419
-9.399711608886719,18.908292770385742,-0.9658992290496826
-9.760644912719727,17.802230834960938,-0.9286931157112122
-10.0975980758667,16.7804012298584,-0.8958410620689392
-10.414287567138672,15.830336570739746,-0.8667730093002319
-10.713789939880371,14.941773414611816,-0.84102463722229
-10.998720169067383,14.106037139892578,-0.8182117342948914
-11.271284103393555,13.315876960754395,-0.7980194091796875
-11.648173332214355,12.69011116027832,-0.7879450917243958
-12.03879451751709,12.101612091064453,-0.78082674741745
-10.01954460144043,9.293432235717773,-0.6251203417778015
-12.539416313171387,10.72657299041748,-0.7548210620880127
-12.955533981323242,10.210556030273438,-0.7545678019523621
-13.441300392150879,9.74425220489502,-0.7594268321990967
-13.855422973632812,9.21875286102295,-0.7612733244895935
-14.596245765686035,8.887118339538574,-0.7817152738571167
-15.510052680969238,8.609204292297363,-0.8114601969718933
-16.622920989990234,8.371814727783203,-0.8513819575309753
-17.34956932067871,7.880692958831787,-0.8716551065444946
-17.887142181396484,7.272939682006836,-0.8832598924636841
-18.446535110473633,6.650060176849365,-0.896955668926239
-19.031213760375977,6.008636951446533,-0.9129022359848022
-19.64513397216797,5.34482479095459,-0.9312911033630371
-20.29283332824707,4.654286861419678,-0.9523556232452393
-21.490991592407227,4.0279412269592285,-1.000178337097168
-22.2407169342041,3.249821424484253,-1.028159737586975
-23.044151306152344,2.4265036582946777,-1.0599350929260254
-23.91013526916504,1.5498745441436768,-1.0960150957107544
-24.84939193725586,0.6101292371749878,-1.1370257139205933
-25.87494659423828,-0.404560923576355,-1.1837396621704102
-27.002857208251953,-1.5087350606918335,-1.2371172904968262
-28.253238677978516,-2.720595359802246,-1.298363208770752
-29.651559829711914,-4.063065052032471,-1.3690237998962402
-30.487390518188477,-5.433219909667969,-1.4165555238723755
-32.2473030090332,-7.094149112701416,-1.5103590488433838
-29.675161361694336,-7.790245056152344,-1.4034218788146973
-37.521080017089844,-11.479562759399414,-1.794852614402771
-40.3912239074707,-14.155682563781738,-1.9577890634536743
-27.66618537902832,-10.962742805480957,-1.3612629175186157
-24.741287231445312,-10.973237037658691,-1.2380552291870117
-22.29888343811035,-10.982308387756348,-1.1370134353637695
-20.222503662109375,-10.990304946899414,-1.0528182983398438
-18.088546752929688,-10.793618202209473,-0.9635339975357056
-17.038415908813477,-11.11874008178711,-0.930653989315033
-17.49655532836914,-12.447687149047852,-0.9822195768356323
-17.46468162536621,-13.513680458068848,-1.010115146636963
-17.4305477142334,-14.643566131591797,-1.0413496494293213
-18.576841354370117,-16.925045013427734,-1.1495544910430908
-18.534435272216797,-18.301937103271484,-1.1914993524551392
-18.548812866210938,-19.849876403808594,-1.2427215576171875
-19.642179489135742,-22.790128707885742,-1.376247763633728
-18.574726104736328,-23.389402389526367,-1.3662395477294922
-18.220815658569336,-24.93878936767578,-1.4128133058547974
-19.890993118286133,-29.65635108947754,-1.6334441900253296
-18.458707809448242,-30.065149307250977,-1.6137827634811401
-17.904260635375977,-31.975704193115234,-1.6763426065444946
-22.054533004760742,-53.66981887817383,-2.654209852218628
10.511423110961914,-9.895722389221191,-0.6603714227676392
62.6060791015625,33.42523956298828,-3.2463836669921875
25.755693435668945,21.31369400024414,-1.5292298793792725
23.019817352294922,20.662580490112305,-1.4149677753448486
20.663339614868164,20.103618621826172,-1.3187379837036133
20.137733459472656,21.232337951660156,-1.3385885953903198
19.782629013061523,22.61174774169922,-1.3743019104003906
15.560394287109375,19.298076629638672,-1.1339638233184814
19.019615173339844,25.63083839416504,-1.4599701166152954
9.8185396194458,14.406734466552734,-0.7974992990493774
17.526386260986328,28.077381134033203,-1.5140252113342285
16.96980094909668,29.78638458251953,-1.5681228637695312
15.538695335388184,30.01729393005371,-1.5461426973342896
13.713662147521973,29.32021713256836,-1.4806445837020874
17.620941162109375,41.9919548034668,-2.083094358444214
16.785409927368164,44.98565673828125,-2.1963553428649902
20.51393699645996,62.541656494140625,-3.010800838470459
16.390668869018555,57.702415466308594,-2.7439045906066895
3.870351552963257,16.052968978881836,-0.7553494572639465
9.937361717224121,49.94493103027344,-2.3294055461883545
6.846802234649658,43.470882415771484,-2.0129973888397217
4.896995544433594,42.012054443359375,-1.9347652196884155
3.016141414642334,39.68498229980469,-1.820542812347412
1.3103504180908203,36.715049743652344,-1.6805225610733032
-0.15408766269683838,34.18570327758789,-1.5637699365615845
-1.4309673309326172,31.99935531616211,-1.4652048349380493
-2.5594894886016846,30.085046768188477,-1.3811482191085815
-3.5688552856445312,28.3898983001709,-1.3088581562042236
-4.481313705444336,26.873674392700195,-1.2462542057037354
-5.314140796661377,25.5052433013916,-1.1917378902435303
-5.928167343139648,23.650428771972656,-1.115307092666626
-6.622009754180908,22.537479400634766,-1.074509859085083
-7.270814418792725,21.510122299194336,-1.0386253595352173
-8.082525253295898,21.079383850097656,-1.0326838493347168
-8.676175117492676,20.16453742980957,-1.004143238067627
-9.242172241210938,19.30470085144043,-0.9790364503860474
-9.63039493560791,18.2000675201416,-0.9418895244598389
-9.975729942321777,17.148712158203125,-0.9075014591217041
-10.299510955810547,16.173458099365234,-0.8770960569381714
-10.605035781860352,15.263258934020996,-0.8501705527305603
-10.895068168640137,14.408943176269531,-0.826314389705658
-11.171960830688477,13.602731704711914,-0.8051881790161133
-11.502640724182129,12.910901069641113,-0.7909711003303528
-11.89510440826416,12.3173828125,-0.7832745909690857
-10.024601936340332,9.578678131103516,-0.6342335939407349
-10.334294319152832,9.109192848205566,-0.6301485896110535
-12.904744148254395,10.484576225280762,-0.7605865001678467
-13.289185523986816,9.938031196594238,-0.7590811252593994
-13.702109336853027,9.412957191467285,-0.7604398727416992
-14.252817153930664,8.970511436462402,-0.77036052942276
-15.139577865600586,8.699821472167969,-0.7987403273582458
-16.186479568481445,8.455330848693848,-0.8353646993637085
-17.155986785888672,8.101884841918945,-0.8678734302520752
-17.686307907104492,7.498898506164551,-0.8787393569946289
-18.237253189086914,6.8819990158081055,-0.8916462659835815
-18.812166213989258,6.247840404510498,-0.9067407846450806
-19.414804458618164,5.5927605628967285,-0.9242031574249268
-20.049449920654297,4.912644386291504,-0.9442503452301025
-21.226224899291992,4.305222988128662,-0.9907198548316956
-21.958078384399414,3.5419914722442627,-1.017411708831787
-22.7407283782959,2.7362420558929443,-1.047731876373291
-23.582483291625977,1.880324363708496,-1.0821552276611328
-24.493309020996094,0.9651432037353516,-1.1212654113769531
-25.485294342041016,-0.020328402519226074,-1.1657721996307373
-26.57332420349121,-1.0895788669586182,-1.2165629863739014
-27.775819778442383,-2.259274482727051,-1.2747424840927124
-29.116159439086914,-3.5504860877990723,-1.3417247533798218
-29.895320892333984,-4.871286392211914,-1.3855353593826294
-31.56886863708496,-6.455427646636963,-1.473934292793274
-31.55074691772461,-7.784183025360107,-1.4864979982376099
-30.290916442871094,-8.778220176696777,-1.4426040649414062
-39.25359344482422,-13.106405258178711,-1.893015742301941
-28.899959564208984,-10.958414077758789,-1.4138128757476807
-25.757383346557617,-10.969551086425781,-1.2806150913238525
-23.152772903442383,-10.97909927368164,-1.1721165180206299
-20.952293395996094,-10.98746109008789,-1.0822055339813232
-18.515384674072266,-10.679059982299805,-0.9777227640151978
-17.38791275024414,-10.982484817504883,-0.9407404065132141
-17.5078125,-12.068550109863281,-0.9726935029029846
-17.476696014404297,-13.113121032714844,-0.9994468092918396
-17.44343376159668,-14.218360900878906,-1.0294026136398315
-16.891441345214844,-14.937012672424316,-1.0314342975616455
-18.550495147705078,-17.782026290893555,-1.1754417419433594
-18.505821228027344,-19.224069595336914,-1.2205978631973267
-20.069334030151367,-22.598936080932617,-1.3825316429138184
-18.661399841308594,-22.795774459838867,-1.3475861549377441
-17.490161895751953,-13.953055381774902,-0.8371741771697998
-17.456239700317383,-15.112486839294434,-0.8639352321624756
-18.604511260986328,-17.46234893798828,-0.954738974571228
-18.56231689453125,-18.881515502929688,-0.9907272458076477
-18.10519790649414,-19.960695266723633,-1.0083471536636353
-19.028474807739258,-22.752037048339844,-1.1098136901855469
-18.603303909301758,-24.152629852294922,-1.1407278776168823
-20.5123348236084,-28.96782112121582,-1.3281264305114746
-19.08014488220215,-29.380414962768555,-1.3108153343200684
-17.7506160736084,-29.897659301757812,-1.30100417137146
-23.67230796813965,-53.694129943847656,-2.1956827640533447
-22.08406639099121,-56.09474563598633,-2.255720615386963
10.47647476196289,-9.573677062988281,-0.5310264825820923
19.531965255737305,-9.655912399291992,-0.8152681589126587
28.38107681274414,6.464677810668945,-1.0891467332839966
56.37160873413086,40.737953186035156,-2.6024134159088135
27.265134811401367,21.42218780517578,-1.2974185943603516
24.31757926940918,20.739023208618164,-1.195867657661438
21.796377182006836,20.156230926513672,-1.1108348369598389
19.977998733520508,20.022254943847656,-1.058331847190857
19.62932777404785,21.32105255126953,-1.0843939781188965
16.393505096435547,19.308612823486328,-0.9477547407150269
15.41370677947998,19.707460403442383,-0.9361584186553955
10.296704292297363,14.314796447753906,-0.659794270992279
18.039892196655273,27.332563400268555,-1.2253886461257935
16.666452407836914,27.60305404663086,-1.206498622894287
15.328336715698242,27.858049392700195,-1.1897488832473755
13.78876781463623,27.633434295654297,-1.1555479764938354
18.907249450683594,42.03829574584961,-1.7247356176376343
16.92176628112793,42.064151763916016,-1.6965150833129883
16.615489959716797,46.630958557128906,-1.8522611856460571
17.733665466308594,56.9023551940918,-2.2301442623138428
9.271310806274414,34.583065032958984,-1.339703917503357
6.929195404052734,30.73427963256836,-1.1788619756698608
8.476936340332031,46.17383575439453,-1.7565867900848389
5.81756067276001,40.87271499633789,-1.5447646379470825
3.850797653198242,37.920616149902344,-1.4261888265609741
2.1892640590667725,35.833045959472656,-1.3432793617248535
0.6962832808494568,33.407936096191406,-1.2503076791763306
-0.6056597828865051,31.307451248168945,-1.1716630458831787
-1.7559692859649658,29.465065002441406,-1.104461908340454
-2.784163236618042,27.831045150756836,-1.0465631484985352
-3.7127370834350586,26.36747932434082,-0.9963347911834717
-4.559211254119873,25.044910430908203,-0.9525149464607239
-5.336236953735352,23.834897994995117,-0.9139174222946167
-6.057036399841309,22.729339599609375,-0.8801524639129639
-6.729667663574219,21.70796012878418,-0.85039222240448
-7.36158561706543,20.758316040039062,-0.8241174221038818
-7.9589643478393555,19.870222091674805,-0.8009164333343506
-8.527023315429688,19.035053253173828,-0.7804401516914368
-9.07022762298584,18.245519638061523,-0.7624045610427856
-9.51059341430664,17.346162796020508,-0.7402036786079407
-9.847835540771484,16.365341186523438,-0.7146672010421753
-10.164849281311035,15.451177597045898,-0.6920323371887207
-10.464625358581543,14.59427547454834,-0.671953022480011
-10.749710083007812,13.786677360534668,-0.6541394591331482
-11.022262573242188,13.021683692932129,-0.6383531093597412
-11.39057731628418,12.409466743469238,-0.6302796602249146
-11.774913787841797,11.836350440979004,-0.624711275100708
-10.043655395507812,9.315794944763184,-0.5125755667686462
-12.42859935760498,10.631794929504395,-0.6120004057884216
-12.740992546081543,10.041467666625977,-0.6070113778114319
-13.268730163574219,9.619145393371582,-0.6132369637489319
-13.734179496765137,9.138090133666992,-0.6172709465026855
-14.400825500488281,8.768132209777832,-0.6308759450912476
-15.322921752929688,8.505329132080078,-0.655764639377594
-16.220565795898438,8.169169425964355,-0.6795583367347717
-16.713834762573242,7.591923236846924,-0.6868818998336792
-17.22330665588379,7.003021240234375,-0.6956869959831238
-17.75172233581543,6.399579048156738,-0.706068217754364
-18.302125930786133,5.778444766998291,-0.7181404829025269
-18.877958297729492,5.136099815368652,-0.7320408821105957
-19.95811653137207,4.577518463134766,-0.7661715745925903
-20.612760543823242,3.863339900970459,-0.7847059965133667
-21.307491302490234,3.1134581565856934,-0.8057382702827454
-22.048625946044922,2.32167649269104,-0.8295653462409973
-22.843605041503906,1.480741024017334,-0.8565441370010376
-23.70140838623047,0.5819423198699951,-0.8871136903762817
-24.632831573486328,-0.3851402997970581,-0.9218103885650635
-25.65106201171875,-1.4332059621810913,-0.9612942337989807
-26.772497177124023,-2.578009843826294,-1.0063912868499756
-28.017616271972656,-3.8391692638397217,-1.058143138885498
-28.712549209594727,-5.116922855377197,-1.0912771224975586
-30.253381729125977,-6.655501842498779,-1.1590725183486938
-29.331514358520508,-7.700031757354736,-1.134695053100586
-28.624889373779297,-8.757773399353027,-1.1200757026672363
-37.314544677734375,-13.077412605285645,-1.4794740676879883
-27.562475204467773,-10.921646118164062,-1.1093300580978394
-24.656904220581055,-10.935811042785645,-1.00926673412323
-22.229013442993164,-10.947900772094727,-0.927155077457428
-20.16382598876953,-10.958415031433105,-0.8586995005607605
-17.84617805480957,-10.648994445800781,-0.7776023149490356
-17.073007583618164,-11.141311645507812,-0.7628160715103149
-17.613523483276367,-12.53089714050293,-0.8088208436965942
-17.502098083496094,-13.542633056640625,-0.8280372619628906
-17.46904754638672,-14.675908088684082,-0.8536990880966187
-18.6192569732666,-16.96368408203125,-0.9424762725830078
-18.57830047607422,-18.345251083374023,-0.9769461750984192
-18.533828735351562,-19.83384132385254,-1.015717625617981
-19.60605239868164,-22.748210906982422,-1.1236917972564697
-18.6246280670166,-23.45224952697754,-1.1205763816833496
-18.364246368408203,-25.135107040405273,-1.1647686958312988
-19.60434913635254,-29.228975296020508,-1.316892147064209
-18.25601577758789,-29.735010147094727,-1.305567979812622
-18.063508987426758,-32.260101318359375,-1.3834333419799805
-24.39522933959961,-53.1822395324707,-2.1893105506896973
-22.069955825805664,-53.70733642578125,-2.1726441383361816
10.485377311706543,-9.871200561523438,-0.5388399362564087
19.15481185913086,-9.825732231140137,-0.8055222034454346
62.67393112182617,33.46147537231445,-2.658400535583496
28.45006561279297,21.678356170654297,-1.3383495807647705
25.350234985351562,20.978166580200195,-1.2312085628509521
22.684106826782227,20.361251831054688,-1.140557050704956
20.38221549987793,19.830106735229492,-1.0640422105789185
19.759733200073242,20.833791732788086,-1.074402928352356
17.014856338500977,19.448152542114258,-0.9668880701065063
15.407154083251953,19.108020782470703,-0.9184398651123047
18.63089370727539,25.106992721557617,-1.1698367595672607
9.794230461120605,14.371062278747559,-0.6507338285446167
17.358922958374023,27.809110641479492,-1.226629614830017
16.003494262695312,28.090274810791016,-1.2096750736236572
14.301032066345215,27.626419067382812,-1.1640002727508545
12.930184364318848,27.645109176635742,-1.141961932182312
17.64729118347168,42.05475616455078,-1.706507682800293
16.705163955688477,44.770606994628906,-1.788017749786377
18.901918411254883,57.62702941894531,-2.2692933082580566
15.74593734741211,55.432647705078125,-2.1562118530273438
3.8683300018310547,16.044588088989258,-0.6175483465194702
9.536615371704102,47.930809020996094,-1.8286094665527344
6.727836608886719,42.715576171875,-1.6180094480514526
4.52890157699585,38.8541145324707,-1.4636636972427368
2.798980712890625,36.827693939208984,-1.3819700479507446
1.2227771282196045,34.261329650878906,-1.28278648853302
-0.14445841312408447,32.04981994628906,-1.1992332935333252
-1.346876859664917,30.11867904663086,-1.1280882358551025
-2.4172134399414062,28.412683486938477,-1.0669689178466797
-3.3802990913391113,26.89000701904297,-1.014072299003601
-4.255309104919434,25.518369674682617,-0.9680153131484985
-5.0562028884887695,24.26725196838379,-0.9275179505348206
-5.796957969665527,23.126989364624023,-0.8921215534210205
-6.486444473266602,22.076078414916992,-0.8609473705291748
-7.1326117515563965,21.10125160217285,-0.8334400057792664
-7.742079734802246,20.191516876220703,-0.8091469407081604
-8.320412635803223,19.33771324157715,-0.7877010703086853
-8.872305870056152,18.53213119506836,-0.768795371055603
-9.38026237487793,17.727344512939453,-0.7504480481147766
-9.725852966308594,16.71915626525879,-0.723737359046936
-10.049954414367676,15.78157901763916,-0.700075089931488
-10.355782508850098,14.904521942138672,-0.6790891885757446
-10.646015167236328,14.079567909240723,-0.6604683995246887
-10.922964096069336,13.299560546875,-0.6439586877822876
-11.247307777404785,12.624308586120605,-0.6326473951339722
-11.633572578430176,12.046565055847168,-0.6266255974769592
-10.049077987670898,9.60206413269043,-0.5200660824775696
-10.356146812438965,9.128454208374023,-0.516548752784729
-12.54910659790039,10.195634841918945,-0.6050119400024414
-13.072437286376953,9.775947570800781,-0.6107998490333557
-13.532490730285645,9.296433448791504,-0.6143380999565125
-14.130667686462402,8.893628120422363,-0.6247515678405762
-14.995247840881348,8.616887092590332,-0.6471402049064636
-16.024574279785156,8.370749473571777,-0.6764880418777466
-16.52996826171875,7.806252956390381,-0.684009850025177
-17.033164978027344,7.221968173980713,-0.6922580003738403
-17.55423927307129,6.6242570877075195,-0.702044665813446
-18.096155166625977,6.010039329528809,-0.7134789228439331
-18.662172317504883,5.375953197479248,-0.7266868352890015
-19.256025314331055,4.718234062194824,-0.7418252229690552
-20.36669158935547,4.130887031555176,-0.7775866985321045
-21.045942306518555,3.394857883453369,-0.7976646423339844
-21.769126892089844,2.6193366050720215,-0.8204193115234375
-22.543283462524414,1.7974649667739868,-0.846189022064209
-23.376733779907227,0.9211453199386597,-0.8753759860992432
-24.279577255249023,-0.01936700940132141,-0.9084808230400085
-25.26404571533203,-1.0358949899673462,-0.9461097121238708
-26.345226287841797,-2.1429104804992676,-0.9890265464782715
-27.5419864654541,-3.3585290908813477,-1.0381841659545898
-28.19087791442871,-4.593555927276611,-1.0687413215637207
-29.661130905151367,-6.065319538116455,-1.132810115814209
-31.33641242980957,-7.731293678283691,-1.2076855897903442
-27.069496154785156,-7.844665050506592,-1.0545421838760376
-36.35633850097656,-12.1390380859375,-1.4341838359832764
-28.787452697753906,-10.915753364562988,-1.1519861221313477
-25.666536331176758,-10.93085765838623,-1.0438411235809326
-23.0780029296875,-10.943642616271973,-0.9556878209114075
-20.889799118041992,-10.954690933227539,-0.8825963735580444
-19.010120391845703,-10.96440315246582,-0.8211408257484436
-17.083009719848633,-10.789901733398438,-0.7560262084007263
-17.624496459960938,-12.148985862731934,-0.8009591698646545
-17.513742446899414,-13.140914916992188,-0.8192746043205261
-17.48151969909668,-14.249404907226562,-0.8438830971717834
-17.047100067138672,-15.074662208557129,-0.8514828085899353
-18.59380340576172,-17.823545455932617,-0.9637490510940552
-18.550691604614258,-19.270687103271484,-1.0008611679077148
-19.81725311279297,-22.315074920654297,-1.1166986227035522
-18.64849853515625,-22.780010223388672,-1.1015560626983643
-17.528104782104492,-13.98332405090332,-0.6524280905723572
-17.495325088500977,-15.146324157714844,-0.673329770565033
-18.647615432739258,-17.5028076171875,-0.7441580295562744
-18.606948852539062,-18.926908493041992,-0.7722764015197754
-18.311317443847656,-20.187946319580078,-0.7930516600608826
-18.993986129760742,-22.710805892944336,-0.8614645004272461
-18.65428924560547,-24.21882438659668,-0.889501690864563
-17.97620964050293,-25.386266708374023,-0.9051030874252319
-18.81049156188965,-28.965185165405273,-1.0049294233322144
-18.261764526367188,-30.758594512939453,-1.0408390760421753
-23.6362247467041,-53.61229705810547,-1.704831838607788
-21.38675880432129,-54.32354736328125,-1.6987369060516357
10.450971603393555,-9.550368309020996,-0.4119386672973633
19.48055076599121,-9.630496978759766,-0.63231360912323
30.39069175720215,21.962385177612305,-1.0910203456878662
26.820486068725586,21.072830200195312,-0.9924644231796265
23.95157241821289,20.426877975463867,-0.9159497022628784
21.491317749023438,19.874128341674805,-0.8517337441444397
19.615537643432617,19.65898323059082,-0.8080621957778931
17.91948127746582,19.46385383605957,-0.7698074579238892
16.206953048706055,19.088882446289062,-0.7286180257797241
15.619601249694824,19.970712661743164,-0.7377129197120667
10.314143180847168,14.339040756225586,-0.513947606086731
17.672164916992188,26.775409698486328,-0.9334812760353088
16.501480102539062,27.32984161376953,-0.9289308786392212
15.218631744384766,27.658681869506836,-0.9185701608657837
13.810147285461426,27.67627716064453,-0.8999868631362915
12.537446022033691,27.87571144104004,-0.889363169670105
16.946941375732422,42.126747131347656,-1.3212320804595947
16.53338623046875,46.400604248046875,-1.433270812034607
15.650310516357422,50.217430114746094,-1.5304944515228271
9.07271671295166,33.84226608276367,-1.0194839239120483
6.819199562072754,30.246402740478516,-0.902172327041626
5.5710248947143555,30.345317840576172,-0.8977162837982178
5.390604496002197,37.8730354309082,-1.1131010055541992
3.6508212089538574,35.951297760009766,-1.0514559745788574
2.0461549758911133,33.49072265625,-0.9762991666793823
0.6537206768989563,31.36603546142578,-0.912857711315155
-0.5708414912223816,29.50736427307129,-0.8587380647659302
-1.6604804992675781,27.862808227539062,-0.8121639490127563
-2.640286684036255,26.392873764038086,-0.771787166595459
-3.52963924407959,25.067108154296875,-0.7365745902061462
-4.343095302581787,23.857711791992188,-0.7055975198745728
-5.094047546386719,22.753116607666016,-0.678438663482666
-5.791844844818115,21.734182357788086,-0.6544705629348755
-6.444563865661621,20.788288116455078,-0.6332778930664062
-7.0589494705200195,19.904939651489258,-0.6145162582397461
-7.640615463256836,19.075428009033203,-0.5979082584381104
-8.194326400756836,18.292377471923828,-0.5832192301750183
-8.724200248718262,17.549468994140625,-0.5702539682388306
-9.233786582946777,16.841299057006836,-0.5588542222976685
-9.610275268554688,15.970555305480957,-0.5423422455787659
-9.927226066589355,15.089974403381348,-0.525567889213562
-10.226932525634766,14.262779235839844,-0.5106662511825562
-10.511869430541992,13.481643676757812,-0.49742722511291504
-10.784149169921875,12.740373611450195,-0.4856809973716736
-11.144275665283203,12.141133308410645,-0.47952932119369507
-11.522497177124023,11.582624435424805,-0.4753819704055786
-10.06786823272705,9.338255882263184,-0.39955663681030273
-12.068934440612793,10.324124336242676,-0.46214407682418823
-12.502541542053223,9.853540420532227,-0.46320220828056335
-13.038805961608887,9.452458381652832,-0.4686087965965271
-13.618931770324707,9.061397552490234,-0.475982666015625
-14.244564056396484,8.672995567321777,-0.4852744936943054
-15.173221588134766,8.42223834991455,-0.5049661993980408
-15.653453826904297,7.8835530281066895,-0.5099732279777527
-16.123397827148438,7.32373046875,-0.5152740478515625
-16.607351303100586,6.752573013305664,-0.5216424465179443
-17.107744216918945,6.167420864105225,-0.529145359992981
-17.627243041992188,5.565368175506592,-0.5378578901290894
-18.168874740600586,4.943180084228516,-0.5478785634040833
-19.192800521850586,4.401988983154297,-0.5729551911354065
-19.80398178100586,3.7117536067962646,-0.5862734317779541
-20.449941635131836,2.988152503967285,-0.6013527512550354
-21.136091232299805,2.2255890369415283,-0.6183993220329285
-21.868730545043945,1.4175491333007812,-0.6376520395278931
-22.655420303344727,0.556260347366333,-0.6594064235687256
-23.50516700744629,-0.367509126663208,-0.6840157508850098
-24.428890228271484,-1.3649194240570068,-0.7119195461273193
-25.440032958984375,-2.449702739715576,-0.7436562180519104
-26.555208206176758,-3.638780355453491,-0.7798988819122314
-27.133913040161133,-4.835589408874512,-0.801957368850708
-28.49271583557129,-6.268167495727539,-0.8488814234733582
-29.173885345458984,-7.6586527824401855,-0.8776353597640991
-25.875286102294922,-7.916533470153809,-0.7873433232307434
-34.64411544799805,-12.141523361206055,-1.0681540966033936
-27.45960235595703,-10.880884170532227,-0.8594335913658142
-24.57314682006836,-10.898665428161621,-0.7821743488311768
-22.159629821777344,-10.913727760314941,-0.7187374234199524
-20.105520248413086,-10.926728248596191,-0.6658234596252441
-18.838834762573242,-11.24132251739502,-0.6383256912231445
-17.67855453491211,-11.536476135253906,-0.6142299175262451
-17.6502685546875,-12.557040214538574,-0.6302788257598877
-17.620203018188477,-13.634017944335938,-0.6482550501823425
-17.507694244384766,-14.708380699157715,-0.6653342843055725
-16.9551944732666,-15.447592735290527,-0.6673980951309204
-18.622346878051758,-18.388748168945312,-0.761508047580719
-18.579519271850586,-19.882741928100586,-0.7918038964271545
-19.570079803466797,-22.706470489501953,-0.8722192645072937
-18.674768447875977,-23.515378952026367,-0.8737464547157288
-20.54465675354004,-28.119428634643555,-1.0133062601089478
-19.326019287109375,-28.813995361328125,-1.0095210075378418
-17.98773193359375,-29.298036575317383,-1.0003340244293213
-18.225507736206055,-32.54941940307617,-1.0854542255401611
-24.588695526123047,-53.60402297973633,-1.7159819602966309
-22.036680221557617,-53.6263427734375,-1.6869772672653198
10.459477424621582,-9.846819877624512,-0.4179861545562744
19.104990005493164,-9.800178527832031,-0.6247754096984863
62.78047180175781,33.51835632324219,-2.070784330368042
27.97109031677246,21.313390731811523,-1.0232256650924683
24.957582473754883,20.653236389160156,-0.9426013231277466
22.358247756958008,20.06875991821289,-0.8741944432258606
20.108800888061523,19.564102172851562,-0.8163379430770874
19.39588737487793,20.450170516967773,-0.8201091289520264
16.817363739013672,19.22241973876953,-0.7431597709655762
15.365253448486328,19.056066513061523,-0.7122705578804016
18.257970809936523,24.60444450378418,-0.8914973735809326
9.777305603027344,14.346230506896973,-0.5051581263542175
17.194747924804688,27.54608154296875,-0.944847822189331
15.753768920898438,27.65192985534668,-0.9260043501853943
14.323535919189453,27.669891357421875,-0.9065901041030884
16.746429443359375,35.804344177246094,-1.1501222848892212
17.6737117767334,42.11770248413086,-1.3290244340896606
16.625732421875,44.55766296386719,-1.3838075399398804
18.10508155822754,55.1976432800293,-1.690279245376587
9.620831489562988,33.869590759277344,-1.0244953632354736
3.8765954971313477,16.078866958618164,-0.48125267028808594
6.1078572273254395,30.69792938232422,-0.9107279777526855
6.149890899658203,39.046104431152344,-1.1501322984695435
4.308459758758545,36.96287155151367,-1.0827935934066772
2.6111035346984863,34.35566711425781,-1.0025326013565063
1.1462199687957764,32.11627960205078,-0.9350844621658325
-0.1359671950340271,30.1662540435791,-0.8777585625648499
-1.2721526622772217,28.447797775268555,-0.8285755515098572
-2.289999485015869,26.917341232299805,-0.7860450744628906
-3.2107760906219482,25.541440963745117,-0.7490302324295044
-4.050501823425293,24.29016876220703,-0.7165319919586182
-4.823458671569824,23.150218963623047,-0.6880691051483154
-5.539856433868408,22.101259231567383,-0.6629761457443237
-6.208380222320557,21.12970733642578,-0.6408019661903381
-6.836207866668701,20.22437286376953,-0.6211785674095154
-7.429348468780518,19.37591552734375,-0.6038046479225159
-7.9928789138793945,18.576486587524414,-0.5884314775466919
-8.531106948852539,17.81945037841797,-0.5748513340950012
-9.04780101776123,17.09903907775879,-0.5628914833068848
-9.488329887390137,16.31084632873535,-0.5490580797195435
-9.812352180480957,15.408467292785645,-0.5315312147140503
-10.118117332458496,14.56246566772461,-0.5159634947776794
-10.408244132995605,13.765106201171875,-0.5021336078643799
-10.684967994689941,13.009780883789062,-0.4898533821105957
-11.003210067749023,12.350325584411621,-0.48129141330718994
-11.383445739746094,11.787555694580078,-0.4768095016479492
-10.073657989501953,9.625550270080566,-0.4054110050201416
-10.378077507019043,9.147785186767578,-0.4025348424911499
-12.309454917907715,10.000931739807129,-0.4614965617656708
-12.839163780212402,9.601494789123535,-0.46650683879852295
-13.393966674804688,9.201277732849121,-0.4728405773639679
-14.010665893554688,8.818100929260254,-0.4817046523094177
-14.80958366394043,8.510197639465332,-0.4970146417617798
-15.48304557800293,8.087869644165039,-0.5082739591598511
-15.948386192321777,7.531599998474121,-0.5131959319114685
-16.426902770996094,6.964919090270996,-0.5191633105278015
-16.92091941833496,6.385268688201904,-0.5262382626533508
-17.433034896850586,5.7898077964782715,-0.534494161605835
-17.96613311767578,5.175446510314941,-0.5440210700035095
-18.840530395507812,4.616426944732666,-0.564421534538269
-19.57453155517578,3.9702157974243164,-0.5811598896980286
-20.20706558227539,3.2595407962799072,-0.5955677032470703
-20.877689361572266,2.512075901031494,-0.6118624210357666
-21.59236717224121,1.7216448783874512,-0.6302692294120789
-22.358137130737305,0.8810081481933594,-0.6510612964630127
-23.18343162536621,-0.01849249005317688,-0.6745716333389282
-24.078432083129883,-0.987281322479248,-0.7012003064155579
-25.055543899536133,-2.038007974624634,-0.7314525246620178
-26.130128860473633,-3.18636417388916,-0.7659425735473633
-26.67120361328125,-4.345933437347412,-0.7862882018089294
-27.9718074798584,-5.719873905181885,-0.8307405114173889
-29.44085121154785,-7.26362419128418,-0.8823286890983582
-26.64837646484375,-7.722626209259033,-0.8072919845581055
-33.82858657836914,-11.295048713684082,-1.0377273559570312
-28.675891876220703,-10.873451232910156,-0.8923525214195251
-25.576370239257812,-10.892459869384766,-0.8088752031326294
-23.00375747680664,-10.908435821533203,-0.7407850623130798
-20.827720642089844,-10.922136306762695,-0.6842976808547974
-18.957544326782227,-10.93408203125,-0.6367815732955933
-17.117431640625,-10.811643600463867,-0.5890954732894897
-17.660905838012695,-12.17408561706543,-0.6241398453712463
-17.631526947021484,-13.229291915893555,-0.6413799524307251
-17.51974868774414,-14.280561447143555,-0.6576682329177856
-17.266944885253906,-15.269065856933594,-0.6706827878952026
-18.63728904724121,-17.86522674560547,-0.7511978149414062
-18.595754623413086,-19.317489624023438,-0.780195951461792
-19.57158088684082,-22.03844451904297,-0.8576167821884155
-18.694499969482422,-22.836206436157227,-0.8587198853492737
-17.646867752075195,-14.078067779541016,-0.46911218762397766
-17.534561157226562,-15.1802978515625,-0.48196232318878174
-18.690898895263672,-17.543439865112305,-0.532701313495636
-18.65177345275879,-18.972497940063477,-0.5528793334960938
-18.52208137512207,-20.42030906677246,-0.572906494140625
-18.959638595581055,-22.669742584228516,-0.6141334772109985
-18.705530166625977,-24.28535270690918,-0.6370148062705994
-19.93341636657715,-28.1502628326416,-0.7167918086051941
-18.548473358154297,-28.561721801757812,-0.7077091932296753
-18.32110595703125,-30.858551025390625,-0.745768666267395
-17.759309768676758,-32.85074996948242,-0.7760337591171265
-26.052690505981445,-53.19507598876953,-1.2308869361877441
-23.600265502929688,-53.5307502746582,-1.2157177925109863
-20.886022567749023,-53.051639556884766,-1.1848138570785522
10.425603866577148,-9.527189254760742,-0.293487548828125
19.42943000793457,-9.605225563049316,-0.45040667057037354
62.34564971923828,34.4843864440918,-1.4805703163146973
29.655134201049805,21.430816650390625,-0.7603321671485901
26.390317916870117,20.734840393066406,-0.6974358558654785
23.596590042114258,20.124135971069336,-0.644465446472168
21.194826126098633,19.59994125366211,-0.5999045968055725
19.266159057617188,19.308839797973633,-0.5668299198150635
17.70669937133789,19.232728958129883,-0.5432586073875427
16.024677276611328,18.87420082092285,-0.5145179033279419
15.773183822631836,20.167076110839844,-0.5320453643798828
10.331632614135742,14.363354682922363,-0.3676779866218567
17.309551239013672,26.225994110107422,-0.6529998183250427
16.339832305908203,27.062116622924805,-0.6569310426712036
15.243380546569824,27.703645706176758,-0.6570968627929688
16.724462509155273,33.5167350769043,-0.7784002423286438
12.51775074005127,27.831928253173828,-0.6341754198074341
16.972206115722656,42.18949508666992,-0.9450105428695679
16.488845825195312,46.27556610107422,-1.0208646059036255
15.602926254272461,50.065433502197266,-1.089754343032837
8.141563415527344,30.368959426879883,-0.6533762812614441
6.808887958526611,30.20067024230957,-0.6433461904525757
5.54179048538208,30.186111450195312,-0.6377748250961304
5.136395454406738,36.087032318115234,-0.7574742436408997
3.4108164310455322,33.58786392211914,-0.7015712261199951
1.9206652641296387,31.436756134033203,-0.6544981002807617
0.6160807609558105,29.560184478759766,-0.6144165396690369
-0.5398239493370056,27.903764724731445,-0.5799697637557983
-1.5748815536499023,26.426485061645508,-0.5501373410224915
-2.5106120109558105,25.09664535522461,-0.5241307020187378
-3.3634860515594482,23.887113571166992,-0.501288652420044
-4.147418022155762,22.782804489135742,-0.48122450709342957
-4.872980117797852,21.765727996826172,-0.46350449323654175
-5.549002647399902,20.822935104370117,-0.44781699776649475
-6.182758331298828,19.94376564025879,-0.4339039921760559
-6.780344486236572,19.119319915771484,-0.42155787348747253
-7.3468804359436035,18.342119216918945,-0.4106022119522095
-7.886765003204346,17.605791091918945,-0.4008937478065491
-8.403768539428711,16.904869079589844,-0.39230918884277344
-8.901163101196289,16.23464012145996,-0.3847489356994629
-9.381853103637695,15.590954780578613,-0.37812793254852295
-9.700562477111816,14.745436668395996,-0.3667828440666199
-9.999898910522461,13.946158409118652,-0.35661351680755615
-10.28443431854248,13.189949989318848,-0.34756940603256226
-10.55621337890625,12.471095085144043,-0.3395357131958008
-10.908510208129883,11.884283065795898,-0.33522874116897583
-11.280797958374023,11.339661598205566,-0.3323909342288971
-10.092185020446777,9.360812187194824,-0.28604739904403687
-11.84116268157959,10.129279136657715,-0.32383424043655396
-12.248578071594238,9.653385162353516,-0.3241012692451477
-12.755248069763184,9.246899604797363,-0.32740354537963867
-13.418063163757324,8.927751541137695,-0.33493325114250183
-14.123791694641113,8.599456787109375,-0.34363579750061035
-14.686403274536133,8.152010917663574,-0.349058598279953
-15.124902725219727,7.617359161376953,-0.35191839933395386
-15.57351016998291,7.073954105377197,-0.35545164346694946
-16.034202575683594,6.519529819488525,-0.3596937358379364
-16.50912857055664,5.95161771774292,-0.36468565464019775
-17.000652313232422,5.367537498474121,-0.3704761862754822
-17.51143455505371,4.764313220977783,-0.3771289885044098
-18.48434829711914,4.239499092102051,-0.39409300684928894
-19.05660629272461,3.571678638458252,-0.4029063284397125
-19.659116744995117,2.872596263885498,-0.41287052631378174
-20.296480178833008,2.137179374694824,-0.42410919070243835
-20.974075317382812,1.3595569133758545,-0.43677252531051636
-21.69829750061035,0.5327600240707397,-0.4510433077812195
-22.47671127319336,-0.35142913460731506,-0.46714138984680176
-23.318389892578125,-1.3028724193572998,-0.48533034324645996
-24.234460830688477,-2.333613872528076,-0.5059412717819214
-25.238502502441406,-3.45835542678833,-0.5293772220611572
-25.72046661376953,-4.583696365356445,-0.5429120063781738
-26.926410675048828,-5.923595428466797,-0.5729307532310486
-28.282474517822266,-7.424632549285889,-0.6076482534408569
-25.15087890625,-7.69490385055542,-0.5465674996376038
-32.331424713134766,-11.331007957458496,-0.7119360566139221
-27.357542037963867,-10.840442657470703,-0.6115147471427917
-24.48999786376953,-10.861786842346191,-0.5567289590835571
-22.09071159362793,-10.879783630371094,-0.5117168426513672
-20.04758071899414,-10.89523983001709,-0.474152147769928
-18.876296997070312,-11.263678550720215,-0.4567902088165283
-17.714550018310547,-11.559965133666992,-0.4395686984062195
-17.687149047851562,-12.58327865600586,-0.45107755064964294
-17.65807342529297,-13.66331958770752,-0.4639708995819092
-17.546491622924805,-14.740970611572266,-0.47622597217559814
-16.994043350219727,-15.482979774475098,-0.47773927450180054
-18.666580200195312,-18.432424545288086,-0.5451514720916748
-18.625411987304688,-19.931848526000977,-0.5668932795524597
-19.459951400756836,-22.578704833984375,-0.6194198727607727
-18.725154876708984,-23.578828811645508,-0.6257014870643616
-20.261024475097656,-27.731224060058594,-0.7136994004249573
-19.055601119995117,-28.410829544067383,-0.7108988761901855
-18.348430633544922,-29.885515213012695,-0.7287523746490479
-18.271244049072266,-32.63111114501953,-0.777163028717041
-24.551061630249023,-53.52195739746094,-1.2236573696136475
-22.003501892089844,-53.54562759399414,-1.2030029296875
-21.869617462158203,-59.96583557128906,-1.3264224529266357
10.433716773986816,-9.822568893432617,-0.2977852523326874
19.055458068847656,-9.77476692199707,-0.445049524307251
31.03228187561035,21.732589721679688,-0.7872880101203918
27.508211135864258,20.960681915283203,-0.7186811566352844
24.577096939086914,20.33836555480957,-0.6629298329353333
22.041776657104492,19.784692764282227,-0.6155015826225281
19.842756271362305,19.30526351928711,-0.5753049850463867
19.045364379882812,20.080598831176758,-0.5751280188560486
16.624496459960938,19.001970291137695,-0.5246658325195312
15.78561019897461,19.577390670776367,-0.5226105451583862
15.265522003173828,20.571819305419922,-0.5323418378829956
9.793601036071777,14.370139122009277,-0.36137956380844116
17.033708572387695,27.288103103637695,-0.6684781312942505
15.77959156036377,27.697248458862305,-0.6624249815940857
16.748394012451172,32.35417556762695,-0.7570883631706238
16.68037223815918,35.663116455078125,-0.8181632161140442
17.700170516967773,42.180809020996094,-0.9505975842475891
16.547088623046875,44.34694290161133,-0.983627200126648
16.448671340942383,50.1476936340332,-1.096731185913086
9.599204063415527,33.79345703125,-0.7300367951393127
3.8909659385681152,16.138471603393555,-0.34497833251953125
6.002668857574463,30.169252395629883,-0.6392295956611633
3.6581695079803467,23.225997924804688,-0.48860371112823486
4.0173492431640625,34.465396881103516,-0.7210653424263
2.446937084197998,32.19559860229492,-0.670976459980011
1.0787173509597778,30.224863052368164,-0.6284953355789185
-0.12842395901679993,28.4925594329834,-0.5921041965484619
-1.2053173780441284,26.953229904174805,-0.5606685876846313
-2.1755528450012207,25.572145462036133,-0.5333274006843567
-3.0572242736816406,24.3199405670166,-0.5093652606010437
-3.865304946899414,23.179597854614258,-0.4883405864238739
-4.611298084259033,22.131959915161133,-0.4697956442832947
-5.3046956062316895,21.163084030151367,-0.4533901512622833
-5.953290939331055,20.261547088623047,-0.43884941935539246
-6.563586711883545,19.41783905029297,-0.42594674229621887
-7.1410441398620605,18.623979568481445,-0.4144950211048126
-7.690296173095703,17.87324333190918,-0.40434104204177856
-8.21532154083252,17.15985870361328,-0.39535462856292725
-8.719599723815918,16.47879981994629,-0.3874253034591675
-9.206151008605957,15.825763702392578,-0.38046830892562866
-9.585829734802246,15.05275821685791,-0.3708495497703552
-9.891225814819336,14.235909461975098,-0.36023083329200745
-10.180964469909668,13.464529037475586,-0.3507857918739319
-10.457236289978027,12.732491493225098,-0.3423910439014435
-10.769594192504883,12.08810806274414,-0.33643415570259094
-11.14395523071289,11.539567947387695,-0.3333654999732971
-10.098346710205078,9.649140357971191,-0.2902488708496094
-10.400089263916016,9.16718864440918,-0.28809577226638794
-12.097976684570312,9.829108238220215,-0.32393813133239746
-12.553512573242188,9.387879371643066,-0.32576417922973633
-13.163769721984863,9.04312515258789,-0.331895649433136
-13.892740249633789,8.743891716003418,-0.3411415219306946
-14.611092567443848,8.396133422851562,-0.35020706057548523
-14.961928367614746,7.815654754638672,-0.3507853150367737
-15.406583786010742,7.275735855102539,-0.3540661931037903
-15.86258316040039,6.725649356842041,-0.3580426275730133
-16.331981658935547,6.163025856018066,-0.36275237798690796
-16.817092895507812,5.585241794586182,-0.36824241280555725
-17.3204402923584,4.98944616317749,-0.3745688796043396
-18.279891967773438,4.479056358337402,-0.39110755920410156
-18.842021942138672,3.8216447830200195,-0.3995242416858673
-19.432861328125,3.1346566677093506,-0.40905091166496277
-20.056764602661133,2.4132988452911377,-0.4198019802570343
-20.718833923339844,1.6519944667816162,-0.4319203794002533
-21.425031661987305,0.8442395329475403,-0.44557514786720276
-22.182451248168945,-0.01769411563873291,-0.46096956729888916
-22.999603271484375,-0.9430464506149292,-0.47835129499435425
-23.886764526367188,-1.9429398775100708,-0.4980258345603943
-24.856555938720703,-3.0310611724853516,-0.5203651189804077
-25.72170066833496,-4.191218376159668,-0.5415656566619873
-26.46523094177246,-5.411799430847168,-0.561348021030426
-27.76230239868164,-6.849492073059082,-0.5942217707633972
-26.518173217773438,-7.684892177581787,-0.573740541934967
-26.02614974975586,-8.6898832321167,-0.5701941251754761
-28.565258026123047,-10.831496238708496,-0.6348497271537781
-25.48687744140625,-10.854348182678223,-0.5756670236587524
-22.930021286010742,-10.873472213745117,-0.5273625254631042
-20.766040802001953,-10.889789581298828,-0.4872701168060303
-18.96725082397461,-10.939682006835938,-0.45501378178596497
-18.146121978759766,-11.461381912231445,-0.44600847363471985
-17.69744873046875,-12.199274063110352,-0.44667530059814453
-17.66901969909668,-13.257423400878906,-0.45903879404067993
-17.638761520385742,-14.377577781677246,-0.47288787364959717
-17.49241828918457,-15.468457221984863,-0.48524442315101624
-18.680959701538086,-17.907085418701172,-0.5377531051635742
-18.641010284423828,-19.364500045776367,-0.5585624575614929
-18.107465744018555,-20.389780044555664,-0.5666801929473877
-18.744070053100586,-22.896759033203125,-0.6149131059646606
-17.685285568237305,-14.108717918395996,-0.2820541262626648
-17.654678344726562,-15.284279823303223,-0.2911318838596344
-18.70306968688965,-17.554855346679688,-0.3198014199733734
-18.69679832458496,-19.018301010131836,-0.3324982225894928
-18.656082153320312,-20.568038940429688,-0.34619903564453125
-18.925439834594727,-22.628843307495117,-0.3677819073200226
