-24.230806350708008,-45.52764892578125,-5.811016082763672
-24.26007652282715,-50.36220932006836,-6.298512935638428
-23.928970336914062,-55.24787902832031,-6.7837395668029785
-21.327728271484375,-55.225624084472656,-6.670337677001953
-19.929960250854492,-58.49721908569336,-6.963088035583496
-21.42709732055664,29.475757598876953,-4.1059064865112305
-21.321998596191406,26.98171043395996,-3.874772310256958
-22.940420150756836,26.74668312072754,-3.9702603816986084
-24.65233612060547,26.508975982666016,-4.078798294067383
-26.473400115966797,26.26727867126465,-4.20197868347168
-28.422029495239258,26.0201358795166,-4.341725826263428
-30.520418167114258,25.76584243774414,-4.500400066375732
-32.772151947021484,25.484298706054688,-4.67757511138916
-33.1668586730957,23.716371536254883,-4.59411096572876
-31.577991485595703,20.715160369873047,-4.255231857299805
-11.67323112487793,7.003641128540039,-1.5338239669799805
-11.887264251708984,6.497418403625488,-1.5263901948928833
-31.627254486083984,15.671111106872559,-3.976999282836914
-31.6403751373291,14.124185562133789,-3.90408992767334
-17.198856353759766,6.862918376922607,-2.0864315032958984
-37.40755081176758,13.211020469665527,-4.469943523406982
-23.02625846862793,7.105427265167236,-2.715151786804199
-67.49889373779297,17.893144607543945,-7.867982864379883
-73.5896224975586,16.374629974365234,-8.49434757232666
-79.91621398925781,14.440305709838867,-9.150211334228516
-81.12818908691406,11.315478324890137,-9.229437828063965
-43.12849426269531,4.257655143737793,-4.8830366134643555
-79.28265380859375,-14.662271499633789,-9.084489822387695
-94.39324951171875,-21.410930633544922,-10.905739784240723
-74.7570571899414,-20.1461181640625,-8.723597526550293
-66.4856948852539,-20.81553840637207,-7.849703788757324
-66.47171020507812,-23.782934188842773,-7.954516887664795
-64.68753051757812,-26.120901107788086,-7.860325336456299
-59.59013748168945,-26.8949031829834,-7.366365432739258
-55.96195602416992,-28.015628814697266,-7.05139684677124
-55.94095993041992,-30.875507354736328,-7.199342250823975
-55.917171478271484,-33.861839294433594,-7.3655314445495605
-25.85224723815918,-17.111312866210938,-3.4931082725524902
-23.922134399414062,-17.254682540893555,-3.3233602046966553
-22.174686431884766,-17.390066146850586,-3.175161361694336
-20.615625381469727,-17.549524307250977,-3.0504841804504395
-20.659381866455078,-19.07000160217285,-3.1678435802459717
-24.3382625579834,-24.34791374206543,-3.878916025161743
-23.755634307861328,-25.75599479675293,-3.9479002952575684
-22.026573181152344,-25.89563751220703,-3.8304738998413086
-24.183759689331055,-30.862768173217773,-4.417821884155273
-23.179306030273438,-32.162940979003906,-4.46693229675293
-21.38553237915039,-32.337703704833984,-4.368265628814697
-20.46727180480957,-33.828575134277344,-4.454903602600098
-24.981548309326172,-45.304534912109375,-5.829211711883545
-24.270627975463867,-48.529335021972656,-6.113647937774658
-24.27300262451172,-53.83786392211914,-6.654094696044922
-22.27804183959961,-55.23385238647461,-6.71051549911499
-19.920000076293945,-55.74488067626953,-6.669915676116943
-21.48733139038086,28.654926300048828,-3.734355926513672
-21.56344223022461,26.470340728759766,-3.559758424758911
-23.17926788330078,26.22757911682129,-3.649484634399414
-24.889760971069336,25.98048973083496,-3.751312732696533
-26.71059226989746,25.72761344909668,-3.8667287826538086
-28.660472869873047,25.467269897460938,-3.9975509643554688
-30.76166534423828,25.197513580322266,-4.1459808349609375
-33.03337097167969,24.90993881225586,-4.313695430755615
-31.61606216430664,21.905967712402344,-4.010369300842285
-31.634300231933594,20.087261199951172,-3.9070866107940674
-11.693350791931152,6.78184175491333,-1.4094085693359375
-31.665382385253906,16.702587127685547,-3.732698678970337
-31.67856216430664,15.115415573120117,-3.6596620082855225
-31.727983474731445,13.602509498596191,-3.5992894172668457
-17.397375106811523,6.644689559936523,-1.9417240619659424
-39.92593002319336,13.437649726867676,-4.392289161682129
-22.805368423461914,6.668406009674072,-2.477346420288086
-67.59660339355469,16.84988784790039,-7.263558864593506
-33.967384338378906,7.0310258865356445,-3.616652250289917
-39.66183090209961,6.560608863830566,-4.191496849060059
-96.7451400756836,12.033427238464355,-10.164766311645508
-95.13229370117188,-15.11088752746582,-10.043227195739746
-80.66287231445312,-16.158613204956055,-8.577324867248535
-73.45250701904297,-17.81072235107422,-7.88038444519043
-67.47520446777344,-19.261877059936523,-7.316278457641602
-65.30107116699219,-21.51342010498047,-7.168526649475098
-64.74888610839844,-24.255918502807617,-7.209137916564941
-60.16033935546875,-25.33724594116211,-6.80616569519043
-56.055599212646484,-26.307552337646484,-6.4562225341796875
-56.0378303527832,-29.1011905670166,-6.583608150482178
-56.01762390136719,-32.01113510131836,-6.726997375488281
-26.767789840698242,-16.757532119750977,-3.292712688446045
-24.754005432128906,-16.917829513549805,-3.1261367797851562
-22.937681198120117,-17.067609786987305,-2.981003999710083
-21.28557586669922,-17.20884132385254,-2.8539035320281982
-20.705913543701172,-18.16300392150879,-2.8717682361602783
-20.601024627685547,-19.59010887145996,-2.9640603065490723
-24.054426193237305,-24.788795471191406,-3.601412773132324
-22.879316329956055,-25.556459426879883,-3.5764169692993164
-21.211904525756836,-25.700916290283203,-3.4744842052459717
-23.888153076171875,-31.435138702392578,-4.1165313720703125
-22.276607513427734,-31.897607803344727,-4.056534290313721
-20.599334716796875,-32.17636489868164,-3.9834470748901367
-20.18450164794922,-34.50685119628906,-4.168132305145264
-23.863183975219727,-44.83690643310547,-5.295751094818115
-23.887468338012695,-49.58867263793945,-5.738927364349365
-21.746801376342773,-50.20957946777344,-5.70499324798584
-21.34278678894043,-55.26460266113281,-6.176877498626709
-20.091018676757812,-58.96995162963867,-6.495492935180664
-27.315622329711914,-92.14704895019531,-10.020865440368652
-12.457297325134277,39.2775993347168,-4.296276569366455
-21.47472381591797,29.541261672973633,-3.807922124862671
-21.070032119750977,26.662866592407227,-3.5432193279266357
-22.572431564331055,26.31764030456543,-3.6150193214416504
-24.24625587463379,26.072311401367188,-3.7122199535369873
-26.024370193481445,25.821748733520508,-3.822425603866577
-27.9241943359375,25.564380645751953,-3.9473233222961426
-29.966659545898438,25.298343658447266,-4.088968276977539
-32.174869537353516,25.01984214782715,-4.249594211578369
-31.309146881103516,22.38797950744629,-4.013127326965332
-31.627792358398438,20.747825622558594,-3.9438679218292236
-11.691190719604492,7.014415740966797,-1.421535849571228
-11.87034797668457,6.488170146942139,-1.410463571548462
-31.673866271972656,15.694205284118652,-3.685614585876465
-31.72378158569336,14.161432266235352,-3.6222474575042725
-17.245019912719727,6.881338596343994,-1.935900092124939
-38.07070541381836,13.445219993591309,-4.2096757888793945
-23.096101760864258,7.126977443695068,-2.520137310028076
-67.59124755859375,17.917627334594727,-7.290745258331299
-73.36080169677734,16.323713302612305,-7.835962772369385
-80.0236587524414,14.459725379943848,-8.478703498840332
-80.73538970947266,11.26069450378418,-8.49928092956543
-43.029788970947266,4.2479095458984375,-4.508267879486084
-94.21977996826172,-17.424692153930664,-9.990315437316895
-75.92957305908203,-17.222869873046875,-8.117829322814941
-69.568603515625,-18.747880935668945,-7.512275218963623
-65.4072265625,-20.47789192199707,-7.146041393280029
-64.94852447509766,-23.23794937133789,-7.192187309265137
-61.98325729370117,-25.02890968322754,-6.969619274139404
-57.24935531616211,-25.83843421936035,-6.548836708068848
-56.04467010498047,-28.057037353515625,-6.534786701202393
-56.02538299560547,-30.922107696533203,-6.672099590301514
-27.56937026977539,-16.695205688476562,-3.360473871231079
-25.47254180908203,-16.859989166259766,-3.184937000274658
-23.587604522705078,-17.01339340209961,-3.032327890396118
-21.878231048583984,-17.157581329345703,-2.8989133834838867
-20.347553253173828,-17.321325302124023,-2.7861156463623047
-20.696409225463867,-19.10418128967285,-2.9366769790649414
-24.068532943725586,-24.07808494567871,-3.5496482849121094
-23.52153205871582,-25.50218963623047,-3.6172618865966797
-21.81591033935547,-25.647972106933594,-3.5106992721557617
-20.209131240844727,-25.790433883666992,-3.416227340698242
-22.939985275268555,-31.83087730407715,-4.090882778167725
-21.16956901550293,-32.011138916015625,-4.001435279846191
-20.518896102905273,-33.91389083862305,-4.132826328277588
-25.001049041748047,-45.339908599853516,-5.39838171005249
-23.83462905883789,-47.65754699707031,-5.5557475090026855
-22.594236373901367,-50.114349365234375,-5.731626033782959
-20.31743621826172,-50.37291717529297,-5.663208484649658
-19.73265266418457,-55.22065353393555,-6.114084243774414
-20.1829891204834,-64.5552749633789,-7.052087783813477
42.77486801147461,-78.18446350097656,-9.292083740234375
-21.534191131591797,28.717422485351562,-3.4411888122558594
-21.228694915771484,26.05943489074707,-3.222348928451538
-22.810527801513672,25.810333251953125,-3.302280902862549
-24.482929229736328,25.55583381652832,-3.392914056777954
-26.26079750061035,25.294370651245117,-3.495544672012329
-28.161794662475586,25.024154663085938,-3.611750364303589
-30.20691680908203,24.74310302734375,-3.7434370517730713
-32.46245574951172,24.479421615600586,-3.897846221923828
-31.66675567626953,21.94109344482422,-3.6934032440185547
-31.683712005615234,20.118635177612305,-3.5981366634368896
-11.71118450164795,6.7921857833862305,-1.2979124784469604
-31.712635040283203,16.72751235961914,-3.4372992515563965
-31.762584686279297,15.155522346496582,-3.3739471435546875
-31.773582458496094,13.622055053710938,-3.3142647743225098
-17.40159797668457,6.646303176879883,-1.7858270406723022
-39.84120559692383,13.409140586853027,-4.030092239379883
-22.817153930664062,6.671854019165039,-2.2790708541870117
-67.68871307373047,16.872840881347656,-6.687867641448975
-34.01325607299805,7.040522575378418,-3.3299643993377686
-39.67321014404297,6.562491416931152,-3.85514235496521
-98.03236389160156,12.193534851074219,-9.47075080871582
-81.13375854492188,-16.25293731689453,-7.932797908782959
-68.47572326660156,-16.603958129882812,-6.754979610443115
-63.78702163696289,-18.209026336669922,-6.3595290184021
-63.2398681640625,-20.8343563079834,-6.383329391479492
-62.69390106201172,-23.486085891723633,-6.4183454513549805
-57.804569244384766,-24.345083236694336,-6.013136863708496
-56.1374397277832,-26.345958709716797,-5.945094108581543
-56.12126159667969,-29.144521713256836,-6.062570571899414
-56.66401290893555,-32.38047409057617,-6.256776332855225
-26.368104934692383,-16.507305145263672,-2.982407808303833
-24.40282440185547,-16.677810668945312,-2.8336710929870605
-22.62716293334961,-16.836551666259766,-2.703895330429077
-21.009540557861328,-16.98567771911621,-2.5901036262512207
-20.742202758789062,-18.194835662841797,-2.645188331604004
-20.728099822998047,-19.710941314697266,-2.742234230041504
-23.78742027282715,-24.513641357421875,-3.274703025817871
-22.658939361572266,-25.31028938293457,-3.256803274154663
-21.013357162475586,-25.460346221923828,-3.1648478507995605
-20.219558715820312,-26.607524871826172,-3.2038135528564453
-22.051246643066406,-31.574909210205078,-3.6922056674957275
-20.385154724121094,-31.841815948486328,-3.62465500831604
-20.460430145263672,-34.97857666015625,-3.8849470615386963
-24.145843505859375,-45.367984771728516,-4.927063941955566
-23.42807960510254,-48.63502883911133,-5.17540168762207
-21.569067001342773,-49.79926300048828,-5.202811241149902
-21.358375549316406,-55.30497360229492,-5.683722972869873
-20.268421173095703,-59.49062728881836,-6.025272846221924
-26.80499839782715,-90.42445373535156,-9.041833877563477
-23.185888290405273,-91.56631469726562,-9.055484771728516
8.159902572631836,-12.035074234008789,-1.393996000289917
8.469237327575684,-11.470662117004395,-1.3669543266296387
-12.433700561523438,39.203182220458984,-3.942898988723755
-21.522480010986328,29.606958389282227,-3.509129762649536
-21.552919387817383,27.273927688598633,-3.3326199054718018
-22.216665267944336,25.90285301208496,-3.2715835571289062
-23.85400390625,25.65052032470703,-3.358126163482666
-25.591062545776367,25.391820907592773,-3.456162691116333
-27.444334030151367,25.125064849853516,-3.5671517848968506
-29.43354606628418,24.84827995300293,-3.6928770542144775
-31.582433700561523,24.559133529663086,-3.8355093002319336
-31.660022735595703,22.63886833190918,-3.7313833236694336
-31.677661895751953,20.78054428100586,-3.632063627243042
-11.709175109863281,7.025206089019775,-1.3090980052947998
-11.853504180908203,6.478963851928711,-1.295066237449646
-31.758203506469727,15.736004829406738,-3.3979082107543945
-31.76966667175293,14.181914329528809,-3.335435628890991
-17.291351318359375,6.8998260498046875,-1.7848219871520996
-37.993282318115234,13.417876243591309,-3.862881660461426
-23.1662540435791,7.148625373840332,-2.3242781162261963
-67.68370056152344,17.942136764526367,-6.7129316329956055
-73.13378143310547,16.2731990814209,-7.182786464691162
-79.5254898071289,14.369704246520996,-7.747547626495361
-80.34707641601562,11.206533432006836,-7.777411460876465
-43.08698654174805,4.253556251525879,-4.150814056396484
-94.65797424316406,-17.5057315826416,-9.228710174560547
-70.6407470703125,-16.023225784301758,-6.944338798522949
-65.01766967773438,-17.521467208862305,-6.455594539642334
-63.43362808227539,-19.8599910736084,-6.372443199157715
-62.89190673828125,-22.502105712890625,-6.403733730316162
-62.36494827270508,-25.183013916015625,-6.447953701019287
-56.14287185668945,-25.339054107666016,-5.905204772949219
-56.12749099731445,-28.098493576049805,-6.017544746398926
-56.67116165161133,-31.278512954711914,-6.2056379318237305
-27.149351119995117,-16.440858840942383,-3.0428452491760254
-25.104463577270508,-16.61635398864746,-2.8861989974975586
-23.262863159179688,-16.779163360595703,-2.749807834625244
-21.590110778808594,-16.931621551513672,-2.6304173469543457
-20.25404167175293,-17.24172019958496,-2.550029993057251
-20.733505249023438,-19.1384220123291,-2.7050843238830566
-23.80516815185547,-23.814605712890625,-3.2281508445739746
-23.29241371154785,-25.25377082824707,-3.293635845184326
-21.609596252441406,-25.40542221069336,-3.1975224018096924
-20.694067001342773,-26.409303665161133,-3.2165613174438477
-22.705976486206055,-31.506160736083984,-3.723151683807373
-20.958282470703125,-31.691648483276367,-3.6425559520721436
-20.570690155029297,-33.99950408935547,-3.809682607650757
-25.020538330078125,-45.37527084350586,-4.967623710632324
-23.44049644470215,-46.86946105957031,-5.023977756500244
-22.40875816345215,-49.70291519165039,-5.22690486907959
-20.15260124206543,-49.964263916015625,-5.165013790130615
-20.30440902709961,-56.820682525634766,-5.784730911254883
-20.19894790649414,-64.6063232421875,-6.48944616317749
-24.522449493408203,-91.14063262939453,-9.048372268676758
42.76078796386719,-78.15875244140625,-8.541165351867676
8.212182998657227,-11.474929809570312,-1.3527945280075073
-21.107574462890625,30.639822006225586,-3.255154609680176
-21.581178665161133,28.78008460998535,-3.147209644317627
-21.60794448852539,26.524972915649414,-2.993182897567749
-22.453866958618164,25.406789779663086,-2.9664735794067383
-24.08980369567871,25.145477294921875,-3.046583890914917
-25.826583862304688,24.876131057739258,-3.1372170448303223
-27.6809139251709,24.596860885620117,-3.239727735519409
-29.67264747619629,24.305477142333984,-3.3557608127593994
-31.88469696044922,24.043746948242188,-3.4937853813171387
-31.717533111572266,21.976282119750977,-3.375927686691284
-31.733203887939453,20.150062561035156,-3.2887134552001953
-11.729043960571289,6.802541255950928,-1.1862547397613525
-31.79766845703125,16.77237319946289,-3.145221710205078
-31.809045791625977,15.177691459655762,-3.083498001098633
-31.819232940673828,13.641627311706543,-3.0288758277893066
-17.40581703186035,6.647914886474609,-1.6301039457321167
-39.75700378417969,13.380796432495117,-3.6700074672698975
-22.828933715820312,6.675299167633057,-2.080906867980957
-67.78092956542969,16.895832061767578,-6.11152458190918
-77.96073150634766,16.137361526489258,-6.965271472930908
-39.68457794189453,6.564374923706055,-3.519129753112793
-98.16300964355469,12.2097806930542,-8.65433120727539
-81.24320220947266,-16.274864196777344,-7.249073505401611
-64.495849609375,-15.63891887664795,-5.80617094039917
-61.925254821777344,-17.67755699157715,-5.634183406829834
-66.75889587402344,-21.993701934814453,-6.149447441101074
-66.74787139892578,-25.004772186279297,-6.235996246337891
-61.055511474609375,-25.7142333984375,-5.796083450317383
-56.74251937866211,-26.62990951538086,-5.483847618103027
-56.72780990600586,-29.459482192993164,-5.592372894287109
-28.119844436645508,-16.069000244140625,-2.833524703979492
-25.980775833129883,-16.26482582092285,-2.681703805923462
-24.061979293823242,-16.444869995117188,-2.5498297214508057
-22.325407028198242,-16.61202049255371,-2.434612274169922
-20.764894485473633,-16.787883758544922,-2.336150646209717
-20.778564453125,-18.22673225402832,-2.41817569732666
-20.765769958496094,-19.746767044067383,-2.507053852081299
-23.52668571472168,-24.24494171142578,-2.955671548843384
-22.443099975585938,-25.069196701049805,-2.9437804222106934
-20.81879997253418,-25.2246150970459,-2.861433744430542
-20.30304527282715,-26.71738624572754,-2.9358062744140625
-21.83074378967285,-31.25917625427246,-3.335737943649292
-20.17572593688965,-31.514671325683594,-3.273801326751709
-20.610013961791992,-35.23430252075195,-3.5712413787841797
-24.164506912231445,-45.40304946899414,-4.49981164932251
-23.033796310424805,-47.81654357910156,-4.6434807777404785
-21.39451026916504,-49.3962516784668,-4.709554195404053
-21.373979568481445,-55.34537124633789,-5.190635681152344
-20.349424362182617,-59.7284049987793,-5.520514488220215
-25.959423065185547,-87.57205963134766,-7.991097927093506
-22.760467529296875,-89.8861312866211,-8.112213134765625
-19.68659782409668,-93.36154174804688,-8.347695350646973
8.139928817749023,-12.005617141723633,-1.2690186500549316
8.476306915283203,-11.480236053466797,-1.24849534034729
-12.410221099853516,39.12915802001953,-3.5914151668548584
-21.57037353515625,29.672853469848633,-3.2094860076904297
-21.598461151123047,27.33155632019043,-3.0477073192596436
-21.872486114501953,25.50156593322754,-2.939326286315918
-23.474836349487305,25.242799758911133,-3.01584529876709
-25.172607421875,24.976619720458984,-3.1024482250213623
-26.981388092041016,24.701255798339844,-3.2003958225250244
-28.919876098632812,24.414627075195312,-3.3112294673919678
-31.010358810424805,24.114274978637695,-3.4368035793304443
-31.71131134033203,22.675546646118164,-3.4106993675231934
-31.727609634399414,20.813312530517578,-3.3197715282440186
-11.72718620300293,7.036012172698975,-1.1964937448501587
-11.836736679077148,6.469799041748047,-1.180179238319397
-31.804988861083984,15.759187698364258,-3.105428695678711
-31.81560707092285,14.20241928100586,-3.048251152038574
-17.337852478027344,6.918382167816162,-1.6331722736358643
-37.91628646850586,13.3906888961792,-3.5180411338806152
-23.23672103881836,7.1703715324401855,-2.127539873123169
-67.77625274658203,17.9666690826416,-6.134460926055908
-72.90852355957031,16.22307777404785,-6.534671783447266
-77.79210662841797,14.056495666503906,-6.916141510009766
-45.41630554199219,6.334508419036865,-4.011875629425049
-43.144248962402344,4.259210586547852,-3.792980909347534
-94.78529357910156,-17.52927589416504,-8.433259963989258
-71.41822052001953,-16.199575424194336,-6.407009124755859
-62.13328170776367,-16.744159698486328,-5.629889011383057
-61.727989196777344,-19.325992584228516,-5.658995151519775
-66.75216674804688,-23.883270263671875,-6.202608585357666
-63.71673583984375,-25.728870391845703,-6.011814117431641
-56.9233283996582,-25.691280364990234,-5.463881492614746
-56.73347473144531,-28.401845932006836,-5.550776958465576
-56.75666046142578,-31.32569694519043,-5.671679496765137
-26.74258804321289,-16.194536209106445,-2.7352335453033447
-24.74741554260254,-16.380033493041992,-2.5964248180389404
-22.947439193725586,-16.551651000976562,-2.4753921031951904
-21.30990982055664,-16.711877822875977,-2.3693110942840576
-20.78291130065918,-17.691932678222656,-2.3878705501556396
-20.770675659179688,-19.172733306884766,-2.473029851913452
-20.263938903808594,-20.271974563598633,-2.5077085494995117
-23.06805992126465,-25.01051902770996,-2.976752996444702
-21.407470703125,-25.167787551879883,-2.890700578689575
-20.893178939819336,-26.663400650024414,-2.9636104106903076
-22.4770450592041,-31.188499450683594,-3.3634140491485596
-20.760168075561523,-31.39207649230957,-3.292699098587036
-20.622665405273438,-34.085426330566406,-3.485421895980835
-25.040040969848633,-45.41062927246094,-4.536884784698486
-23.059782028198242,-46.10823059082031,-4.510313034057617
-22.22655487060547,-49.298828125,-4.7311835289001465
-19.995454788208008,-49.57465362548828,-4.676731109619141
-20.38230323791504,-57.03865051269531,-5.299276828765869
-20.285921096801758,-64.88449096679688,-5.9476318359375
-24.07281494140625,-89.46956634521484,-8.10595703125
-20.514589309692383,-90.60848999023438,-8.12785816192627
42.86634826660156,-78.35171508789062,-7.813732624053955
8.218965530395508,-11.484407424926758,-1.2355519533157349
-21.296279907226562,30.91375732421875,-2.9700963497161865
-21.628305435180664,28.842933654785156,-2.8523762226104736
-21.652814865112305,26.580047607421875,-2.712489366531372
-22.108713150024414,25.01622772216797,-2.641474485397339
-23.70963478088379,24.748659133911133,-2.7116801738739014
-25.407087326049805,24.472074508666992,-2.7910399436950684
-27.216869354248047,24.18450927734375,-2.8807106018066406
-29.157703399658203,23.883668899536133,-2.9820969104766846
-31.25225830078125,23.56681251525879,-3.0969126224517822
-31.768394470214844,22.011516571044922,-3.057896375656128
-31.820507049560547,20.20550537109375,-2.982313871383667
-11.746932029724121,6.812917232513428,-1.0744186639785767
-31.84511375427246,16.79740333557129,-2.848604917526245
-31.855575561523438,15.199894905090332,-2.7926228046417236
-31.86495590209961,13.661230087280273,-2.743079900741577
-17.410032272338867,6.649523735046387,-1.4745327234268188
-39.67326354980469,13.35261344909668,-3.311958074569702
-22.840707778930664,6.678742408752441,-1.8828262090682983
-67.87326049804688,16.918846130371094,-5.534446716308594
-77.80663299560547,16.105464935302734,-6.2865495681762695
-39.69593811035156,6.566252708435059,-3.183414936065674
-98.29380798339844,12.226052284240723,-7.836920261383057
-89.82096099853516,3.8992300033569336,-7.113316059112549
-81.38723754882812,-16.303714752197266,-6.56727933883667
-56.04804229736328,-13.590494155883789,-4.563019275665283
-72.73615264892578,-20.763702392578125,-5.984767913818359
-66.8518295288086,-22.024316787719727,-5.568957805633545
-66.84210205078125,-25.040071487426758,-5.647446632385254
-61.1641845703125,-25.760000228881836,-5.25098180770874
-56.825347900390625,-26.66877555847168,-4.966526031494141
-56.812255859375,-29.503347396850586,-5.064956188201904
-27.69068717956543,-15.823759078979492,-2.523372173309326
-25.605186462402344,-16.02970314025879,-2.390122652053833
-23.731008529663086,-16.218673706054688,-2.2742042541503906
-22.032014846801758,-16.39371681213379,-2.172792434692383
-20.49979019165039,-16.573558807373047,-2.085711717605591
-20.814998626708984,-18.25869369506836,-2.190697193145752
-20.803524017333984,-19.782672882080078,-2.2713611125946045
-23.271974563598633,-23.982460021972656,-2.6440045833587646
-22.23164939880371,-24.83300018310547,-2.6371068954467773
-20.62808609008789,-24.993539810180664,-2.564014434814453
-20.55086326599121,-27.043502807617188,-2.687384843826294
-21.61492156982422,-30.95013427734375,-2.986830949783325
-20.69285011291504,-32.32241439819336,-3.0365262031555176
-20.66343116760254,-35.325626373291016,-3.2380008697509766
-24.183168411254883,-45.43811798095703,-4.072519779205322
-22.655519485473633,-47.03125762939453,-4.130338668823242
-21.22300910949707,-49.000267028808594,-4.224913597106934
-20.04167938232422,-51.89551544189453,-4.401522159576416
-20.392040252685547,-59.853450775146484,-5.002899646759033
-24.76152992248535,-83.53103637695312,-6.893228054046631
-22.35091781616211,-88.26881408691406,-7.204228401184082
-19.807514190673828,-93.93476867675781,-7.595541954040527
16.206649780273438,-49.81391906738281,-4.144613742828369
8.120080947875977,-11.976343154907227,-1.1448301076889038
8.483376502990723,-11.489811897277832,-1.1300125122070312
-12.386866569519043,39.055519104003906,-3.241762399673462
-21.618410110473633,29.73893165588379,-2.9089412689208984
-21.644128799438477,27.389347076416016,-2.7620038986206055
-21.539289474487305,25.11308479309082,-2.617668867111206
-23.108060836791992,24.848405838012695,-2.6847479343414307
-24.76819610595703,24.575359344482422,-2.7606053352355957
-26.534473419189453,24.292097091674805,-2.8463187217712402
-28.424510955810547,23.996450424194336,-2.9431979656219482
-30.459421157836914,23.685855865478516,-3.0528337955474854
-31.76268768310547,22.712284088134766,-3.089442729949951
-31.815366744995117,20.87088966369629,-3.010521411895752
-11.745226860046387,7.046838760375977,-1.0837061405181885
-11.820039749145508,6.460672378540039,-1.0657813549041748
-31.851844787597656,15.782411575317383,-2.8125126361846924
-31.861614227294922,14.2229585647583,-2.7606546878814697
-17.38453483581543,6.937006950378418,-1.4809273481369019
-37.83974075317383,13.36365032196045,-3.175096273422241
-67.85602569580078,20.938974380493164,-5.618556499481201
-67.86892700195312,17.991235733032227,-5.555247783660889
-72.68496704101562,16.173336029052734,-5.891473293304443
-77.84745788574219,14.066498756408691,-6.259023666381836
-45.44203186035156,6.338100433349609,-3.6301701068878174
-67.37806701660156,6.651579856872559,-5.356855869293213
-98.60208129882812,-10.142956733703613,-7.842550277709961
-94.24102020263672,-13.539210319519043,-7.532890796661377
-94.91278076171875,-17.55284881591797,-7.636823654174805
-94.90645599365234,-21.527345657348633,-7.699732303619385
-86.78453063964844,-23.38736343383789,-7.111340522766113
-66.85499572753906,-20.931163787841797,-5.542742729187012
-66.84589385986328,-23.916807174682617,-5.617167949676514
-63.8343620300293,-25.776371002197266,-5.4467854499816895
-57.01885223388672,-25.734378814697266,-4.949521064758301
-56.817298889160156,-28.443811416625977,-5.0272297859191895
-28.522981643676758,-15.742684364318848,-2.5776476860046387
-26.348390579223633,-15.95582389831543,-2.4371302127838135
-24.400890350341797,-16.15066909790039,-2.3151824474334717
-22.640899658203125,-16.330543518066406,-2.2087018489837646
-21.03727912902832,-16.498075485229492,-2.1152596473693848
-20.81889533996582,-17.722572326660156,-2.1631951332092285
-20.80792236328125,-19.207120895385742,-2.2404794692993164
-20.52633285522461,-20.534467697143555,-2.2971951961517334
-22.848297119140625,-24.772258758544922,-2.6663618087768555
-21.209373474121094,-24.93489646911621,-2.5899972915649414
-20.937686920166016,-26.720218658447266,-2.685832977294922
-22.253002166748047,-30.877628326416016,-3.0113649368286133
-20.577287673950195,-31.115535736083984,-2.951500654220581
-20.674829483032227,-34.17162322998047,-3.1599924564361572
-25.059537887573242,-45.44599151611328,-4.1060991287231445
-22.662883758544922,-45.31462860107422,-4.008669853210449
-22.068086624145508,-48.94730758666992,-4.248110294342041
-20.685741424560547,-51.286094665527344,-4.375381946563721
-20.46068572998047,-57.25798416137695,-4.810796737670898
-20.373516082763672,-65.16468811035156,-5.401933670043945
-23.64002227783203,-87.8609619140625,-7.198777675628662
-20.14475440979004,-88.97508239746094,-7.217873573303223
15.399276733398438,-49.83342361450195,-4.126771450042725
8.225753784179688,-11.493887901306152,-1.1182864904403687
-35.43488693237305,56.13820266723633,-4.697620391845703
-21.524398803710938,31.244897842407227,-2.684804916381836
-21.675575256347656,28.905961990356445,-2.556640625
-21.697813034057617,26.63528823852539,-2.4309964179992676
-21.77442741394043,24.637985229492188,-2.3267223834991455
-23.341768264770508,24.364667892456055,-2.387603998184204
-25.00152587890625,24.08144187927246,-2.456361770629883
-26.768695831298828,23.786264419555664,-2.533982992172241
-28.660959243774414,23.47677230834961,-2.6216461658477783
-30.699689865112305,23.150131225585938,-2.7207987308502197
-31.85712432861328,22.073015213012695,-2.7425146102905273
-31.870227813720703,20.237079620361328,-2.6714446544647217
-11.764852523803711,6.823311805725098,-0.9623882174491882
-12.22550106048584,6.448609828948975,-0.9780715107917786
-31.84258270263672,15.193690299987793,-2.496605634689331
-31.91074562072754,13.680862426757812,-2.456841230392456
-17.414247512817383,6.651131629943848,-1.319089651107788
-39.58998107910156,13.3245849609375,-2.9558804035186768
-22.852481842041016,6.68218469619751,-1.6848019361495972
-67.9657211303711,16.941896438598633,-4.956558704376221
-76.92608642578125,15.923197746276855,-5.558839321136475
-39.7072868347168,6.5681304931640625,-2.8479483127593994
-51.06486892700195,6.351586818695068,-3.641299247741699
-89.93985748291016,3.9043924808502197,-6.37032413482666
-96.236328125,-3.5603551864624023,-6.8145341873168945
-93.01176452636719,-7.191178321838379,-6.601342678070068
-88.88777923583984,-10.478471755981445,-6.333434581756592
-82.22698211669922,-13.060993194580078,-5.891493797302246
-81.6968002319336,-16.365734100341797,-5.8958845138549805
-55.89531326293945,-13.553459167480469,-4.069883823394775
-72.92069244384766,-20.816381454467773,-5.366147518157959
-66.94489288330078,-22.054973602294922,-4.987616539001465
-66.93646240234375,-25.075429916381836,-5.058008670806885
-61.2730712890625,-25.805870056152344,-4.70465612411499
-56.90830993652344,-26.707717895507812,-4.448370933532715
-56.896846771240234,-29.547269821166992,-4.536664962768555
-27.27496337890625,-15.586196899414062,-2.2229342460632324
-25.24078941345215,-15.801576614379883,-2.107219934463501
-23.409448623657227,-15.998903274536133,-2.0064096450805664
-21.746604919433594,-16.181350708007812,-1.9180957078933716
-20.364845275878906,-16.46445655822754,-1.8531084060668945
-20.85151481628418,-18.290727615356445,-1.9627207517623901
-20.841365814208984,-19.818653106689453,-2.035121202468872
-20.335222244262695,-20.956045150756836,-2.0662968158721924
-22.02440071105957,-24.601511001586914,-2.336550712585449
-20.441076278686523,-24.766950607299805,-2.2723746299743652
-20.804475784301758,-27.377227783203125,-2.433164119720459
-21.403596878051758,-30.647546768188477,-2.645200490951538
-20.743200302124023,-32.40107345581055,-2.7223713397979736
-20.71705436706543,-35.41728973388672,-2.903470516204834
-24.201841354370117,-45.47319412231445,-3.6451327800750732
-22.289939880371094,-46.27233123779297,-3.6344223022460938
-21.463268280029297,-49.554954528808594,-3.8213918209075928
-21.405176162719727,-55.426170349121094,-4.204385280609131
-20.438735961914062,-59.99055099487305,-4.4846649169921875
-23.87841796875,-80.55194854736328,-5.945187091827393
-19.929759979248047,-94.51464080810547,-6.835121154785156
16.04719352722168,-49.32382583618164,-3.670328140258789
18.45187759399414,-49.81724166870117,-3.759209394454956
8.100357055664062,-11.947250366210938,-1.0214096307754517
8.490450859069824,-11.499391555786133,-1.0114854574203491
2.1876425743103027,16.12139892578125,-1.1512380838394165
-12.363627433776855,38.98225021362305,-2.89387845993042
-34.39854049682617,56.330848693847656,-4.670520782470703
-37.23645782470703,55.8069953918457,-4.747368812561035
-21.666597366333008,29.805227279663086,-2.6074564456939697
-21.689931869506836,27.447307586669922,-2.475466251373291
-21.26885986328125,24.797780990600586,-2.311758279800415
-22.753040313720703,24.466638565063477,-2.3642547130584717
-24.377077102661133,24.187286376953125,-2.4300003051757812
-26.1026611328125,23.896780014038086,-2.5042216777801514
-27.94647789001465,23.59287452697754,-2.5880239009857178
-29.92841148376465,23.272924423217773,-2.682749032974243
-31.8519287109375,22.7761173248291,-2.7708539962768555
-31.865550994873047,20.90381622314453,-2.696751594543457
-11.763298034667969,7.057679176330566,-0.9707199335098267
-11.803410530090332,6.4515838623046875,-0.9518566131591797
-31.898778915405273,15.805659294128418,-2.519120931625366
-31.907691955566406,14.243528366088867,-2.4726035594940186
-17.431413650512695,6.955715179443359,-1.3280606269836426
-37.76358413696289,13.33675479888916,-2.833979606628418
-67.94988250732422,20.96792984008789,-5.031992435455322
-67.96173095703125,18.01584243774414,-4.975210666656494
-72.29071044921875,16.085607528686523,-5.240544319152832
-77.95204162597656,14.085397720336914,-5.605371475219727
-45.46775817871094,6.34168815612793,-3.2485358715057373
-67.52951049804688,6.666527271270752,-4.801753520965576
-97.51184844970703,-2.1596291065216064,-6.901826858520508
-94.16534423828125,-5.8764567375183105,-6.676291465759277
-89.92366790771484,-9.250258445739746,-6.3967604637146
-88.45240020751953,-12.70757007598877,-6.323345184326172
-85.57640075683594,-15.826215744018555,-6.158247470855713
-83.41243743896484,-18.92018699645996,-6.052374362945557
-81.2894287109375,-21.906503677368164,-5.957416534423828
-66.94762420654297,-20.960155487060547,-4.964104652404785
-66.93975830078125,-23.950393676757812,-5.030853748321533
-63.9522819519043,-25.82398223876953,-4.880414962768555
-57.11452865600586,-25.777568817138672,-4.434105396270752
-56.90126419067383,-28.485841751098633,-4.502821922302246
-28.085691452026367,-15.501336097717285,-2.2700142860412598
-25.96614646911621,-15.724347114562988,-2.1480634212493896
-24.064369201660156,-15.92792797088623,-2.042062282562256
-22.342811584472656,-16.115543365478516,-1.9493780136108398
-20.78799057006836,-16.302576065063477,-1.8693972826004028
-20.85495948791504,-17.753267288208008,-1.9380371570587158
-20.845258712768555,-19.241579055786133,-2.007401704788208
-20.908761978149414,-20.91705322265625,-2.0928096771240234
-22.632972717285156,-24.538799285888672,-2.3622279167175293
-21.015161514282227,-24.706571578979492,-2.2951905727386475
-20.982328414916992,-26.77718162536621,-2.4072351455688477
-22.033672332763672,-30.573293685913086,-2.666715145111084
-20.369234085083008,-30.800933837890625,-2.6130290031433105
-20.72718620300293,-34.258174896240234,-2.833343982696533
-25.079050064086914,-45.48136520385742,-3.6752114295959473
-22.735280990600586,-45.45938491821289,-3.5966687202453613
-22.175378799438477,-49.185302734375,-3.8178346157073975
-20.75769805908203,-51.46449661254883,-3.9267995357513428
-20.539567947387695,-57.4787483215332,-4.319198131561279
-20.461755752563477,-65.4468994140625,-4.852222442626953
-24.104045867919922,-89.58556365966797,-6.564711093902588
-19.99244499206543,-88.3022689819336,-6.4066009521484375
15.239975929260254,-49.31791687011719,-3.6526613235473633
17.55026626586914,-49.63151168823242,-3.725135087966919
8.232536315917969,-11.503371238708496,-1.0009822845458984
-29.603221893310547,56.49131774902344,-3.9806361198425293
-32.22929763793945,55.91695785522461,-4.028208255767822
-34.96435546875,55.39274215698242,-4.088405132293701
-21.70022201538086,31.5001220703125,-2.3874142169952393
-21.72299575805664,28.96919822692871,-2.259960889816284
-21.742942810058594,26.690690994262695,-2.148665428161621
-21.45047378540039,24.27142906188965,-2.0216994285583496
-22.985549926757812,23.992843627929688,-2.0737924575805664
-24.609169006347656,23.703519821166992,-2.132577896118164
-26.33553695678711,23.4013729095459,-2.1988754272460938
-28.24054718017578,23.13240623474121,-2.2784438133239746
-31.055950164794922,23.418794631958008,-2.427669048309326
-31.90825080871582,22.10843276977539,-2.42285418510437
-31.920047760009766,20.268712997436523,-2.3599700927734375
-11.782805442810059,6.833722114562988,-0.8501477837562561
-12.207877159118652,6.43931245803833,-0.8614425659179688
-31.88918113708496,15.215927124023438,-2.2052958011627197
-31.95661163330078,13.700522422790527,-2.1701161861419678
-17.418455123901367,6.652740955352783,-1.1637543439865112
-39.507144927978516,13.296708106994629,-2.601712703704834
-22.912778854370117,6.699814796447754,-1.4899622201919556
-68.0583267211914,16.96497917175293,-4.377779006958008
-75.95446014404297,15.722079277038574,-4.841118335723877
-39.71974563598633,6.570188999176025,-2.512756586074829
-51.12912368774414,6.35958194732666,-3.2157647609710693
-73.14451599121094,6.126628398895264,-4.581232070922852
-93.51290893554688,4.059530735015869,-5.842013359069824
-91.25814819335938,0.2922172546386719,-5.695817470550537
-88.26507568359375,-3.2654805183410645,-5.512749195098877
-85.5318374633789,-6.612897872924805,-5.354320049285889
-81.91214752197266,-9.656152725219727,-5.147870063781738
-80.84390258789062,-12.841300010681152,-5.109062194824219
-80.07255554199219,-16.040348052978516,-5.096950531005859
-55.75546646118164,-13.519549369812012,-3.5807669162750244
-73.10594940185547,-20.869266510009766,-4.745112419128418
-67.0381088256836,-22.08568572998047,-4.405337333679199
-67.03099060058594,-25.110830307006836,-4.467599868774414
-61.38224411010742,-25.85184669494629,-4.157029151916504
-56.99141311645508,-26.74671173095703,-3.9293153285980225
-29.09330940246582,-15.108532905578613,-2.04608416557312
-26.872007369995117,-15.35593032836914,-1.9317220449447632
-24.887027740478516,-15.580109596252441,-1.8325761556625366
-23.096834182739258,-15.785253524780273,-1.7460746765136719
-21.468826293945312,-15.974655151367188,-1.670202374458313
-20.895910263061523,-16.89381217956543,-1.6771150827407837
-20.88811492919922,-18.32283592224121,-1.734211802482605
-20.87929916381836,-19.85472297668457,-1.7982990741729736
-20.57061767578125,-21.198627471923828,-1.8436269760131836
-22.492429733276367,-25.12429428100586,-2.104696035385132
-20.410245895385742,-24.729604721069336,-2.0012753009796143
-22.494524002075195,-29.601211547851562,-2.320456027984619
-21.196613311767578,-30.351163864135742,-2.3105759620666504
-20.793739318847656,-32.480018615722656,-2.4070546627044678
-20.770893096923828,-35.50933837890625,-2.567596197128296
-19.116933822631836,-35.91909408569336,-2.5395989418029785
-21.883560180664062,-45.4287109375,-3.147214889526367
-21.479162216186523,-49.591705322265625,-3.3730688095092773
-21.42078971862793,-55.46658706665039,-3.711087942123413
-20.521081924438477,-60.23222732543945,-3.9715335369110107
-22.80695343017578,-76.93743896484375,-5.008517265319824
-21.46910285949707,-84.78631591796875,-5.458868980407715
15.891031265258789,-48.84383010864258,-3.205824613571167
18.26800537109375,-49.32082748413086,-3.282686948776245
20.498035430908203,-49.179344177246094,-3.325432538986206
8.080750465393066,-11.918329238891602,-0.8987294435501099
8.49752426147461,-11.508975982666016,-0.892902672290802
50.921207427978516,40.547637939453125,-4.062719345092773
2.173029899597168,16.013731002807617,-1.0086414813995361
-12.340498924255371,38.90934371948242,-2.5477054119110107
-31.268056869506836,56.15869903564453,-4.0117692947387695
-33.944366455078125,55.58708953857422,-4.065133094787598
-36.736839294433594,55.05820083618164,-4.131130695343018
-21.714942932128906,29.871723175048828,-2.3049793243408203
-21.735876083374023,27.505449295043945,-2.1880524158477783
-21.754287719726562,25.363744735717773,-2.0855722427368164
-22.409149169921875,24.096853256225586,-2.053818941116333
-23.998558044433594,23.81171417236328,-2.1100449562072754
-25.685178756713867,23.514568328857422,-2.17346453666687
-27.484773635864258,23.203105926513672,-2.244994878768921
-30.12565040588379,23.42632293701172,-2.3818531036376953
-31.903575897216797,22.81304359436035,-2.447932004928589
-31.915834426879883,20.93680763244629,-2.3823623657226562
-11.781404495239258,7.068540096282959,-0.8575186133384705
-11.786850929260254,6.442531585693359,-0.8383857011795044
-31.94579315185547,15.828958511352539,-2.2252073287963867
-31.9538516998291,14.264131546020508,-2.1840593814849854
-17.478492736816406,6.9745025634765625,-1.1745495796203613
-37.68782043457031,13.3100004196167,-2.4946322441101074
-68.04386901855469,20.996936798095703,-4.444492340087891
-68.05467987060547,18.040477752685547,-4.394278049468994
-29.21116828918457,6.499858379364014,-1.8677771091461182
-78.05679321289062,14.104320526123047,-4.950735569000244
-45.49348831176758,6.34527587890625,-2.8669185638427734
-62.13359832763672,6.133846282958984,-3.8968586921691895
-92.9446029663086,5.417331218719482,-5.810894966125488
-91.40643310546875,1.6490041017532349,-5.705970764160156
-89.339111328125,-1.9786550998687744,-5.577382564544678
-86.5126953125,-5.398916244506836,-5.41011381149292
-82.80176544189453,-8.517642974853516,-5.19526481628418
-81.5577392578125,-11.717041969299316,-5.142618179321289
-80.1563720703125,-14.823850631713867,-5.087725639343262
-72.0830307006836,-16.350372314453125,-4.613280296325684
-75.33206939697266,-20.301071166992188,-4.869518280029297
-67.0404052734375,-20.98920440673828,-4.384543418884277
-67.03376770019531,-23.98402976989746,-4.443583965301514
-62.41630935668945,-25.20375633239746,-4.201269626617432
-57.21042251586914,-25.820850372314453,-3.9175682067871094
-56.98537826538086,-28.5279598236084,-3.9774818420410156
-27.662105560302734,-15.267544746398926,-1.9720169305801392
-25.59527587890625,-15.499752044677734,-1.8675894737243652
-23.73737144470215,-15.711498260498047,-1.7766790390014648
-22.052824020385742,-15.90637493133545,-1.6970884799957275
-20.52603530883789,-16.09714126586914,-1.6280814409255981
-20.891103744506836,-17.784034729003906,-1.7123647928237915
-20.882680892944336,-19.27613067626953,-1.7737623453140259
-20.87314796447754,-20.881425857543945,-1.8427703380584717
-22.726057052612305,-24.639719009399414,-2.0921192169189453
-20.871051788330078,-24.537147521972656,-2.0105388164520264
-21.032352447509766,-26.841014862060547,-2.1283092498779297
-21.81887435913086,-30.27524185180664,-2.3291854858398438
-20.801319122314453,-31.454307556152344,-2.353653907775879
-20.779747009277344,-34.34503936767578,-2.505424737930298
-19.757373809814453,-35.830413818359375,-2.5537757873535156
-22.752588272094727,-45.49399948120117,-3.174773931503296
-21.795217514038086,-48.34210968017578,-3.3097052574157715
-20.83342933654785,-51.65228271484375,-3.476181983947754
-20.618967056274414,-57.70094680786133,-3.824378728866577
-24.059236526489258,-76.9534683227539,-5.03224515914917
-21.763418197631836,-80.88638305664062,-5.227991580963135
-20.350910186767578,-89.88555908203125,-5.752117156982422
15.084113121032715,-48.813533782958984,-3.1887989044189453
17.3769474029541,-49.14137649536133,-3.253223419189453
19.829710006713867,-49.637081146240234,-3.3361222743988037
20.560144424438477,-46.00873947143555,-3.145275592803955
8.239326477050781,-11.512859344482422,-0.8836221098899841
-26.6457576751709,56.23300552368164,-3.3648815155029297
-29.2053165435791,55.731990814208984,-3.4024159908294678
-29.716665267944336,51.557621002197266,-3.2179083824157715
-34.506622314453125,54.66757583618164,-3.495774507522583
-21.750438690185547,31.573026657104492,-2.0732107162475586
-21.77057456970215,29.03265953063965,-1.9622889757156372
-21.788217544555664,26.746261596679688,-1.8654512166976929
-21.803773880004883,24.671192169189453,-1.780423641204834
-22.640403747558594,23.632564544677734,-1.7697279453277588
-24.22932243347168,23.3376522064209,-1.8191192150115967
-26.057689666748047,23.15447998046875,-1.8849778175354004
-28.583911895751953,23.413686752319336,-1.9980155229568481
-31.02117347717285,23.3925724029541,-2.100944995880127
-31.959487915039062,22.14393424987793,-2.102501153945923
-31.910249710083008,20.262487411499023,-2.044020175933838
-11.800793647766113,6.8441572189331055,-0.7376811504364014
-12.19031810760498,6.430051803588867,-0.7452688813209534
-31.935867309570312,15.238200187683105,-1.913437843322754
-32.002567291259766,13.720226287841797,-1.8828635215759277
-17.42266082763672,6.654346466064453,-1.0085054636001587
-39.42475128173828,13.268973350524902,-2.2493896484375
-22.981060028076172,6.719779968261719,-1.29473078250885
-68.15109252929688,16.98810386657715,-3.798018217086792
-75.23374938964844,15.572896003723145,-4.154485702514648
-39.80216598510742,6.5838236808776855,-2.1815364360809326
-51.193477630615234,6.367585182189941,-2.789604663848877
-73.23651885986328,6.134333610534668,-3.974112033843994
-86.86012268066406,3.770693302154541,-4.701358795166016
-84.06446838378906,0.26915282011032104,-4.545786380767822
-81.50911712646484,-3.0155351161956787,-4.410600185394287
-79.15918731689453,-6.12019681930542,-4.293285369873047
-75.95742797851562,-8.954185485839844,-4.1358184814453125
-75.14201354980469,-11.935613632202148,-4.114226818084717
-73.96814727783203,-14.817499160766602,-4.0792765617370605
-55.874149322509766,-13.548327445983887,-3.1089348793029785
-62.59613800048828,-17.869070053100586,-3.5200858116149902
-59.41693115234375,-19.574888229370117,-3.382826089859009
-66.49790954589844,-24.91114044189453,-3.8398895263671875
-61.49168014526367,-25.89794158935547,-3.6080162525177
-57.074676513671875,-26.78579330444336,-3.40928053855896
-28.645523071289062,-14.87598991394043,-1.7454177141189575
-26.48118782043457,-15.132597923278809,-1.6492780447006226
-24.543399810791016,-15.364984512329102,-1.5657984018325806
-22.79277229309082,-15.577447891235352,-1.492861032485962
-21.198326110839844,-15.773381233215332,-1.4288097620010376
-20.93140411376953,-16.922502517700195,-1.4554983377456665
-20.9248046875,-18.355022430419922,-1.5051374435424805
-20.917333602905273,-19.890888214111328,-1.5608617067337036
-20.959774017333984,-21.599668502807617,-1.6275120973587036
-22.447410583496094,-25.074016571044922,-1.8198307752609253
-21.085084915161133,-25.547250747680664,-1.7912068367004395
-22.236021041870117,-29.26105308532715,-1.9873090982437134
-20.9937801361084,-30.060752868652344,-1.982696294784546
-20.84446907043457,-32.559268951416016,-2.0905299186706543
-20.67449378967285,-35.344547271728516,-2.2142083644866943
-19.35603904724121,-36.36835479736328,-2.2277956008911133
-21.92758560180664,-45.52009963989258,-2.7321927547454834
-21.35468101501465,-49.30424118041992,-2.905444622039795
-21.188770294189453,-54.86581039428711,-3.1804134845733643
-20.60401153564453,-60.47559356689453,-3.4547884464263916
-22.990371704101562,-77.55619049072266,-4.374213695526123
-21.133888244628906,-83.46239471435547,-4.655645370483398
-20.54731559753418,-97.44330596923828,-5.385091304779053
15.738035202026367,-48.37356948852539,-2.750744581222534
18.087970733642578,-48.8347053527832,-2.816042184829712
19.801910400390625,-47.50917434692383,-2.7832655906677246
20.9323787689209,-45.03581237792969,-2.685497522354126
8.061259269714355,-11.8895845413208,-0.7767704725265503
50.84622573852539,40.4879150390625,-3.5147032737731934
2.1715312004089355,16.002676010131836,-0.8732702732086182
-12.320257186889648,38.84551239013672,-2.2036781311035156
-25.717771530151367,56.4228401184082,-3.3530402183532715
-28.27035903930664,55.95140075683594,-3.389829397201538
-28.90029525756836,51.906105041503906,-3.2125449180603027
