-27.90877342224121,-21.745405197143555,-4.2844648361206055
-28.385093688964844,-24.00983428955078,-4.502138614654541
-61.48911666870117,-71.83065795898438,-11.450328826904297
5.932130336761475,12.795050621032715,-1.7078800201416016
5.424068927764893,13.048802375793457,-1.7112600803375244
-0.13348020613193512,16.959775924682617,-2.053852081298828
-24.389503479003906,85.25588989257812,-9.991376876831055
-24.836538314819336,75.2453842163086,-8.92802619934082
-22.94451904296875,61.14356231689453,-7.358318328857422
-23.15869140625,54.901336669921875,-6.713721752166748
-16.062633514404297,34.175968170166016,-4.254810810089111
-16.10359001159668,30.96682357788086,-3.932704448699951
-16.14362335205078,28.213542938232422,-3.662513494491577
-16.183053970336914,25.81788444519043,-3.433206081390381
-17.105911254882812,24.9990177154541,-3.413011312484741
-18.650611877441406,25.03571128845215,-3.517547607421875
-20.34168815612793,25.131656646728516,-3.642986297607422
-24.051210403442383,27.38739776611328,-4.106819152832031
-24.11178207397461,25.3275089263916,-3.9401092529296875
-26.017868041992188,25.21867561340332,-4.082605361938477
-28.257652282714844,25.268924713134766,-4.2712016105651855
-30.722530364990234,25.327402114868164,-4.486238479614258
-33.446937561035156,25.387290954589844,-4.731206893920898
-34.142452239990234,23.81580924987793,-4.690362453460693
-34.191043853759766,21.862016677856445,-4.572599411010742
-14.384393692016602,8.403182029724121,-1.8770253658294678
-34.33612823486328,18.249677658081055,-4.381253719329834
-34.3744010925293,16.534738540649414,-4.297845363616943
-20.049190521240234,8.670327186584473,-2.461185932159424
-40.37108612060547,15.564903259277344,-4.875094890594482
-25.624130249023438,8.714031219482422,-3.0495264530181885
-52.977333068847656,15.67196273803711,-6.224836349487305
-55.65505599975586,14.059338569641113,-6.467829704284668
-42.258811950683594,8.886059761047363,-4.8655524253845215
-53.60312271118164,9.0400390625,-6.124910354614258
-63.90723419189453,8.153284072875977,-7.258996486663818
-64.55587768554688,5.611870765686035,-7.3011345863342285
-67.51842498779297,3.1439578533172607,-7.615743160247803
-69.63555908203125,0.4421352744102478,-7.8462042808532715
-72.01567840576172,-2.4374313354492188,-8.118866920471191
-74.70844268798828,-5.539597034454346,-8.440733909606934
-78.11247253417969,-8.959137916564941,-8.858875274658203
-81.2759017944336,-12.647856712341309,-9.267815589904785
-85.32931518554688,-16.814346313476562,-9.799186706542969
-73.97488403320312,-17.691152572631836,-8.57000732421875
-65.21736907958984,-18.395570755004883,-7.634955406188965
-69.75576782226562,-22.737985610961914,-8.266605377197266
-62.06308364868164,-23.02735137939453,-7.458646774291992
-59.23042678833008,-24.72646141052246,-7.231842517852783
-30.033748626708984,-13.98002815246582,-3.7326338291168213
-27.91796112060547,-14.386799812316895,-3.538705825805664
-26.01910972595215,-14.76013469696045,-3.370514154434204
-24.29962158203125,-15.106157302856445,-3.223839282989502
-23.6977596282959,-16.086782455444336,-3.227186918258667
-23.69403076171875,-17.514842987060547,-3.3198904991149902
-27.86362648010254,-22.382429122924805,-4.026943206787109
-28.207178115844727,-24.586429595947266,-4.2160420417785645
-28.43063735961914,-26.865663528442383,-4.407319068908691
-59.83827590942383,-72.0386734008789,-10.551739692687988
49.58301544189453,39.227718353271484,-7.123653411865234
5.710476875305176,12.811674118041992,-1.5804330110549927
-14.757381439208984,79.54657745361328,-9.115680694580078
-24.31755828857422,90.03468322753906,-10.507978439331055
-24.472034454345703,78.0108642578125,-9.21205997467041
-14.409812927246094,40.20320510864258,-4.81199312210083
-23.084388732910156,57.07518005371094,-6.9369096755981445
-16.04719352722168,35.50193405151367,-4.389765739440918
-16.08859634399414,32.09228515625,-4.044876575469971
-16.12892723083496,29.183923721313477,-3.7570037841796875
-16.168550491333008,26.665786743164062,-3.5136735439300537
-16.20773696899414,24.457162857055664,-3.3058390617370605
-18.06939697265625,25.021957397460938,-3.4775655269622803
-19.675474166870117,25.059818267822266,-3.5898666381835938
-21.39116668701172,25.09978675842285,-3.7157857418060303
-24.09015655517578,26.068456649780273,-3.9993362426757812
-25.23944664001465,25.201080322265625,-4.018690586090088
-27.407020568847656,25.24990463256836,-4.198791027069092
-29.785839080810547,25.306673049926758,-4.40380334854126
-32.4071044921875,25.364503860473633,-4.636839866638184
-34.182193756103516,24.60532569885254,-4.745449542999268
-34.23240280151367,22.610858917236328,-4.622487545013428
-34.27861022949219,20.71323585510254,-4.512635231018066
-14.534822463989258,8.00403118133545,-1.8695744276046753
-34.30155563354492,17.130868911743164,-4.320038318634033
-34.454559326171875,15.510665893554688,-4.2573347091674805
-20.300201416015625,8.174598693847656,-2.4657671451568604
-43.83557891845703,15.636481285095215,-5.243904113769531
-51.820068359375,16.169384002685547,-6.1163530349731445
-54.64642333984375,14.67028522491455,-6.375210285186768
-58.284942626953125,13.161802291870117,-6.732507705688477
-47.998695373535156,8.829084396362305,-5.498886585235596
-45.85301208496094,6.542574882507324,-5.21872091293335
-63.915992736816406,6.51293420791626,-7.238897323608398
-66.79513549804688,4.104084014892578,-7.54019832611084
-68.82559967041016,1.4582242965698242,-7.756524562835693
-71.10342407226562,-1.3509550094604492,-8.012880325317383
-73.67422485351562,-4.365114212036133,-8.315650939941406
-75.51126861572266,-7.527690887451172,-8.550248146057129
-81.20358276367188,-11.405451774597168,-9.239263534545898
-58.8935546875,-10.700067520141602,-6.744337558746338
-78.71458435058594,-17.59430694580078,-9.087857246398926
-69.73690795898438,-18.558063507080078,-8.130926132202148
-69.75114440917969,-21.59713363647461,-8.227178573608398
-64.84130859375,-22.969669342041016,-7.750720024108887
-59.2281379699707,-23.69997215270996,-7.187842845916748
-30.87896728515625,-13.8198881149292,-3.811776638031006
-28.671560287475586,-14.240886688232422,-3.6070492267608643
-26.697477340698242,-14.625774383544922,-3.4299025535583496
-24.915599822998047,-14.98125171661377,-3.275712251663208
-23.330366134643555,-15.336775779724121,-3.1458210945129395
-23.69556427001953,-16.978160858154297,-3.2844462394714355
-27.63707160949707,-21.53371810913086,-3.9475884437561035
-28.0679874420166,-23.741607666015625,-4.142131805419922
-28.464935302734375,-26.10964584350586,-4.352103233337402
-61.30128479003906,-71.61126708984375,-10.621194839477539
53.85061264038086,37.98332977294922,-7.424988746643066
5.9364237785339355,12.804308891296387,-1.5902138948440552
5.400618553161621,12.992385864257812,-1.5853257179260254
-0.13357128202915192,16.9710693359375,-1.912239670753479
-24.899669647216797,87.03929901123047,-9.43911075592041
-24.968523025512695,75.64530944824219,-8.305622100830078
-23.05449867248535,61.4366455078125,-6.841797351837158
-23.259933471679688,55.141326904296875,-6.23982572555542
-15.916712760925293,33.86550521850586,-3.9015016555786133
-16.410982131958008,31.557945251464844,-3.708669662475586
-16.49659538269043,28.830442428588867,-3.463280439376831
-16.57061004638672,26.4361629486084,-3.253065347671509
-17.119953155517578,25.019533157348633,-3.160885810852051
-18.709077835083008,25.114198684692383,-3.265232801437378
-20.35947036743164,25.153621673583984,-3.3740525245666504
-24.115419387817383,27.46051597595215,-3.8104660511016846
-24.17353057861328,25.392358779907227,-3.655390739440918
-26.043386459350586,25.24342155456543,-3.781618595123291
-28.286659240722656,25.29486656188965,-3.956493377685547
-30.755653381347656,25.354713439941406,-4.155901908874512
-33.4849739074707,25.416162490844727,-4.3830885887146
-34.27552795410156,23.908647537231445,-4.357230186462402
-34.322444915771484,21.946020126342773,-4.2476019859313965
-14.414155960083008,8.420570373535156,-1.7405338287353516
-34.405677795410156,18.286638259887695,-4.06248664855957
-34.44270324707031,16.567590713500977,-3.984992742538452
-20.08979034423828,8.68787956237793,-2.282116651535034
-40.45051574707031,15.595524787902832,-4.52013635635376
-25.66892433166504,8.729264259338379,-2.826869487762451
-49.685707092285156,14.698208808898926,-5.4023590087890625
-53.19869613647461,13.438825607299805,-5.720972061157227
-42.35243606567383,8.90574836730957,-4.512404441833496
-53.70289993286133,9.056865692138672,-5.678349018096924
-58.74263381958008,7.494389533996582,-6.174388885498047
-60.218345642089844,5.23480749130249,-6.302287578582764
-62.710819244384766,2.920093536376953,-6.545568943023682
-64.53814697265625,0.40976977348327637,-6.72914457321167
-66.57465362548828,-2.2532765865325928,-6.945316791534424
-68.85774230957031,-5.105770111083984,-7.199097633361816
-71.39678955078125,-8.188889503479004,-7.492919445037842
-74.33212280273438,-11.567296981811523,-7.843443393707275
-67.26690673828125,-13.255108833312988,-7.148387432098389
-73.77851104736328,-17.64419174194336,-7.909359931945801
-65.33995056152344,-18.430145263671875,-7.078429698944092
-69.88851928710938,-22.781265258789062,-7.664214611053467
-61.94963073730469,-22.985260009765625,-6.8893818855285645
-31.695035934448242,-13.231460571289062,-3.58105206489563
-29.40395736694336,-13.686877250671387,-3.3816325664520264
-27.362361907958984,-14.100483894348145,-3.2094404697418213
-25.525423049926758,-14.480085372924805,-3.059788227081299
-23.8582706451416,-14.831786155700684,-2.92905592918396
-23.749608993530273,-16.121978759765625,-2.992870807647705
-23.747364044189453,-17.55426788330078,-3.079038143157959
-27.573514938354492,-22.149389266967773,-3.6876087188720703
-27.89063262939453,-24.310514450073242,-3.857612133026123
-28.289752960205078,-26.73253631591797,-4.05818510055542
-28.558454513549805,-29.245628356933594,-4.261953830718994
-59.894962310791016,-72.10691833496094,-9.77349853515625
5.48215913772583,-10.735860824584961,-1.2568583488464355
53.82689666748047,39.17521286010742,-6.941226005554199
49.537750244140625,39.191917419433594,-6.585992813110352
5.7145819664001465,12.820877075195312,-1.4635320901870728
-14.767424583435059,79.60066986083984,-8.441102027893066
-24.469797134399414,90.59834289550781,-9.784626960754395
-25.857545852661133,82.42753601074219,-9.00717544555664
-14.402420997619629,40.182594299316406,-4.450584411621094
-23.188676834106445,57.333030700683594,-6.448197841644287
-15.847214698791504,35.05951690673828,-4.011528491973877
-16.02345848083496,31.962343215942383,-3.7278473377227783
-16.466474533081055,29.79469871520996,-3.5493733882904053
-16.54448127746582,27.28579330444336,-3.327043056488037
-16.644704818725586,25.116531372070312,-3.141596794128418
-18.084508895874023,25.04288101196289,-3.2207224369049072
-19.73749351501465,25.138813018798828,-3.3324217796325684
-21.410274505615234,25.12221336364746,-3.441542148590088
-24.152780532836914,26.136226654052734,-3.710479497909546
-25.26381492614746,25.225421905517578,-3.7223596572875977
-27.43467903137207,25.275386810302734,-3.8893516063690186
-29.817365646362305,25.333457946777344,-4.079453468322754
-32.46182632446289,25.407323837280273,-4.298033714294434
-34.257198333740234,24.65931510925293,-4.400927543640137
-34.30556869506836,22.659194946289062,-4.286645889282227
-34.350128173828125,20.75644874572754,-4.184562683105469
-14.555776596069336,8.015568733215332,-1.732540488243103
-34.429359436035156,17.194700241088867,-4.012521266937256
-34.513465881347656,15.53718376159668,-3.946338653564453
-20.339139938354492,8.190279006958008,-2.286119222640991
-41.951454162597656,14.9644193649292,-4.643994331359863
-47.93574905395508,14.95737361907959,-5.2356438636779785
-51.8116455078125,13.909259796142578,-5.593385219573975
-55.316123962402344,12.4913969039917,-5.9127278327941895
-48.102291107177734,8.848139762878418,-5.099479675292969
-45.93644714355469,6.554479598999023,-4.838028907775879
-59.65681838989258,6.078929901123047,-6.252270698547363
-62.08287048339844,3.8145484924316406,-6.4852166175842285
-63.84086227416992,1.3526113033294678,-6.6577982902526855
-65.79621887207031,-1.2501189708709717,-6.861416339874268
-67.98339080810547,-4.0279412269592285,-7.100653171539307
-70.44554138183594,-7.022690773010254,-7.381342887878418
-39.965675354003906,-5.613379955291748,-4.207883834838867
-58.59687805175781,-10.646163940429688,-6.209562301635742
-78.49304962158203,-17.544788360595703,-8.38594913482666
-69.867431640625,-18.592796325683594,-7.5381903648376465
-69.88324737548828,-21.638038635253906,-7.627591609954834
-64.7181625366211,-22.926042556762695,-7.158651828765869
-59.86992263793945,-23.956768035888672,-6.723479747772217
-30.218029022216797,-13.52408218383789,-3.4517998695373535
-28.090150833129883,-13.952108383178711,-3.2701642513275146
-26.182188034057617,-14.343476295471191,-3.1126654148101807
-24.455917358398438,-14.704852104187012,-2.975316047668457
-23.75014877319336,-15.612730979919434,-2.9634222984313965
-23.74833106994629,-17.015972137451172,-3.0460915565490723
-23.24749755859375,-18.1135311126709,-3.0727758407592773
-27.758453369140625,-23.479782104492188,-3.7907280921936035
-28.1449031829834,-25.816085815429688,-3.9820210933685303
-28.390207290649414,-28.223257064819336,-4.173891544342041
-61.20539855957031,-71.49922943115234,-9.813146591186523
5.34881067276001,-10.869925498962402,-1.263123631477356
53.8455924987793,37.97978210449219,-6.870210647583008
5.940713882446289,12.813563346862793,-1.472597360610962
5.377413272857666,12.936559677124023,-1.4607070684432983
-24.94135284423828,87.18502044677734,-8.693692207336426
-25.101686477661133,76.04869842529297,-7.677657127380371
-23.16534996032715,61.73202896118164,-6.3212056159973145
-23.36188507080078,55.38301467895508,-5.762601852416992
-16.376609802246094,34.84402084350586,-3.6910436153411865
-16.47235870361328,31.675952911376953,-3.4228358268737793
-16.554195404052734,28.93109893798828,-3.1955676078796387
-16.62494468688965,26.522859573364258,-3.000967264175415
-17.133981704711914,25.04004669189453,-2.908783197402954
-18.724885940551758,25.135421752929688,-3.004883289337158
-20.377254486083984,25.175586700439453,-3.105116128921509
-24.179859161376953,27.53388786315918,-3.5130465030670166
-24.235490798950195,25.457447052001953,-3.3697092533111572
-26.068920135498047,25.268171310424805,-3.4805688858032227
-28.315683364868164,25.320817947387695,-3.6416869163513184
-30.788793563842773,25.38203239440918,-3.825424909591675
-33.52302551269531,25.44504737854004,-4.034783840179443
-34.35002517700195,23.960613250732422,-4.015136241912842
-34.39515686035156,21.99253273010254,-3.913897752761841
-14.443988800048828,8.43799877166748,-1.6037144660949707
-34.47539138793945,18.323694229125977,-3.742983341217041
-34.51115417480469,16.60051918029785,-3.671440601348877
-20.130491256713867,8.705484390258789,-2.102633476257324
-38.951019287109375,15.017417907714844,-4.002161026000977
-25.713804244995117,8.744526863098145,-2.60382080078125
-45.75672149658203,13.535931587219238,-4.574619293212891
-49.6359748840332,12.538829803466797,-4.908083438873291
-42.446311950683594,8.925490379333496,-4.15830135345459
-53.80287170410156,9.07372760772705,-5.230899810791016
-55.00136184692383,7.0170793533325195,-5.315701961517334
-56.30879592895508,4.894949436187744,-5.418665885925293
-58.53681182861328,2.725733995437622,-5.617984294891357
-60.13380813598633,0.3818053603172302,-5.765124320983887
-61.899478912353516,-2.0950417518615723,-5.937679767608643
-62.95035934448242,-4.667740821838379,-6.051599025726318
-66.05677795410156,-7.576397895812988,-6.374359130859375
-68.49082946777344,-10.65828800201416,-6.645223140716553
-67.0567626953125,-13.213700294494629,-6.5523295402526855
-65.44178771972656,-15.650452613830566,-6.450799465179443
-65.46277618408203,-18.46479034423828,-6.520772457122803
-69.84585571289062,-22.76735496520996,-7.042862892150879
-61.836814880371094,-22.94339370727539,-6.323179244995117
-31.007661819458008,-12.944515228271484,-3.221328020095825
-28.801069259643555,-13.406243324279785,-3.0456223487854004
-26.829336166381836,-13.825804710388184,-2.8935587406158447
-25.050941467285156,-14.210919380187988,-2.7611451148986816
-23.45614242553711,-14.581795692443848,-2.647841691970825
-23.80159568786621,-16.157270431518555,-2.7579381465911865
-23.800844192504883,-17.59380340576172,-2.8375186920166016
-27.28986930847168,-21.921539306640625,-3.355836868286133
-27.581632614135742,-24.04118537902832,-3.50773549079895
-27.969823837280273,-26.43021011352539,-3.6892600059509277
-28.23325538635254,-28.9126033782959,-3.874197483062744
-28.500429153442383,-31.63446617126465,-4.082081317901611
-59.965545654296875,-72.19185638427734,-8.997220993041992
-28.67745590209961,-53.47602081298828,-5.817388534545898
5.4779372215271,-10.727598190307617,-1.1547784805297852
53.60480880737305,39.01356887817383,-6.356044292449951
49.49265670776367,39.15622329711914,-6.05023193359375
5.718679428100586,12.830077171325684,-1.3466688394546509
0.8965598940849304,51.298126220703125,-4.918684482574463
-14.777457237243652,79.65473175048828,-7.7667765617370605
-26.001304626464844,82.88580322265625,-8.328048706054688
-14.395050048828125,40.16203308105469,-4.090170860290527
-23.293724060058594,57.59279251098633,-5.955909252166748
-23.984371185302734,53.06170654296875,-5.582540988922119
-16.438810348510742,32.790855407714844,-3.516568422317505
-16.52540397644043,29.901344299316406,-3.2752907276153564
-16.59996795654297,27.37729835510254,-3.0694408416748047
-16.66484260559082,25.14692497253418,-2.892159938812256
-18.14101791381836,25.121131896972656,-2.970672369003296
-19.7545166015625,25.16049575805664,-3.066767692565918
-21.429393768310547,25.144643783569336,-3.167288064956665
-24.215620040893555,26.2042293548584,-3.420624017715454
-25.288196563720703,25.24976921081543,-3.425973892211914
-27.462343215942383,25.300878524780273,-3.5798232555389404
-29.84889030456543,25.360252380371094,-3.75498104095459
-32.53516387939453,25.46472930908203,-3.9609248638153076
-34.33240509033203,24.71344757080078,-4.055489540100098
-34.37892150878906,22.7076416015625,-3.9499542713165283
-34.42182159423828,20.79977035522461,-3.855692148208618
-14.576754570007324,8.027121543884277,-1.5953482389450073
-34.49825668334961,17.22911262512207,-3.6968538761138916
-34.57247543334961,15.56374740600586,-3.6348204612731934
-20.378158569335938,8.205991744995117,-2.106095314025879
-40.72249221801758,14.526029586791992,-4.1450018882751465
-43.334564208984375,13.521677017211914,-4.3520355224609375
-48.14636993408203,12.92529010772705,-4.779223918914795
-52.00111389160156,11.742807388305664,-5.110879898071289
-48.20615768432617,8.8672456741333,-4.699044227600098
-46.13064193725586,6.582187652587891,-4.467322826385498
-55.81249237060547,5.687199592590332,-5.3784332275390625
-57.98505401611328,3.562767744064331,-5.569490432739258
-59.52591323852539,1.2611892223358154,-5.708012104034424
-61.22627639770508,-1.1632908582687378,-5.870803356170654
-63.11653518676758,-3.7395853996276855,-6.061572551727295
-64.28662109375,-6.408707141876221,-6.1936869621276855
-40.02177047729492,-5.621260166168213,-3.8745343685150146
-58.748680114746094,-10.67374324798584,-5.724416255950928
-65.43486785888672,-14.626014709472656,-6.4280195236206055
-62.51230239868164,-16.63549041748047,-6.201608657836914
-70.015625,-21.67902946472168,-7.026775360107422
-64.59568786621094,-22.88265609741211,-6.569847583770752
-31.891984939575195,-12.761480331420898,-3.293165922164917
-29.58586311340332,-13.241153717041016,-3.1074962615966797
-27.53281021118164,-13.675280570983887,-2.9472224712371826
-25.687240600585938,-14.072334289550781,-2.8079581260681152
-24.013635635375977,-14.438920021057129,-2.6862947940826416
-23.80162239074707,-15.646565437316895,-2.7307419776916504
-23.801240921020508,-17.05388832092285,-2.8070900440216064
-23.443532943725586,-18.266271591186523,-2.849210739135742
-27.48839569091797,-23.25135040283203,-3.4516239166259766
-26.478456497192383,-24.287540435791016,-3.4446346759796143
-28.073530197143555,-27.9084529876709,-3.795041084289551
-28.52419090270996,-30.731491088867188,-4.0197343826293945
-61.1491813659668,-71.43356323242188,-9.014795303344727
5.325934886932373,-10.823431015014648,-1.1564598083496094
53.84055709838867,37.97624969482422,-6.316501617431641
5.945005416870117,12.82281494140625,-1.3550153970718384
5.354446887969971,12.881316184997559,-1.3373687267303467
8.008767127990723,51.98558807373047,-5.042636394500732
-24.928258895874023,87.13917541503906,-7.9295148849487305
-26.303876876831055,79.69091033935547,-7.342031478881836
-23.277088165283203,62.02980041503906,-5.796428680419922
-23.464570999145508,55.62646484375,-5.28194522857666
-16.44281768798828,34.98488998413086,-3.381988763809204
-16.53409767150879,31.794666290283203,-3.1353161334991455
-16.61210823059082,29.032318115234375,-2.9264113903045654
-16.610397338867188,26.49964714050293,-2.736222982406616
-17.14801788330078,25.060562133789062,-2.6566686630249023
-18.74070167541504,25.156646728515625,-2.7445108890533447
-20.395036697387695,25.19755744934082,-2.836137533187866
-24.244539260864258,27.6075496673584,-3.2145094871520996
-24.29766845703125,25.52276039123535,-3.0830159187316895
-26.0944766998291,25.29293441772461,-3.1794087886810303
-28.34471893310547,25.34678077697754,-3.326735496520996
-30.82196044921875,25.40936851501465,-3.4947636127471924
-33.56109619140625,25.473953247070312,-3.686241865158081
-34.56670379638672,24.11174774169922,-3.687242269515991
-34.46807098388672,22.03913688659668,-3.579312801361084
-14.473898887634277,8.455469131469727,-1.4665477275848389
-34.54527282714844,18.3608341217041,-3.422691583633423
-34.579769134521484,16.633520126342773,-3.357142686843872
-20.171287536621094,8.723128318786621,-1.922707438468933
-37.26666259765625,14.368014335632324,-3.494356632232666
-25.75876808166504,8.759819030761719,-2.380347967147827
-42.55974197387695,12.590188980102539,-3.883018732070923
-46.22314453125,11.676694869995117,-4.171054363250732
-42.54045486450195,8.945282936096191,-3.803197145462036
-51.332645416259766,8.657137870788574,-4.5544538497924805
-51.71305847167969,6.597555637359619,-4.560980319976807
-52.881072998046875,4.5969743728637695,-4.643942356109619
-54.8976936340332,2.5562798976898193,-4.80813455581665
-56.30370330810547,0.3574869632720947,-4.926037311553955
-57.84666061401367,-1.9578697681427002,-5.063828468322754
-58.738887786865234,-4.355462551116943,-5.153098106384277
-60.602027893066406,-6.950761795043945,-5.336752414703369
-63.54730987548828,-9.888992309570312,-5.626595497131348
-65.88005828857422,-12.981823921203613,-5.874594688415527
-65.56352233886719,-15.679564476013184,-5.897818088531494
-64.69091033935547,-18.247074127197266,-5.880560398101807
-69.70465087890625,-22.72133445739746,-6.4141764640808105
-32.74884033203125,-12.150848388671875,-3.0560100078582764
-30.35051155090332,-12.67017936706543,-2.8774147033691406
-28.223308563232422,-13.137309074401855,-2.7236168384552
-26.31748390197754,-13.56203842163086,-2.590224504470825
-24.59449577331543,-13.951986312866211,-2.4738521575927734
-23.852155685424805,-14.827981948852539,-2.4571616649627686
-23.853727340698242,-16.192655563354492,-2.5223495960235596
-23.854482650756836,-17.633453369140625,-2.5952961444854736
-26.950679779052734,-21.649078369140625,-3.024402618408203
-27.237110137939453,-23.74088478088379,-3.161101818084717
-25.510175704956055,-24.1059513092041,-3.0706732273101807
-27.915874481201172,-28.587581634521484,-3.4957680702209473
-28.108240127563477,-31.199140548706055,-3.6739604473114014
-26.287382125854492,-31.647106170654297,-3.5993540287017822
-28.90250015258789,-53.895694732666016,-5.350489616394043
5.473730087280273,-10.7193603515625,-1.0530171394348145
53.384910583496094,38.85353469848633,-5.776600360870361
49.44770050048828,39.120670318603516,-5.516306400299072
5.722780704498291,12.839275360107422,-1.2298223972320557
22.076576232910156,71.68559265136719,-6.562358379364014
-14.808327674865723,79.82108306884766,-7.102601528167725
-26.146432876586914,83.34850311279297,-7.642427444458008
-14.395666122436523,40.16371154785156,-3.7327628135681152
-23.39956283569336,57.85445022583008,-5.459934234619141
-24.04012680053711,53.18507385253906,-5.1063551902771
-16.502113342285156,32.91715621948242,-3.221506118774414
-16.515899658203125,29.884126663208008,-2.98724365234375
-16.655738830566406,27.469280242919922,-2.8105194568634033
-16.717588424682617,25.226511001586914,-2.647679090499878
-18.156158447265625,25.14210319519043,-2.7132375240325928
-19.771533966064453,25.182178497314453,-2.801079511642456
-21.448514938354492,25.16707420349121,-2.892979621887207
-24.278690338134766,26.272493362426758,-3.1297199726104736
-25.312602996826172,25.274124145507812,-3.1294894218444824
-27.490026473999023,25.326379776000977,-3.2701656818389893
-29.880451202392578,25.387062072753906,-3.4303414821624756
-32.60871887207031,25.52229118347168,-3.622830867767334
-34.54972839355469,24.869884490966797,-3.724381446838379
-34.59455490112305,22.850069046020508,-3.627256393432617
-34.49370193481445,20.84320831298828,-3.525973081588745
-14.597764015197754,8.038688659667969,-1.4579806327819824
-34.56732177734375,17.263595581054688,-3.380427837371826
-34.631587982177734,15.59035873413086,-3.3227338790893555
-20.41726303100586,8.221739768981934,-1.9256671667099
-38.832679748535156,13.851926803588867,-3.6071107387542725
-41.622493743896484,12.98746109008789,-3.8146634101867676
-44.85441589355469,12.041534423828125,-4.063213348388672
-48.31017303466797,10.909324645996094,-4.333034515380859
-48.310298919677734,8.886402130126953,-4.297514915466309
-51.30503463745117,7.320516109466553,-4.5340728759765625
-52.43869400024414,5.343415260314941,-4.611551284790039
-54.40941619873047,3.343069553375244,-4.769186973571777
-55.76971435546875,1.181605577468872,-4.880313396453857
-57.259735107421875,-1.0879273414611816,-5.01048469543457
-58.900211334228516,-3.489772081375122,-5.16213846206665
-59.89076614379883,-5.97048807144165,-5.265737056732178
-40.13371276855469,-5.636981964111328,-3.5457115173339844
-58.90104293823242,-10.701425552368164,-5.237532615661621
-65.55615234375,-14.653125762939453,-5.876950263977051
-62.213706970214844,-16.5560245513916,-5.632429599761963
-70.1482925415039,-21.720104217529297,-6.424639701843262
-64.473876953125,-22.839502334594727,-5.984200954437256
-31.201353073120117,-12.485122680664062,-2.9401967525482178
-28.980545043945312,-12.970244407653809,-2.777815341949463
-26.997997283935547,-13.409640312194824,-2.637331008911133
-25.211406707763672,-13.81165599822998,-2.515016555786133
-23.603271484375,-14.192172050476074,-2.409566640853882
-23.853239059448242,-15.680501937866211,-2.497422456741333
-23.85430335998535,-17.091903686523438,-2.5674030780792236
-23.815645217895508,-18.55620002746582,-2.6414005756378174
-27.201051712036133,-23.008302688598633,-3.1169540882110596
-26.13555145263672,-23.972999572753906,-3.102792739868164
-24.472454071044922,-24.32854461669922,-3.0190300941467285
-28.191638946533203,-30.373207092285156,-3.625558853149414
-26.950347900390625,-31.482994079589844,-3.62576961517334
-29.65118980407715,-53.37521743774414,-5.341904163360596
-28.814250946044922,-57.1639518737793,-5.600632190704346
5.3032917976379395,-10.777419090270996,-1.050876259803772
53.835567474365234,37.97270965576172,-5.763765811920166
5.9492950439453125,12.83206558227539,-1.2374513149261475
5.341990947723389,12.851347923278809,-1.2176159620285034
19.95280647277832,71.15257263183594,-6.465180397033691
8.032758712768555,52.141357421875,-4.615596771240234
15.362076759338379,74.42613220214844,-6.012717247009277
-25.069194793701172,87.63187408447266,-7.211553573608398
-25.885744094848633,78.4240493774414,-6.534172534942627
-23.389747619628906,62.32999801635742,-5.267333984375
-23.568012237548828,55.871700286865234,-4.797753810882568
-16.50946617126465,35.12670135498047,-3.070875883102417
-16.596208572387695,31.914106369018555,-2.8460559844970703
-16.67034149169922,29.13408851623535,-2.6557600498199463
-16.665054321289062,26.586835861206055,-2.4826300144195557
-17.16206169128418,25.081079483032227,-2.4045097827911377
-18.756519317626953,25.177875518798828,-2.484076738357544
-20.412818908691406,25.219532012939453,-2.567080497741699
-24.30947494506836,27.681476593017578,-2.9148075580596924
-24.360076904296875,25.58831214904785,-2.7952687740325928
-26.12004280090332,25.31770896911621,-2.8780953884124756
-28.373760223388672,25.372758865356445,-3.0115952491760254
-30.855138778686523,25.436723709106445,-3.1638710498809814
-32.15425491333008,24.406110763549805,-3.1938891410827637
-32.50484085083008,22.673507690429688,-3.1356351375579834
-34.00198745727539,21.74112319946289,-3.193161725997925
-14.503888130187988,8.472990989685059,-1.3290115594863892
-32.71488571166992,17.387983322143555,-2.931286096572876
-33.85903549194336,16.286834716796875,-2.9727327823638916
-20.21219253540039,8.74081802368164,-1.7423145771026611
-36.056785583496094,13.901556968688965,-3.0575075149536133
-25.803821563720703,8.775138854980469,-2.156418561935425
-40.675048828125,12.032646179199219,-3.3560779094696045
-43.812156677246094,11.06763744354248,-3.5753231048583984
-42.63488006591797,8.96513843536377,-3.4470338821411133
-48.481788635253906,8.176351547241211,-3.890056610107422
-48.799739837646484,6.225876331329346,-3.8923232555389404
-39.58797836303711,3.4413888454437256,-3.1440069675445557
-51.68891906738281,2.406864643096924,-4.094052791595459
-52.93689727783203,0.33611008524894714,-4.188445568084717
-54.296749114990234,-1.8377199172973633,-4.298410892486572
-55.786041259765625,-4.136510848999023,-4.4259033203125
-56.64517593383789,-6.496932029724121,-4.511141777038574
-52.27882766723633,-8.135437965393066,-4.18607759475708
-54.06767654418945,-10.654162406921387,-4.360090255737305
-61.81486511230469,-14.783072471618652,-5.0287017822265625
-64.54366302490234,-18.205541610717773,-5.305942058563232
-65.98490905761719,-21.508819580078125,-5.491077423095703
-32.028953552246094,-11.883749008178711,-2.7029316425323486
-29.72153663635254,-12.40760326385498,-2.5482466220855713
-27.66905403137207,-12.879317283630371,-2.414715051651001
-25.82550621032715,-13.308506965637207,-2.2986645698547363
-24.155010223388672,-13.70267391204834,-2.197235345840454
-23.9030818939209,-14.859640121459961,-2.226862907409668
-23.9060115814209,-16.2281494140625,-2.286071300506592
-23.908283233642578,-17.67322540283203,-2.352334499359131
-23.408578872680664,-18.80375862121582,-2.375628709793091
-26.88292694091797,-23.43216896057129,-2.821549892425537
-25.187822341918945,-23.801342010498047,-2.7418551445007324
-23.587757110595703,-24.155323028564453,-2.6712324619293213
-27.727243423461914,-30.776247024536133,-3.277489185333252
-25.93820571899414,-31.226726531982422,-3.2118167877197266
-24.221525192260742,-31.66651153564453,-3.1543426513671875
-28.880794525146484,-53.855220794677734,-4.835050106048584
-28.6534366607666,-59.00697708129883,-5.1899495124816895
-28.023334503173828,-64.14676666259766,-5.538454532623291
5.469538688659668,-10.711146354675293,-0.9515600800514221
53.1671257019043,38.695030212402344,-5.2027268409729
49.402896881103516,39.08522033691406,-4.984114170074463
5.726880073547363,12.848474502563477,-1.1129801273345947
24.719501495361328,70.11981964111328,-5.882523059844971
19.78151512145996,64.23316955566406,-5.317662715911865
19.42276382446289,73.43582153320312,-6.010019779205322
13.395618438720703,74.3735580444336,-5.9791059494018555
-25.690500259399414,81.89508819580078,-6.790865421295166
-14.43062973022461,40.26128387451172,-3.3839027881622314
-23.506210327148438,58.11812210083008,-4.96016263961792
-24.05785369873047,53.22426986694336,-4.621306419372559
-16.56581687927246,33.044212341308594,-2.9245967864990234
-16.57524871826172,29.991519927978516,-2.7112021446228027
-16.711803436279297,27.56174659729004,-2.5502312183380127
-16.770591735839844,25.306488037109375,-2.402003526687622
-18.171306610107422,25.16307830810547,-2.455746650695801
-19.788576126098633,25.20387077331543,-2.53532338142395
-21.467634201049805,25.18951416015625,-2.6185803413391113
-24.341995239257812,26.34097671508789,-2.8377251625061035
-24.75833511352539,24.720703125,-2.7681639194488525
-24.788543701171875,22.8375186920166,-2.666731119155884
-29.91202163696289,25.413888931274414,-3.1054866313934326
-32.16423416137695,25.17440414428711,-3.231625556945801
-32.37297439575195,23.302988052368164,-3.1559197902679443
-32.7369384765625,21.623090744018555,-3.104145050048828
-34.04536056518555,20.57229232788086,-3.1472442150115967
-14.618795394897461,8.050272941589355,-1.3204152584075928
-33.73345184326172,16.84714698791504,-2.98332142829895
-34.25798034667969,15.422183990478516,-2.972489833831787
-20.456462860107422,8.23752498626709,-1.7448073625564575
-37.42027282714844,13.348105430603027,-3.143425464630127
-39.608245849609375,12.358957290649414,-3.2828316688537598
-42.45694351196289,11.397917747497559,-3.4781441688537598
-45.726783752441406,10.325940132141113,-3.7090086936950684
-48.1330680847168,8.853813171386719,-3.8721914291381836
-48.430782318115234,6.910401344299316,-3.8706445693969727
-39.454349517822266,4.020320415496826,-3.137784242630005
-51.25346374511719,3.1491591930389404,-4.062815189361572
-52.46394729614258,1.1115654706954956,-4.151872634887695
-53.780609130859375,-1.0218247175216675,-4.255881309509277
-55.219879150390625,-3.2717158794403076,-4.376652717590332
-56.02901840209961,-5.585511684417725,-4.454981803894043
-58.550010681152344,-8.223638534545898,-4.677947044372559
-54.00423812866211,-9.811746597290039,-4.342758655548096
-62.564266204833984,-13.98437786102295,-5.072227954864502
-60.51013946533203,-16.102680206298828,-4.954178810119629
-67.9038314819336,-21.0251522064209,-5.624184608459473
-32.95680236816406,-11.674764633178711,-2.766310930252075
-30.54092025756836,-12.220857620239258,-2.602665901184082
-28.400325775146484,-12.71056842803955,-2.461805582046509
-26.48427963256836,-13.154486656188965,-2.339669942855835
-24.7535400390625,-13.560820579528809,-2.233133316040039
-23.400466918945312,-14.070229530334473,-2.1603527069091797
-23.905004501342773,-15.714529991149902,-2.26343035697937
-23.90752410888672,-17.130037307739258,-2.3269946575164795
-23.90935707092285,-18.629222869873047,-2.398135185241699
-26.920059204101562,-22.7706298828125,-2.789680004119873
-25.801889419555664,-23.666946411132812,-2.770170211791992
-24.168350219726562,-24.026227951049805,-2.696315288543701
-27.867223739624023,-30.023691177368164,-3.2410213947296143
-26.589765548706055,-31.061765670776367,-3.235072374343872
-24.847623825073242,-31.50524139404297,-3.174654960632324
-29.90293312072754,-53.828369140625,-4.871932029724121
-28.229454040527344,-56.00379943847656,-4.962101936340332
5.280871868133545,-10.731852531433105,-0.9463350772857666
53.830562591552734,37.96918487548828,-5.2119460105896
5.9535813331604,12.841315269470215,-1.1198890209197998
5.34578275680542,12.86046314239502,-1.101925253868103
19.188907623291016,59.173404693603516,-4.9218058586120605
19.769399642944336,70.49854278564453,-5.793004035949707
14.50841236114502,74.22265625,-5.983625411987305
8.056877136230469,52.2978630065918,-4.186614513397217
15.21629810333252,73.7198715209961,-5.3265380859375
-21.90663719177246,90.12297058105469,-6.56297492980957
-23.169464111328125,80.99119567871094,-5.96099853515625
-23.834800720214844,72.21056365966797,-5.380936622619629
-15.244972229003906,40.6254768371582,-3.0704829692840576
-23.672231674194336,56.11875534057617,-4.3099188804626465
-24.507314682006836,52.143489837646484,-4.076991081237793
-16.658706665039062,32.03431701660156,-2.5549967288970947
-16.728904724121094,29.23642921447754,-2.3835628032684326
-16.719999313354492,26.674489974975586,-2.2276978492736816
-17.176109313964844,25.101604461669922,-2.152271032333374
-18.772342681884766,25.199113845825195,-2.223545551300049
-20.430612564086914,25.24151611328125,-2.2979090213775635
-24.374670028686523,27.755727767944336,-2.6138927936553955
-24.42272186279297,25.654129028320312,-2.5064170360565186
-24.513532638549805,23.76055145263672,-2.41575026512146
-28.402841567993164,25.39875602722168,-2.6962270736694336
-29.927907943725586,24.672317504882812,-2.744619846343994
-30.07969856262207,22.831451416015625,-2.6722047328948975
-30.443500518798828,21.235633850097656,-2.6265594959259033
-30.821931838989258,19.707775115966797,-2.588757038116455
-14.533963203430176,8.490559577941895,-1.1910860538482666
-32.093666076660156,17.05780792236328,-2.57185697555542
-30.958703994750977,14.891721725463867,-2.430967330932617
-20.253211975097656,8.758559226989746,-1.5614267587661743
-34.87541198730469,13.446090698242188,-2.6449432373046875
-25.848974227905273,8.790494918823242,-1.9319994449615479
-38.524967193603516,11.396607398986816,-2.8429012298583984
-41.42367172241211,10.464279174804688,-3.0233209133148193
-42.72959899902344,8.985057830810547,-3.089755058288574
-45.309322357177734,7.641322612762451,-3.251455783843994
-46.2004280090332,5.894254684448242,-3.295736074447632
-39.07734680175781,3.3969991207122803,-2.775620698928833
-48.83809280395508,2.2741174697875977,-3.459628105163574
-49.953731536865234,0.3171689510345459,-3.5349032878875732
-51.16122817993164,-1.7315964698791504,-3.622344493865967
-52.47465133666992,-3.8909714221954346,-3.7234089374542236
-53.177642822265625,-6.099222183227539,-3.7876296043395996
-50.66966247558594,-7.885026454925537,-3.62864351272583
-54.11075973510742,-10.662656784057617,-3.9026196002960205
-54.126190185546875,-12.944320678710938,-3.938084125518799
-54.15851974487305,-15.276250839233398,-3.981903076171875
-34.31795883178711,-11.186482429504395,-2.5541648864746094
-31.34093475341797,-11.628470420837402,-2.365480422973633
-29.118873596191406,-12.156017303466797,-2.232851028442383
-27.13684844970703,-12.631587982177734,-2.1180977821350098
-25.35218620300293,-13.06459903717041,-2.0181655883789062
-23.733217239379883,-13.463400840759277,-1.9308165311813354
-22.89145278930664,-14.230749130249023,-1.9073399305343628
-23.95845603942871,-16.263748168945312,-2.049067497253418
-23.962255477905273,-17.71312141418457,-2.1085948944091797
-23.68862533569336,-19.028724670410156,-2.1500978469848633
-26.538288116455078,-23.131772994995117,-2.4911437034606934
-24.87392234802246,-23.50472640991211,-2.4216580390930176
-24.074302673339844,-24.653573989868164,-2.438336133956909
-27.356908798217773,-30.365196228027344,-2.892120599746704
-25.598615646362305,-30.817907333374023,-2.834927797317505
-24.02458381652832,-31.409034729003906,-2.798197031021118
-31.500181198120117,-53.465118408203125,-4.391116142272949
-28.859149932861328,-53.81486511230469,-4.321059226989746
-28.06599235534668,-57.79720687866211,-4.54654598236084
-28.00307846069336,-64.10041046142578,-4.9498209953308105
5.465356826782227,-10.702957153320312,-0.8503924012184143
52.951377868652344,38.53800582885742,-4.634254455566406
49.35823440551758,39.049888610839844,-4.45358943939209
5.730980396270752,12.857673645019531,-0.9961233139038086
23.5941162109375,59.22477340698242,-4.511186599731445
20.812915802001953,59.03830337524414,-4.429670333862305
19.61351776123047,63.687625885009766,-4.715538024902344
19.62428855895996,74.1977310180664,-5.430920124053955
16.423194885253906,74.00402069091797,-5.3640828132629395
13.269944190979004,73.6757583618164,-5.297336101531982
-22.777620315551758,84.33308410644531,-6.181424140930176
-23.617666244506836,75.28739929199219,-5.5834808349609375
-14.465716361999512,40.35921096801758,-3.0338029861450195
-23.613691329956055,58.383846282958984,-4.456478595733643
-24.075551986694336,53.26347732543945,-4.136178493499756
-16.629928588867188,33.17209243774414,-2.6257803440093994
-16.63494873046875,30.099529266357422,-2.433537483215332
-16.768173217773438,27.654722213745117,-2.2885308265686035
-16.823862075805664,25.386886596679688,-2.155090570449829
-18.186458587646484,25.18406105041504,-2.198164939880371
-19.805606842041016,25.225568771362305,-2.269456624984741
-21.486766815185547,25.211965560913086,-2.3440561294555664
-24.405550003051758,26.409757614135742,-2.544586420059204
-24.497928619384766,24.460693359375,-2.44970965385437
-23.124217987060547,21.304189682006836,-2.224898099899292
-29.94075584411621,25.438291549682617,-2.780104875564575
-29.948793411254883,23.44041633605957,-2.6911754608154297
-30.307538986206055,21.816234588623047,-2.6424615383148193
-30.680410385131836,20.26473045349121,-2.601837635040283
-31.068872451782227,18.77371597290039,-2.5686984062194824
-14.63986587524414,8.061874389648438,-1.1826356649398804
-31.590208053588867,15.77677059173584,-2.498659133911133
-32.68785095214844,14.715349197387695,-2.536653757095337
-20.495763778686523,8.253349304199219,-1.5634937286376953
-35.85419845581055,12.789481163024902,-2.6937129497528076
-37.76178741455078,11.782808303833008,-2.7991743087768555
-40.18169403076172,10.78711223602295,-2.944031000137329
-43.96759796142578,9.928689002990723,-3.189592123031616
-45.614688873291016,8.390579223632812,-3.281956195831299
-45.86473846435547,6.544261455535889,-3.2783563137054443
-38.94664764404297,3.968585968017578,-2.7702136039733887
-48.447021484375,2.9767236709594727,-3.434674024581909
-49.53179168701172,1.0494412183761597,-3.5057575702667236
-50.703887939453125,-0.9633671045303345,-3.5885603427886963
-51.9764404296875,-3.079545497894287,-3.6844100952148438
-52.639312744140625,-5.247595310211182,-3.7433271408081055
-54.142478942871094,-7.604577541351318,-3.8688387870788574
-50.390995025634766,-9.155278205871582,-3.624145269393921
-54.119407653808594,-12.096781730651855,-3.924099922180176
-54.137481689453125,-14.406817436218262,-3.964204788208008
-62.859989166259766,-19.463420867919922,-4.6564412117004395
-32.23261260986328,-11.418222427368164,-2.419726848602295
-29.9086971282959,-11.967872619628906,-2.2795472145080566
-27.843612670898438,-12.461407661437988,-2.1585936546325684
-25.99039649963379,-12.9091796875,-2.053497791290283
-24.312572479248047,-13.319244384765625,-1.9616575241088867
-23.443315505981445,-14.09599494934082,-1.9356831312179565
-23.956924438476562,-15.748661994934082,-2.0287296772003174
-23.960912704467773,-17.16828727722168,-2.0858306884765625
-23.964385986328125,-18.672100067138672,-2.149744749069214
-26.64516830444336,-22.538101196289062,-2.4695146083831787
-25.4770450592041,-23.36899185180664,-2.4463493824005127
-23.872093200683594,-23.73172378540039,-2.3819289207458496
-27.55059051513672,-29.682559967041016,-2.8657214641571045
-26.239160537719727,-30.652196884155273,-2.855184555053711
-24.526020050048828,-31.09748077392578,-2.802550792694092
-29.88037109375,-53.78772735595703,-4.353998184204102
-27.63028335571289,-54.81511306762695,-4.343735694885254
-28.846935272216797,-63.449195861816406,-4.932041645050049
5.263489723205566,-10.69653034210205,-0.8435834646224976
5.349571704864502,12.869580268859863,-0.9862223863601685
21.88565444946289,59.26244354248047,-4.470358371734619
19.02457046508789,58.66664505004883,-4.364192485809326
19.58509635925293,69.84120178222656,-5.132746696472168
17.647825241088867,74.2936019897461,-5.403462886810303
14.371410369873047,73.52171325683594,-5.3010172843933105
15.07341480255127,73.02769470214844,-4.654037952423096
-9.41004467010498,79.44005584716797,-4.99284029006958
-20.340147018432617,83.6784896850586,-5.3747992515563965
-21.490022659301758,75.12052154541016,-4.876664638519287
-21.922700881958008,66.41764068603516,-4.365367889404297
-15.237079620361328,40.604461669921875,-2.7068490982055664
-22.803878784179688,54.06019973754883,-3.662026882171631
-24.360082626342773,51.8301887512207,-3.5744152069091797
-16.721607208251953,32.15525436401367,-2.2620861530303955
-16.78781509399414,29.339374542236328,-2.1097702980041504
-16.775243759155273,26.762622833251953,-1.9713834524154663
-17.19015121459961,25.12213706970215,-1.899911880493164
-18.788169860839844,25.220361709594727,-1.962881088256836
-20.44841194152832,25.263513565063477,-2.028583526611328
-24.440139770507812,27.83026885986328,-2.311718702316284
-24.48561668395996,25.720190048217773,-2.2164206504821777
-24.574254989624023,23.819398880004883,-2.136035919189453
-27.910343170166016,24.95834732055664,-2.3369085788726807
-27.93631362915039,23.030466079711914,-2.259732723236084
-28.258617401123047,21.44919204711914,-2.214261054992676
-28.62999725341797,19.970640182495117,-2.1786906719207764
-29.010766983032227,18.54970359802246,-2.1491785049438477
-14.564126968383789,8.508182525634766,-1.0527507066726685
-30.76960563659668,16.354063034057617,-2.1748597621917725
-30.72986602783203,14.781652450561523,-2.128343343734741
-20.29434585571289,8.776344299316406,-1.3800183534622192
-33.257869720458984,12.822443008422852,-2.224708080291748
-25.894229888916016,8.805883407592773,-1.7070595026016235
-36.090370178222656,10.6763916015625,-2.3490500450134277
-39.20188522338867,9.903010368347168,-2.523618698120117
-42.3557014465332,8.906447410583496,-2.701416492462158
-43.04975509643555,7.260251045227051,-2.724853754043579
-43.866607666015625,5.596505165100098,-2.760085105895996
-38.521949768066406,3.3487184047698975,-2.413377285003662
-46.28815460205078,2.1553802490234375,-2.8921642303466797
-47.291778564453125,0.3002675771713257,-2.951730251312256
-48.3712043762207,-1.6371650695800781,-3.0207712650299072
-49.53762435913086,-3.6731927394866943,-3.1003317832946777
-50.11355209350586,-5.747784614562988,-3.1482973098754883
-50.47971725463867,-7.855466842651367,-3.1885621547698975
-53.70790100097656,-10.58326244354248,-3.4165968894958496
-54.22704315185547,-12.968439102172852,-3.479968547821045
-54.245887756347656,-15.30089282989502,-3.517812728881836
-52.57713317871094,-17.138349533081055,-3.4514875411987305
-30.68260383605957,-11.384209632873535,-2.042590618133545
-28.54083824157715,-11.91470718383789,-1.9303401708602905
-26.62531852722168,-12.39348030090332,-1.8330034017562866
-24.896432876586914,-12.829736709594727,-1.7480766773223877
-23.4959716796875,-13.328807830810547,-1.6860090494155884
-22.518943786621094,-13.999171257019043,-1.6549500226974487
-24.01106834411621,-16.299463272094727,-1.8113024234771729
-24.01641082763672,-17.753154754638672,-1.8640400171279907
-24.0716495513916,-19.33639144897461,-1.9271098375320435
-26.202774047851562,-22.83931541442871,-2.169478416442871
-24.568113327026367,-23.215744018554688,-2.109708547592163
-24.228723526000977,-24.81171226501465,-2.1644742488861084
-26.99675941467285,-29.96544075012207,-2.517345905303955
-25.268190383911133,-30.42011070251465,-2.468207359313965
-23.706195831298828,-30.992788314819336,-2.4353766441345215
-31.638273239135742,-53.699493408203125,-3.8900625705718994
-28.837562561035156,-53.77461242675781,-3.808441400527954
-27.45673942565918,-56.54257583618164,-3.9231250286102295
-27.982872009277344,-64.05418395996094,-4.362725734710693
5.461184501647949,-10.694788932800293,-0.749496340751648
52.78688049316406,38.41828918457031,-4.074841022491455
49.313697814941406,39.01466751098633,-3.9246439933776855
5.7350850105285645,12.866875648498535,-0.879237174987793
22.555673599243164,56.61814498901367,-3.8038644790649414
20.63378143310547,58.530128479003906,-3.8734562397003174
18.82427978515625,61.12485122680664,-3.9918651580810547
