-24.722658157348633,7.689883232116699,4.233183860778809
-25.691192626953125,6.872321128845215,4.348203659057617
-25.530860900878906,5.741279125213623,4.278546333312988
-25.365333557128906,4.642303943634033,4.216122627258301
-25.194507598876953,3.571868419647217,4.160499095916748
-23.96501922607422,2.4202823638916016,3.938218593597412
-23.80533790588379,1.441251516342163,3.899308681488037
-24.9716796875,0.5066887736320496,4.083714485168457
-24.903066635131836,-0.4954814910888672,4.072465419769287
-24.824405670166016,-1.4931361675262451,4.06613302230835
-19.11844253540039,-1.923216462135315,3.1416473388671875
-24.298269271850586,-3.4350337982177734,4.012266635894775
-24.636688232421875,-4.4989166259765625,4.094703197479248
-25.416645050048828,-5.705069541931152,4.259030818939209
-25.183616638183594,-6.725924491882324,4.261849403381348
-24.93631935119629,-7.745577335357666,4.26924991607666
-24.674291610717773,-8.76563835144043,4.281264305114746
-24.595544815063477,-9.867414474487305,4.332931995391846
-24.299945831298828,-10.901607513427734,4.354550361633301
-23.987606048583984,-11.941226959228516,4.381069183349609
-23.657711029052734,-12.988070487976074,4.412621021270752
-23.309371948242188,-14.043916702270508,4.449363708496094
-22.941564559936523,-15.110658645629883,4.491488456726074
-22.55315399169922,-16.190277099609375,4.539215564727783
-22.14290428161621,-17.284826278686523,4.592793941497803
-21.53411102294922,-18.248029708862305,4.61496114730835
-21.079448699951172,-19.370107650756836,4.680633544921875
-20.598398208618164,-20.514055252075195,4.753108501434326
-18.839244842529297,-20.333662033081055,4.532159805297852
-19.70824432373047,-23.06473731994629,4.960271835327148
-19.123722076416016,-24.292497634887695,5.0548882484436035
-18.510459899902344,-25.563138961791992,5.160269737243652
-17.85809326171875,-26.872156143188477,5.275320053100586
-17.163105010986328,-28.223840713500977,5.400852680206299
-16.421541213989258,-29.622995376586914,5.537781715393066
-15.628829002380371,-31.075029373168945,5.687172889709473
-14.785246849060059,-32.59794616699219,5.852366924285889
-13.873724937438965,-34.175254821777344,6.030540943145752
-12.89317512512207,-35.82622528076172,6.225372314453125
-11.835769653320312,-37.55973815917969,6.438715934753418
-10.692389488220215,-39.386165618896484,6.6727294921875
-9.452407836914062,-41.31742477416992,6.929938316345215
-7.559309959411621,-40.45576095581055,6.729006290435791
-6.167823314666748,-42.37380599975586,7.001141548156738
-4.8278679847717285,-46.093467712402344,7.577517509460449
-3.212205648422241,-49.982479095458984,8.189006805419922
-1.2752708196640015,-53.133087158203125,8.689773559570312
0.9080033302307129,-56.09601974487305,9.1729154586792
3.3483448028564453,-59.340423583984375,9.717606544494629
6.093611240386963,-62.918479919433594,10.335321426391602
9.2040433883667,-66.89575958251953,11.040512084960938
12.75716495513916,-71.35643768310547,11.851784706115723
16.853687286376953,-76.40986633300781,12.793319702148438
21.627574920654297,-82.20108032226562,13.897305488586426
27.260772705078125,-88.9271469116211,15.207451820373535
24.371477127075195,-69.41808319091797,12.029046058654785
35.07045364379883,-88.36370849609375,15.543779373168945
32.504730224609375,-73.179443359375,13.092063903808594
22.274005889892578,-45.163177490234375,8.233409881591797
24.31492805480957,-44.681549072265625,8.317099571228027
25.156822204589844,-42.10649871826172,8.019556045532227
27.379955291748047,-41.906761169433594,8.184553146362305
57.07694625854492,-67.86405944824219,14.498435020446777
33.567501068115234,49.70721435546875,9.806727409362793
29.836063385009766,48.253883361816406,9.275854110717773
37.27531814575195,80.5886001586914,14.517473220825195
8.281824111938477,73.78279113769531,12.139261245727539
4.134606838226318,57.65033721923828,9.450054168701172
1.7890264987945557,56.93034744262695,9.312721252441406
-0.49264097213745117,56.19153594970703,9.187686920166016
-2.7174675464630127,55.47159957885742,9.080496788024902
-4.91215705871582,54.96576690673828,9.022734642028809
-7.579287528991699,58.285072326660156,9.60986042022705
-10.849775314331055,63.398529052734375,10.516375541687012
-14.373627662658691,67.54411315917969,11.290765762329102
-16.95058822631836,66.42330932617188,11.208266258239746
-18.825294494628906,63.07563781738281,10.762380599975586
-10.873544692993164,31.722431182861328,5.482862949371338
-21.621009826660156,55.67737579345703,9.765546798706055
-22.56165313720703,51.82701110839844,9.241838455200195
-23.31768798828125,48.17701721191406,8.751067161560059
-23.974637985229492,44.84540939331055,8.314261436462402
-24.5440731048584,41.781700134277344,7.9228010177612305
-25.039098739624023,38.951934814453125,7.570981502532959
-25.46936798095703,36.325469970703125,7.253644943237305
-25.842864990234375,33.876670837402344,6.966498374938965
-26.16625213623047,31.58409309387207,6.705960273742676
-26.2203369140625,29.179235458374023,6.4139933586120605
-26.42873191833496,27.134662628173828,6.193117141723633
-26.630229949951172,25.229496002197266,5.997800350189209
-26.799787521362305,23.42062759399414,5.8192138671875
-26.31890296936035,21.197513580322266,5.525290489196777
-25.699495315551758,19.048614501953125,5.230254650115967
-26.436079025268555,17.99551773071289,5.228694915771484
-26.178544998168945,16.321081161499023,5.0439043045043945
-26.082481384277344,14.840599060058594,4.906473636627197
-25.878103256225586,13.37791633605957,4.7630085945129395
-25.87159538269043,12.083287239074707,4.668631076812744
-25.95917510986328,10.876307487487793,4.601808071136475
-26.159927368164062,9.744576454162598,4.564258098602295
-24.183679580688477,7.917605400085449,4.160559177398682
-25.749101638793945,7.298840522766113,4.375849723815918
-25.590665817260742,6.154963493347168,4.303398132324219
-25.427059173583984,5.044571399688721,4.238356590270996
-25.25820541381836,3.963989734649658,4.18026876449585
-24.233476638793945,2.8111705780029297,3.9887521266937256
-23.797924041748047,1.7955037355422974,3.902026653289795
-24.636499404907227,0.8656883239746094,4.030559539794922
-24.929569244384766,-0.1260961890220642,4.076043605804443
-24.854629516601562,-1.1251835823059082,4.067898750305176
-24.526803970336914,-2.100210428237915,4.024801254272461
-18.955846786499023,-2.3935184478759766,3.123894691467285
-24.332612991333008,-4.071341514587402,4.033682823181152
-15.668485641479492,-3.273608922958374,2.6171183586120605
-25.27128791809082,-6.3492431640625,4.260277271270752
-25.02930450439453,-7.369140625,4.265985488891602
-24.772783279418945,-8.388861656188965,4.276288032531738
-24.70059585571289,-9.486625671386719,4.32616662979126
-24.410999298095703,-10.519227027893066,4.346002578735352
-24.10492515563965,-11.556642532348633,4.370699882507324
-23.78160858154297,-12.600619316101074,4.400376319885254
-23.4401912689209,-13.652911186218262,4.435182571411133
-23.07969856262207,-14.715415954589844,4.475295543670654
-22.69903564453125,-15.79004955291748,4.520925998687744
-22.297008514404297,-16.878828048706055,4.572310924530029
-21.695661544799805,-17.838760375976562,4.5923590660095215
-21.250282287597656,-18.953426361083984,4.6556172370910645
-20.779197692871094,-20.089000701904297,4.725531578063965
-19.25491714477539,-20.1735782623291,4.5596489906311035
-18.52456283569336,-21.039297103881836,4.583295822143555
-19.340909957885742,-23.83223533630371,5.018277168273926
-18.741260528564453,-25.089746475219727,5.12027645111084
-18.10372543334961,-26.384103775024414,5.231666564941406
-17.424917221069336,-27.71950912475586,5.353226661682129
-16.70102882385254,-29.100547790527344,5.485836982727051
-15.927783966064453,-30.532379150390625,5.630491256713867
-15.100210189819336,-32.02083206176758,5.7883501052856445
-14.217927932739258,-33.584747314453125,5.962904930114746
-13.263737678527832,-35.20753479003906,6.151381015777588
-12.23568058013916,-36.90945816040039,6.35766077041626
-11.125218391418457,-38.70027160644531,6.583760738372803
-9.922237396240234,-40.5913200378418,6.832090854644775
-8.19050407409668,-40.49673843383789,6.755292892456055
-6.838163375854492,-42.54148483276367,7.044825553894043
-5.312726020812988,-44.36015701293945,7.304725646972656
-3.8828201293945312,-49.038726806640625,8.042933464050293
-2.024251699447632,-52.101688385009766,8.525064468383789
0.0741884708404541,-54.971702575683594,8.987895965576172
2.4146671295166016,-58.106781005859375,9.508676528930664
5.041065216064453,-61.5548095703125,10.097922325134277
2.680744171142578,-21.883241653442383,3.604661226272583
11.388060569763184,-69.64704132080078,11.538530349731445
15.270235061645508,-74.46670532226562,12.428678512573242
19.775808334350586,-79.96577453613281,13.468303680419922
25.057514190673828,-86.28800201416016,14.690933227539062
31.05571937561035,-92.84137725830078,16.006317138671875
31.590503692626953,-74.06389617919922,13.164993286132812
21.457252502441406,-45.18486404418945,8.178421974182129
23.474363327026367,-44.70404052734375,8.255544662475586
24.996959686279297,-43.28474044799805,8.17242431640625
26.650482177734375,-42.14271545410156,8.152511596679688
28.6400089263916,-41.49905776977539,8.244083404541016
6.923971652984619,71.19969177246094,12.307361602783203
3.262924909591675,57.4238166809082,9.895439147949219
0.9396212100982666,56.670982360839844,9.751319885253906
-1.3205671310424805,55.93910598754883,9.626745223999023
-3.527289867401123,55.22503662109375,9.520572662353516
-5.68517541885376,54.48576736450195,9.424912452697754
-9.27883529663086,63.92368698120117,11.113027572631836
-12.321958541870117,66.08853912353516,11.566165924072266
-14.997526168823242,65.67449188232422,11.589838981628418
-14.58964729309082,53.825801849365234,9.594636917114258
-16.697078704833984,53.059574127197266,9.569978713989258
-19.899784088134766,55.36387252807617,10.121706008911133
-21.193571090698242,52.26531982421875,9.703163146972656
-21.850675582885742,48.22592544555664,9.108968734741211
-22.772117614746094,45.32257080078125,8.726455688476562
-23.41204261779785,42.27253341674805,8.313711166381836
-23.970993041992188,39.45404815673828,7.942516803741455
-24.45941925048828,36.83701705932617,7.60749626159668
-7.854341506958008,10.855942726135254,2.3052926063537598
-25.25802230834961,32.110774993896484,7.028780937194824
-25.58160400390625,29.96229362487793,6.7781476974487305
-25.614032745361328,27.66769027709961,6.4867730140686035
-25.853252410888672,25.767669677734375,6.279923915863037
-26.05776023864746,23.963672637939453,6.0906572341918945
-26.23076629638672,22.24574089050293,5.917276382446289
-26.011789321899414,20.321392059326172,5.6789870262146
-25.42105484008789,18.264236450195312,5.3853559494018555
-24.885595321655273,16.4051513671875,5.1280517578125
-25.95396614074707,15.65123462677002,5.21433162689209
-25.78569793701172,14.169546127319336,5.061985015869141
-25.63344955444336,12.773153305053711,4.927309989929199
-25.58623504638672,11.490776062011719,4.825536727905273
-25.73796272277832,10.337507247924805,4.771913528442383
-25.83281135559082,9.188678741455078,4.717202186584473
-24.73404884338379,7.6934309005737305,4.456477642059326
-25.35744285583496,6.783045291900635,4.516016006469727
-25.20444107055664,5.667873859405518,4.4445953369140625
-25.045696258544922,4.583805561065674,4.3805670738220215
-24.881160736083984,3.5274453163146973,4.323492527008057
-23.959720611572266,2.4197475910186768,4.143125534057617
-23.744625091552734,1.4375770092010498,4.092632293701172
-24.638599395751953,0.49993085861206055,4.239827632904053
-24.571807861328125,-0.4888903498649597,4.228302001953125
-24.473512649536133,-1.4720165729522705,4.2181501388549805
-19.175397872924805,-1.9289467334747314,3.3156871795654297
-24.00462532043457,-3.393516778945923,4.170937538146973
-24.317611694335938,-4.440654277801514,4.252901077270508
-24.977642059326172,-5.606529235839844,4.404214382171631
-24.748355865478516,-6.609678268432617,4.407078266143799
-24.50459861755371,-7.611480236053467,4.414597988128662
-24.245922088623047,-8.613457679748535,4.426807403564453
-24.16691017150879,-9.695452690124512,4.479928016662598
-23.87438201904297,-10.710689544677734,4.501889228820801
-23.565004348754883,-11.730852127075195,4.528820514678955
-23.237972259521484,-12.757634162902832,4.560858726501465
-22.892427444458008,-13.792709350585938,4.598156929016113
-22.52737808227539,-14.837848663330078,4.640906810760498
-22.141740798950195,-15.894936561584473,4.689318656921387
-21.734294891357422,-16.965862274169922,4.743648052215576
-21.131662368774414,-17.90699577331543,4.7654008865356445
-20.68000030517578,-19.003047943115234,4.8319268226623535
-20.20213508605957,-20.119415283203125,4.905306816101074
-18.470869064331055,-19.93606185913086,4.675774097442627
-18.16097068786621,-21.253957748413086,4.8097429275512695
-18.73590087890625,-23.799856185913086,5.211204528808594
-18.127408981323242,-25.03414535522461,5.31759786605835
-17.480470657348633,-26.303937911987305,5.433651447296143
-16.791744232177734,-27.613157272338867,5.560149192810059
-16.05740737915039,-28.966136932373047,5.697995185852051
-15.273143768310547,-30.36780548095703,5.848207473754883
-14.434040069580078,-31.82362937927246,6.011958122253418
-13.539504051208496,-33.35193634033203,6.192839622497559
-12.57278823852539,-34.935951232910156,6.387945652008057
-11.531844139099121,-36.59523010253906,6.6012372970581055
-10.408109664916992,-38.33897018432617,6.834779739379883
-8.605632781982422,-37.61611557006836,6.638874053955078
-7.534952163696289,-40.325374603271484,7.057867527008057
-6.107950687408447,-41.96244430541992,7.295523166656494
-4.813230514526367,-45.953765869140625,7.949377059936523
-3.1037850379943848,-48.29548263549805,8.326152801513672
-1.231480598449707,-51.3079948425293,8.829843521118164
0.8751449584960938,-54.06592559814453,9.303009033203125
3.220243453979492,-57.07025909423828,9.834291458129883
5.846266746520996,-60.364646911621094,10.434048652648926
8.806061744689941,-64.00321197509766,11.115193367004395
12.166888236999512,-68.0548324584961,11.894159317016602
14.145874977111816,-64.13343048095703,11.299070358276367
20.289976119995117,-77.11717987060547,13.719192504882812
13.093719482421875,-42.71292495727539,7.686092376708984
26.56696319580078,-75.67155456542969,13.79798412322998
33.31931686401367,-83.95152282714844,15.539453506469727
32.72517395019531,-73.67572784423828,13.86972713470459
22.072710037231445,-44.75503158569336,8.585417747497559
24.094945907592773,-44.277313232421875,8.672601699829102
25.409971237182617,-42.530208587646484,8.523601531982422
27.372539520263672,-41.89540100097656,8.609972953796387
56.96747970581055,-67.73388671875,15.22691535949707
33.40184020996094,49.46187973022461,10.268328666687012
29.78394889831543,48.16959762573242,9.74359130859375
37.14238357543945,80.30117797851562,15.221726417541504
7.850566387176514,69.94080352783203,12.108549118041992
4.138733386993408,57.70774841308594,9.953853607177734
1.7895231246948242,56.94632339477539,9.80218505859375
-0.4927833080291748,56.207088470458984,9.67054271697998
-2.718203544616699,55.486785888671875,9.557693481445312
-4.895782470703125,54.78246307373047,9.462629318237305
-7.360097408294678,56.59947967529297,9.819664001464844
-10.852682113647461,63.415443420410156,11.068946838378906
-14.392498016357422,67.63275909423828,11.896455764770508
-16.22429656982422,63.57720184326172,11.288688659667969
-13.768538475036621,46.132564544677734,8.282846450805664
-10.891066551208496,31.773555755615234,5.77871036529541
-20.763147354125977,53.46825408935547,9.868209838867188
-21.73894691467285,49.937137603759766,9.370231628417969
-22.296865463256836,46.06787109375,8.805292129516602
-23.185834884643555,43.36991882324219,8.460944175720215
-23.77336311340332,40.46969985961914,8.07508373260498
-24.286712646484375,37.78148651123047,7.727278709411621
-24.735206604003906,35.27837371826172,7.412726402282715
-25.126611709594727,32.93776321411133,7.127418518066406
-25.46743392944336,30.740581512451172,6.867977619171143
-25.5439510345459,28.426525115966797,6.57510232925415
-25.769163131713867,26.45745849609375,6.35414981842041
-25.986082077026367,24.61922264099121,6.158603191375732
-26.170372009277344,22.870576858520508,5.979539394378662
-26.324974060058594,21.202404022216797,5.81540060043335
-25.632169723510742,18.99871063232422,5.4891862869262695
-25.077476501464844,17.070690155029297,5.219213485717773
-25.953645706176758,16.18087387084961,5.26192569732666
-25.85594367980957,14.711700439453125,5.118062973022461
-25.649290084838867,13.259632110595703,4.967624664306641
-25.5848445892334,11.949357986450195,4.858173847198486
-25.689990997314453,10.76352596282959,4.792101860046387
-25.802738189697266,9.611526489257812,4.737227439880371
-24.1068058013916,7.892434120178223,4.364084243774414
-25.412498474121094,7.203433036804199,4.544355869293213
-25.261598587036133,6.075814723968506,4.47007942199707
-25.104978561401367,4.980674743652344,4.403376579284668
-24.942590713500977,3.9144599437713623,4.343782424926758
-24.18819236755371,2.8059167861938477,4.1893720626831055
-23.722620010375977,1.789820671081543,4.092963218688965
-24.66065788269043,0.8665394186973572,4.245370388031006
-24.597667694091797,-0.12441790103912354,4.231966972351074
-24.52437973022461,-1.110231876373291,4.223625183105469
-24.166170120239258,-2.0693254470825195,4.172881126403809
-19.011999130249023,-2.4006080627441406,3.2968993186950684
-24.028717041015625,-4.020485877990723,4.191479206085205
-15.714282989501953,-3.2831778526306152,2.761948823928833
-24.83467674255371,-6.2395477294921875,4.4054789543151855
-24.596309661865234,-7.241658687591553,4.411278247833252
-24.34320068359375,-8.243390083312988,4.421749114990234
-24.270784378051758,-9.321549415588379,4.473056793212891
-23.984317779541016,-10.335359573364258,4.493206024169922
-23.68124008178711,-11.353514671325684,4.518290996551514
-23.360820770263672,-12.377665519714355,4.548426151275635
-23.022228240966797,-13.409461975097656,4.583760738372803
-22.66450309753418,-14.450691223144531,4.624473571777344
-22.286598205566406,-15.503148078918457,4.6707682609558105
-21.887346267700195,-16.5687198638916,4.722884654998779
-21.292144775390625,-17.50697898864746,4.742494106292725
-20.84971046447754,-18.596147537231445,4.806589126586914
-20.381729125976562,-19.704734802246094,4.877391338348389
-19.244422912597656,-20.16258430480957,4.7953362464904785
-18.407310485839844,-20.906124114990234,4.792302131652832
-18.95842742919922,-23.360916137695312,5.17611026763916
-18.356386184692383,-24.574491500854492,5.277229309082031
-17.724018096923828,-25.83072853088379,5.389629364013672
-17.0511417388916,-27.124900817871094,5.512171745300293
-16.334110260009766,-28.461198806762695,5.645716667175293
-15.568817138671875,-29.844270706176758,5.791236877441406
-14.750582695007324,-31.279430389404297,5.949839115142822
-13.879158020019531,-32.7845344543457,6.125041484832764
-12.937948226928711,-34.3427734375,6.313889503479004
-11.925341606140137,-35.9732780456543,6.520243167877197
-10.833257675170898,-37.68466567993164,6.7460479736328125
-9.652290344238281,-39.486995697021484,6.993575572967529
-7.9272003173828125,-39.194854736328125,6.87982702255249
-6.511592864990234,-40.5098991394043,7.059005260467529
-5.351964473724365,-44.68777847290039,7.743265151977539
-3.7539572715759277,-47.41121292114258,8.18240737915039
-1.9394078254699707,-49.9179801940918,8.594633102416992
0.071571946144104,-53.020999908447266,9.122030258178711
2.324199676513672,-55.92983627319336,9.630773544311523
4.840941429138184,-59.111419677734375,10.203890800476074
7.670588970184326,-62.615821838378906,10.85329818725586
10.874459266662598,-66.50586700439453,11.593971252441406
14.530969619750977,-70.8615951538086,12.445093154907227
18.58465576171875,-75.14922332763672,13.318572998046875
23.6356201171875,-81.3916244506836,14.581528663635254
27.125930786132812,-81.09322357177734,14.711565971374512
32.04233932495117,-84.36318969726562,15.525947570800781
31.582195281982422,-74.04446411132812,13.849397659301758
21.26462173461914,-44.77922439575195,8.528592109680176
23.26353645324707,-44.302581787109375,8.608989715576172
24.694753646850586,-42.761436462402344,8.495577812194824
26.643287658691406,-42.13134002685547,8.576274871826172
28.63219451904297,-41.48773193359375,8.672576904296875
22.771799087524414,86.41151428222656,16.140045166015625
10.150897979736328,73.56258392333984,13.412397384643555
6.777272701263428,69.6914291381836,12.646684646606445
3.2638511657714844,57.44013977050781,10.391281127929688
0.9398918151855469,56.68685531616211,10.239897727966309
-1.3209507465362549,55.954566955566406,10.10904312133789
-3.528257131576538,55.240135192871094,9.997518539428711
-5.669792175292969,54.338294982910156,9.867585182189941
-9.2813138961792,63.94087219238281,11.669707298278809
-12.158876419067383,65.21380615234375,11.981563568115234
-14.319755554199219,62.70663070678711,11.617300033569336
-14.44489574432373,53.291751861572266,9.972604751586914
-16.525545120239258,52.514469146728516,9.94344425201416
-11.355600357055664,31.592798233032227,6.063536167144775
-20.248388290405273,49.93440628051758,9.73218059539795
-21.094623565673828,46.55731201171875,9.231821060180664
-22.022661209106445,43.83094787597656,8.859615325927734
-22.676834106445312,40.94503402709961,8.453731536865234
-23.25082015991211,38.268707275390625,8.087628364562988
-23.754671096801758,35.77565002441406,7.756315231323242
-7.856534957885742,10.858968734741211,2.4207937717437744
-24.58415412902832,31.25407600402832,7.18202018737793
-24.922813415527344,29.190685272216797,6.932514667510986
-25.01408576965332,27.019636154174805,6.650371551513672
-25.229188919067383,25.145675659179688,6.433586120605469
-25.447269439697266,23.40224266052246,6.244232177734375
-25.63332176208496,21.73905372619629,6.0705246925354
-25.790102005004883,20.1481990814209,5.911048889160156
-25.355695724487305,18.217262268066406,5.639060020446777
-24.82466697692871,16.364988327026367,5.37030029296875
-25.704940795898438,15.501066207885742,5.421537399291992
-25.56050682067871,14.045804977416992,5.2677154541015625
-25.399768829345703,12.656708717346191,5.125580787658691
-25.30189323425293,11.363075256347656,5.009596824645996
-25.381202697753906,10.194215774536133,4.940165042877197
-23.11607551574707,8.222336769104004,4.431363582611084
-24.74549674987793,7.696987152099609,4.680621147155762
-25.031330108642578,6.6958112716674805,4.679987907409668
-24.885360717773438,5.5961198806762695,4.606909275054932
-24.73314094543457,4.52659797668457,4.541369438171387
-24.574647903442383,3.4839892387390137,4.4829301834106445
-24.01717758178711,2.4255521297454834,4.359928607940674
-23.7786865234375,1.4396411180496216,4.302652359008789
-24.313373565673828,0.4933311939239502,4.392258167266846
-24.24833869934082,-0.4824579954147339,4.380476951599121
-24.156383514404297,-1.452942132949829,4.370870113372803
-19.23285675048828,-1.9347269535064697,3.491271734237671
-23.709123611450195,-3.351743221282959,4.324781894683838
-24.052927017211914,-4.392314910888672,4.416143417358398
-24.552356719970703,-5.5110697746276855,4.544860363006592
-24.326702117919922,-6.4970622062683105,4.5477681159973145
-24.086393356323242,-7.481579303741455,4.555395603179932
-23.831008911132812,-8.466058731079102,4.567778587341309
-23.751789093017578,-9.528912544250488,4.622288703918457
-23.46231460571289,-10.525824546813965,4.644555568695068
-23.1558837890625,-11.52718734741211,4.671858787536621
-22.831724166870117,-12.534605026245117,4.704331398010254
-22.489013671875,-13.549647331237793,4.742121696472168
-22.126773834228516,-14.573988914489746,4.785425186157227
-21.74395751953125,-15.609375953674316,4.8344502449035645
-21.339380264282227,-16.657596588134766,4.889444828033447
-20.74289321899414,-17.57754898071289,4.910727500915527
-20.294328689575195,-18.64865493774414,4.978002548217773
-19.81976890563965,-19.738611221313477,5.052167892456055
-18.436607360839844,-19.899076461791992,4.899562835693359
-17.71483612060547,-20.73183250427246,4.925271511077881
-18.362455368041992,-23.325469970703125,5.361729621887207
-17.758867263793945,-24.52518081665039,5.468968391418457
-17.117490768432617,-25.75773048400879,5.585845470428467
-16.435115814208984,-27.026691436767578,5.713126182556152
-15.708101272583008,-28.336017608642578,5.851684093475342
-14.932327270507812,-29.690168380737305,6.002509117126465
-14.103145599365234,-31.09407615661621,6.166723728179932
-13.220108985900879,-32.56517028808594,6.347938537597656
-12.267071723937988,-34.08647918701172,6.543072700500488
-11.24232292175293,-35.67646026611328,6.756053447723389
-9.421231269836426,-34.703758239746094,6.494884967803955
-8.603013038635254,-37.60466003417969,6.967431545257568
-7.19060754776001,-38.48255920410156,7.07081937789917
-6.150872230529785,-42.25733184814453,7.712731838226318
-4.667096138000488,-44.55854415893555,8.091961860656738
-3.0052311420440674,-46.761905670166016,8.463314056396484
-1.1803619861602783,-49.178916931152344,8.885004043579102
0.844495415687561,-52.172420501708984,9.42435073852539
3.1012821197509766,-54.961612701416016,9.942682266235352
5.617608070373535,-58.003562927246094,10.52532958984375
8.44010066986084,-61.34321975708008,11.183877944946289
11.627341270446777,-65.03695678710938,11.932892799377441
15.130624771118164,-68.59797668457031,12.687625885009766
19.258668899536133,-73.19750213623047,13.670498847961426
13.0862455368042,-42.6884880065918,8.064324378967285
26.55998992919922,-75.6517105102539,14.481460571289062
33.1844596862793,-83.61178588867188,16.247451782226562
32.7165412902832,-73.65631103515625,14.556730270385742
21.87445640563965,-44.35306167602539,8.93210220336914
23.23672866821289,-42.70024871826172,8.780292510986328
25.40313720703125,-42.518768310546875,8.945754051208496
27.365110397338867,-41.88401412963867,9.036381721496582
29.429790496826172,-41.3184928894043,9.162235260009766
56.89098358154297,-67.6429214477539,15.963897705078125
33.237342834472656,49.21830749511719,10.726707458496094
29.73186492919922,48.08536148071289,10.211031913757324
37.043418884277344,80.08723449707031,15.93734073638916
7.818173408508301,69.65227508544922,12.659235000610352
4.139915466308594,57.7242431640625,10.452635765075684
1.7900314331054688,56.96235275268555,10.293328285217285
-0.49293065071105957,56.22269821166992,10.155046463012695
-2.7189455032348633,55.502017974853516,10.036513328552246
-4.897101402282715,54.79735565185547,9.936661720275879
-8.122014999389648,62.45876693725586,11.375965118408203
-10.855578422546387,63.432430267333984,11.623401641845703
-13.764779090881348,64.6830825805664,11.944314956665039
-13.997051239013672,54.849430084228516,10.224109649658203
-13.756882667541504,46.093502044677734,8.688051223754883
-10.908698081970215,31.824979782104492,6.076366901397705
-18.93448829650879,48.75917434692383,9.447334289550781
-20.79540252685547,47.76969909667969,9.410008430480957
-21.549467086791992,44.52366638183594,8.934025764465332
-22.445234298706055,41.98461151123047,8.598661422729492
-23.047569274902344,39.23418426513672,8.21849536895752
-23.576250076293945,36.6762580871582,7.8748674392700195
-24.04024887084961,34.28720474243164,7.563316345214844
-24.447099685668945,32.047000885009766,7.280080795288086
-24.803115844726562,29.938720703125,7.021998405456543
-25.115718841552734,27.949970245361328,6.786893367767334
-25.139949798583984,25.811439514160156,6.507772445678711
-25.37063980102539,24.03615951538086,6.312241554260254
-25.568172454833984,22.34431266784668,6.132933616638184
-25.7354679107666,20.72760772705078,5.968354225158691
-25.875038146972656,19.178730010986328,5.817205905914307
-25.01498794555664,17.028160095214844,5.46552848815918
-24.9350643157959,15.545829772949219,5.30722188949585
-25.63904571533203,14.588288307189941,5.327919006347656
-25.441566467285156,13.152247428894043,5.172824859619141
-25.346073150634766,11.837844848632812,5.052565574645996
-25.334135055541992,10.614425659179688,4.961106300354004
-23.122028350830078,8.612956047058105,4.456511497497559
-24.117717742919922,7.896010398864746,4.583535194396973
-25.083656311035156,7.110214710235596,4.708974361419678
-24.939979553222656,5.998465538024902,4.632990837097168
-24.790071487426758,4.918196678161621,4.564722061157227
-24.633899688720703,3.866014242172241,4.503706455230713
-24.45644187927246,2.8370354175567627,4.44681978225708
-23.739465713500977,1.7910938262939453,4.299890518188477
-24.3347225189209,0.855086088180542,4.397923946380615
-24.273574829101562,-0.1227768063545227,4.3842244148254395
-24.201879501342773,-1.0956337451934814,4.375695705413818
-23.877384185791016,-2.04460072517395,4.3283867835998535
-19.068645477294922,-2.407762289047241,3.471428632736206
-23.756805419921875,-3.9749958515167236,4.350470066070557
-15.760481834411621,-3.2928290367126465,2.9080440998077393
-24.41170310974121,-6.133279800415039,4.546145439147949
-24.176851272583008,-7.118159770965576,4.552028656005859
-23.92708969116211,-8.102481842041016,4.562649726867676
-23.854522705078125,-9.161678314208984,4.615315914154053
-23.571130752563477,-10.157308578491211,4.635753631591797
-23.271039962768555,-11.156853675842285,4.661185264587402
-22.953519821166992,-12.161859512329102,4.6917314529418945
-22.617769241333008,-13.173883438110352,4.727537631988525
-22.262849807739258,-14.194601058959961,4.768784523010254
-21.88775634765625,-15.225707054138184,4.815670967102051
-21.491371154785156,-16.268962860107422,4.868427753448486
-20.902271270751953,-17.186416625976562,4.887554168701172
-20.462875366210938,-18.25112533569336,4.952382564544678
-19.998117446899414,-19.333860397338867,5.023958206176758
-19.23390769958496,-20.151569366455078,5.031442165374756
-18.291189193725586,-20.77424430847168,4.999272346496582
-18.58316421508789,-22.89851951599121,5.326377868652344
-17.985958099365234,-24.07858657836914,5.428290843963623
-17.35889434814453,-25.29859733581543,5.541524887084961
-16.69205093383789,-26.553672790527344,5.664870738983154
-15.981969833374023,-27.847623825073242,5.799155235290527
-15.224721908569336,-29.184673309326172,5.945323944091797
-14.415840148925781,-30.569589614868164,6.104454040527344
-13.55027961730957,-32.0076789855957,6.277771472930908
-12.626923561096191,-33.517181396484375,6.4690399169921875
-11.629517555236816,-35.08091354370117,6.675216197967529
-10.555459976196289,-36.71832275390625,6.900460720062256
-8.870607376098633,-36.28915786743164,6.747339725494385
-7.572715759277344,-37.4421501159668,6.899536609649658
-6.555866718292236,-40.785255432128906,7.460981369018555
-5.243404865264893,-43.78141784667969,7.964084625244141
-3.636749744415283,-45.93088912963867,8.32176399230957
-1.8739299774169922,-48.23273468017578,8.718122482299805
0.06910109519958496,-51.198970794677734,9.247306823730469
2.2400262355804443,-53.90453338623047,9.744362831115723
4.655617713928223,-56.848411560058594,10.302044868469238
7.358990669250488,-60.07229232788086,10.931058883666992
10.403867721557617,-63.62789535522461,11.644760131835938
13.858136177062988,-67.5804672241211,12.460029602050781
17.665552139282227,-71.43265533447266,13.29047679901123
20.985139846801758,-72.26444244384766,13.591222763061523
26.896865844726562,-80.40846252441406,15.313928604125977
28.496559143066406,-75.02762603759766,14.495625495910645
31.573898315429688,-74.02496337890625,14.53541374206543
21.074872970581055,-44.37966537475586,8.873513221740723
23.05589485168457,-43.90713119506836,8.957133293151855
24.68813133239746,-42.74997329711914,8.916349411010742
26.636077880859375,-42.11993408203125,9.001020431518555
28.624345779418945,-41.47637939453125,9.102060317993164
28.94480323791504,48.40338897705078,10.671001434326172
22.693153381347656,86.11306762695312,16.84973907470703
10.049715042114258,72.82942199707031,13.91064167022705
6.796088218688965,69.88485717773438,13.285298347473145
3.264779567718506,57.45651626586914,10.888895988464355
0.9401516914367676,56.702789306640625,10.730217933654785
-1.3213012218475342,55.9700927734375,10.593060493469238
-3.5292210578918457,55.25529098510742,10.47616958618164
-5.839846611022949,55.968109130859375,10.647222518920898
-9.283822059631348,63.95812225341797,12.228353500366211
-12.069474220275879,64.73432922363281,12.459447860717773
-13.668006896972656,59.85252380371094,11.616240501403809
-15.397086143493652,56.80464553833008,11.135847091674805
-16.518815994262695,52.49311065673828,10.412406921386719
-11.333454132080078,31.531192779541016,6.3397064208984375
-19.533750534057617,48.17204284667969,9.835494041442871
-20.3649845123291,44.946937561035156,9.336637496948242
-21.113910675048828,42.022281646728516,8.898248672485352
-21.984373092651367,39.694732666015625,8.58560848236084
-22.57068634033203,37.149269104003906,8.22467041015625
-23.08746337890625,34.77080535888672,7.897207260131836
-7.863645076751709,10.868795394897461,2.538292646408081
-23.943439483642578,30.439531326293945,7.327719688415527
-24.29679298400879,28.45745849609375,7.08000373840332
-24.604816436767578,26.577556610107422,6.85286808013916
-24.63279914855957,24.55125617980957,6.580431938171387
-24.863025665283203,22.864946365356445,6.391203880310059
-25.060813903808594,21.25351905822754,6.21737813949585
-25.228893280029297,19.709768295288086,6.057599067687988
-25.369647979736328,18.227296829223633,5.910671710968018
-24.763851165771484,16.32489585876465,5.61208438873291
-24.28227996826172,14.643142700195312,5.365203857421875
-25.29568099975586,13.900274276733398,5.46122407913208
-25.14380645751953,12.529160499572754,5.315392971038818
-25.025463104248047,11.238934516906738,5.190664291381836
-25.042415618896484,10.058137893676758,5.1061811447143555
-23.042272567749023,8.196084022521973,4.627425193786621
-24.756982803344727,7.700559616088867,4.905642032623291
-24.712562561035156,6.61053991317749,4.840267181396484
-24.57332992553711,5.525956630706787,4.765637397766113
-24.42738151550293,4.470640182495117,4.69867467880249
-24.27470588684082,3.441466808319092,4.638949871063232
-24.11528968811035,2.4354608058929443,4.5860676765441895
-23.895244598388672,1.4466946125030518,4.529500961303711
-23.99567985534668,0.4868852496147156,4.541159629821777
-23.932334899902344,-0.47617095708847046,4.5291337966918945
-23.85818099975586,-1.4350179433822632,4.522367000579834
-19.29084014892578,-1.9405597448349,3.668445110321045
-23.455785751342773,-3.3159244060516357,4.4821906089782715
-23.778963088989258,-4.342287063598633,4.573611259460449
-24.140090942382812,-5.41853141784668,4.681201934814453
-23.917966842651367,-6.3879008293151855,4.684146881103516
-23.681034088134766,-7.355669021606445,4.691869735717773
-23.428878784179688,-8.323201179504395,4.704405784606934
-23.34951400756836,-9.367523193359375,4.760244846343994
-23.06305694580078,-10.346707344055176,4.782786846160889
-22.759565353393555,-11.3298978805542,4.810421466827393
-22.438283920288086,-12.318604469299316,4.84328031539917
-22.09841537475586,-13.314313888549805,4.881513595581055
-21.73902130126953,-14.31859016418457,4.925308704376221
-21.359079360961914,-15.33308219909668,4.97487211227417
-20.957447052001953,-16.359455108642578,5.030450820922852
-20.3670654296875,-17.259077072143555,5.051214218139648
-19.921676635742188,-18.30622100830078,5.119146823883057
-19.450510025024414,-19.37087059020996,5.193994045257568
-18.426769256591797,-19.888463973999023,5.129992961883545
-17.60508918762207,-20.603403091430664,5.127699851989746
-18.009151458740234,-22.876670837402344,5.508810997009277
-17.40396499633789,-24.035058975219727,5.614737033843994
-16.768238067626953,-25.23219871520996,5.732283592224121
-16.092308044433594,-26.462966918945312,5.860174655914307
-15.372686386108398,-27.730958938598633,5.999261856079102
-14.60544204711914,-29.040220260620117,6.150504112243652
-13.786148071289062,-30.395179748535156,6.31498908996582
-12.909797668457031,-31.80082130432129,6.493951320648193
-11.975029945373535,-33.274986267089844,6.691261291503906
-10.187200546264648,-32.32815933227539,6.413331031799316
-9.394540786743164,-34.60542297363281,6.78468656539917
-8.122058868408203,-35.502349853515625,6.890953540802002
-7.237378120422363,-38.73283004760742,7.455483436584473
-6.010067939758301,-41.289981842041016,7.894813060760498
-4.529178142547607,-43.24175262451172,8.226532936096191
-2.9124739170074463,-45.31851577758789,8.59241008758545
-1.1409785747528076,-47.53775405883789,8.997218132019043
0.8158328533172607,-50.40192413330078,9.537806510925293
2.9904351234436035,-52.997562408447266,10.04362678527832
5.405535697937012,-55.813934326171875,10.609975814819336
8.102331161499023,-58.888404846191406,11.247254371643066
11.132226943969727,-62.26748275756836,11.968446731567383
14.4420747756958,-65.4763412475586,12.686574935913086
18.317726135253906,-69.62117767333984,13.621356010437012
13.07873249053955,-42.66401290893555,8.443254470825195
26.529499053955078,-75.56485748291016,15.1531982421875
29.624404907226562,-74.64183807373047,15.194660186767578
27.71474266052246,-62.395538330078125,12.918094635009766
6.785918235778809,-13.759251594543457,2.9027934074401855
23.47057342529297,-43.12997055053711,9.290706634521484
25.39628028869629,-42.507301330566406,9.368945121765137
27.357650756835938,-41.87260818481445,9.463831901550293
29.362110137939453,-41.223472595214844,9.57618522644043
57.7803955078125,-68.70044708251953,16.985055923461914
33.07395553588867,48.97637176513672,11.181943893432617
29.6798038482666,48.00117874145508,10.678234100341797
36.96928405761719,79.9269790649414,16.662372589111328
7.821125030517578,69.67839050292969,13.266653060913086
4.1411004066467285,57.74080276489258,10.95320987701416
1.790544033050537,56.97844696044922,10.786226272583008
-0.49306488037109375,56.238372802734375,10.64128303527832
-2.719702959060669,55.517303466796875,10.517038345336914
-4.898449897766113,54.812294006347656,10.412374496459961
-8.024848937988281,61.71146774291992,11.774749755859375
-10.858498573303223,63.449466705322266,12.179819107055664
-13.021443367004395,61.18994903564453,11.837011337280273
-13.67042350769043,53.569515228271484,10.46073055267334
-13.745209693908691,46.05439758300781,9.09378433227539
-17.884159088134766,52.17512893676758,10.435909271240234
-18.356624603271484,47.27111053466797,9.59488296508789
-20.063121795654297,46.08757019042969,9.51069164276123
-20.848514556884766,43.07542419433594,9.054757118225098
-21.748470306396484,40.6812744140625,8.728230476379395
-22.362794876098633,38.0684814453125,8.353800773620605
-22.904212951660156,35.630821228027344,8.014474868774414
-23.381372451782227,33.347469329833984,7.706084251403809
-23.801477432250977,31.20069694519043,7.425130367279053
-24.170730590820312,29.17540740966797,7.16861629486084
-24.495906829833984,27.26023292541504,6.934422016143799
-24.538982391357422,25.194421768188477,6.654499053955078
-24.781949996948242,23.47843360900879,6.459200859069824
-23.266033172607422,20.332448959350586,5.846310615539551
-25.170129776000977,20.27229118347168,6.1150383949279785
-25.320728302001953,18.767871856689453,5.963489532470703
-24.952625274658203,16.985698699951172,5.711350440979004
-24.94375228881836,15.551254272460938,5.561726093292236
-23.998430252075195,13.654799461364746,5.224320411682129
-25.199417114257812,13.027069091796875,5.367419242858887
-25.06363868713379,11.705924034118652,5.2340288162231445
-25.034822463989258,10.489027976989746,5.135802745819092
-23.098493576049805,8.604190826416016,4.663840293884277
-24.128684997558594,7.89959716796875,4.803840637207031
-24.762266159057617,7.019113540649414,4.869864463806152
-24.625530242919922,5.9228315353393555,4.792271137237549
-24.482046127319336,4.857086658477783,4.722536087036133
-24.331867218017578,3.8186111450195312,4.660184860229492
-24.174943923950195,2.804379463195801,4.6048173904418945
-23.995018005371094,1.8103771209716797,4.553005218505859
-24.01634407043457,0.8438998460769653,4.546940803527832
-23.95697593688965,-0.12117588520050049,4.532960891723633
-23.88681983947754,-1.0813695192337036,4.524257659912109
-23.60189437866211,-2.0210094451904297,4.48205041885376
-19.125802993774414,-2.4149789810180664,3.6475300788879395
-23.500747680664062,-3.9321517944335938,4.5083818435668945
-15.80709457397461,-3.302567481994629,3.0554449558258057
-24.001684188842773,-6.030263900756836,4.682503700256348
-23.7702693939209,-6.9984540939331055,4.68845796585083
-23.52378273010254,-7.965909957885742,4.69921350479126
-23.451093673706055,-9.006735801696777,4.7531890869140625
-23.170766830444336,-9.984784126281738,4.77387809753418
-22.873647689819336,-10.966331481933594,4.799616813659668
-22.55901527404785,-11.95283317565918,4.830533981323242
-22.226116180419922,-12.945764541625977,4.866762161254883
-21.874046325683594,-13.94670295715332,4.9084792137146
-21.501811981201172,-14.957234382629395,4.955887317657471
-21.108339309692383,-15.979007720947266,5.009213447570801
-20.65610122680664,-16.984010696411133,5.059846878051758
-20.089035034179688,-17.917688369750977,5.093279838562012
-19.627573013305664,-18.97563362121582,5.165530204772949
-19.13925552368164,-20.052398681640625,5.2449445724487305
-17.46369171142578,-19.834413528442383,5.000250816345215
-18.221424102783203,-22.4527645111084,5.471231937408447
-17.629138946533203,-23.600902557373047,5.573802471160889
-17.007474899291992,-24.786449432373047,5.687719345092773
-16.346771240234375,-26.004396438598633,5.8116984367370605
-15.64370346069336,-27.258214950561523,5.946548938751221
-14.894540786743164,-28.55173110961914,6.093180179595947
-14.095020294189453,-29.889265060424805,6.252639293670654
-13.240352630615234,-31.275590896606445,6.426103591918945
-12.329632759094238,-32.728050231933594,6.617336273193359
-11.347190856933594,-34.229278564453125,6.823123931884766
-9.697802543640137,-33.7348747253418,6.641491889953613
-8.51347541809082,-34.828182220458984,6.783871173858643
-7.580211162567139,-37.479248046875,7.235043048858643
-6.525764465332031,-40.597965240478516,7.780151844024658
-5.090839385986328,-42.50741958618164,8.100310325622559
-3.526309013366699,-44.53615951538086,8.4530668258667
-1.8144009113311768,-46.7005500793457,8.842888832092285
0.0667957067489624,-49.493080139160156,9.364601135253906
2.1615259647369385,-52.01535415649414,9.850322723388672
4.483452796936035,-54.74623489379883,10.393219947814941
7.070899486541748,-57.72056198120117,11.002962112426758
9.97107982635498,-60.981109619140625,11.691469192504883
13.136170387268066,-64.0597915649414,12.372980117797852
16.825265884399414,-68.034912109375,13.260703086853027
20.979639053344727,-72.24542999267578,14.234274864196777
23.85648536682129,-71.31916809082031,14.229257583618164
28.489059448242188,-75.00788116455078,15.181462287902832
26.878293991088867,-63.016143798828125,12.962590217590332
20.887948989868164,-43.98601150512695,9.213342666625977
22.767173767089844,-43.3572883605957,9.265888214111328
24.681499481201172,-42.73847579956055,9.33815860748291
26.628854751586914,-42.10850524902344,9.426812171936035
28.616504669189453,-41.46499252319336,9.532608032226562
57.05900573730469,-69.9227294921875,17.076072692871094
28.894092559814453,48.318572998046875,11.137734413146973
35.98101806640625,80.91985321044922,17.51980972290039
22.68820571899414,86.09423065185547,17.613740921020508
9.605303764343262,69.60875701904297,13.901366233825684
6.756067276000977,69.47319793701172,13.8088960647583
3.265719413757324,57.47296905517578,11.38836669921875
0.940422534942627,56.71877670288086,11.222363471984863
-1.321683645248413,55.98567199707031,11.078873634338379
-3.5301928520202637,55.27050018310547,10.956586837768555
-5.804017543792725,55.624717712402344,11.06412124633789
-9.286335945129395,63.975433349609375,12.78906536102295
-11.439291000366211,61.35431671142578,12.347050666809082
-13.106367111206055,57.39309310913086,11.646514892578125
-14.78952693939209,54.56316375732422,11.18387508392334
-16.32349967956543,51.87241744995117,10.758171081542969
-11.311326026916504,31.469633102416992,6.615670204162598
-18.508296966552734,45.643165588378906,9.743843078613281
-19.70209503173828,43.483890533447266,9.444347381591797
-20.45789909362793,40.71666717529297,9.01468276977539
-21.330955505371094,38.514949798583984,8.710052490234375
-21.92724609375,36.0902214050293,8.354317665100098
-22.454782485961914,33.81793975830078,8.030806541442871
-7.9555535316467285,10.995826721191406,2.6849822998046875
-23.333406448364258,29.663982391357422,7.466442108154297
-23.69782257080078,27.755908966064453,7.220149993896484
-24.017253875732422,25.94287109375,6.994048118591309
-24.06220245361328,23.982553482055664,6.720930099487305
-24.303279876708984,22.350189208984375,6.532011985778809
-21.759126663208008,18.45343017578125,5.644257068634033
-24.689931869506836,19.28870391845703,6.198339462280273
-24.840557098388672,17.847148895263672,6.0511322021484375
-24.965538024902344,16.457860946655273,5.915623664855957
-24.225366592407227,14.608819007873535,5.5965495109558105
-23.785093307495117,13.070184707641602,5.36910343170166
-24.876829147338867,12.396127700805664,5.498602867126465
-24.749736785888672,11.11510181427002,5.367408275604248
-24.756547927856445,9.943326950073242,5.277928352355957
-23.052419662475586,8.199700355529785,4.840430736541748
-24.526334762573242,7.628822326660156,5.08140754699707
-24.400842666625977,6.527156829833984,4.997004985809326
-24.268089294433594,5.45731258392334,4.920912742614746
-24.128162384033203,4.415879726409912,4.8526177406311035
-23.981098175048828,3.3998398780822754,4.791679382324219
-23.826887130737305,2.4063315391540527,4.737710952758789
-23.735937118530273,1.437049388885498,4.704339981079102
-23.685216903686523,0.48058581352233887,4.686671733856201
-23.623502731323242,-0.47002625465393066,4.6744208335876465
-23.55076026916504,-1.4165291786193848,4.667527675628662
-19.349355697631836,-1.9464448690414429,3.847252368927002
-23.216602325439453,-3.282118320465088,4.63865327835083
-23.46448516845703,-4.284855365753174,4.718786239624023
-23.74020767211914,-5.32877254486084,4.813448905944824
-23.521522521972656,-6.282017707824707,4.816424369812012
-23.287872314453125,-7.233546733856201,4.824235916137695
-23.038883209228516,-8.184654235839844,4.836911678314209
-22.959421157836914,-9.21102237701416,4.894021987915039
-22.67595863342285,-10.173046112060547,4.916808128356934
-22.37538719177246,-11.138651847839355,4.944738388061523
-22.056991577148438,-12.109275817871094,4.977939128875732
-21.719980239868164,-13.08630657196045,5.01656436920166
-21.363462448120117,-14.071226119995117,5.060791015625
-20.986440658569336,-15.065572738647461,5.1108293533325195
-20.587797164916992,-16.070903778076172,5.166921138763428
-20.003488540649414,-16.95098114013672,5.1871232986450195
-19.561363220214844,-17.97512435913086,5.255618572235107
-19.093669891357422,-19.015485763549805,5.331050872802734
-18.416919708251953,-19.87782859802246,5.360901832580566
-17.496366500854492,-20.476160049438477,5.328259468078613
-17.661880493164062,-22.435529708862305,5.648778915405273
-17.061912536621094,-23.562685012817383,5.7552266120910645
-16.431926727294922,-24.726123809814453,5.873295307159424
-15.762493133544922,-25.920610427856445,6.001649379730225
-15.050301551818848,-27.14940643310547,6.141105651855469
-14.29158878326416,-28.416181564331055,6.292598724365234
