0.24137309193611145,-31.026521682739258,2.45489239692688
1.4652482271194458,-30.527189254760742,2.4180874824523926
2.6538782119750977,-30.03064727783203,2.3852803707122803
3.8111133575439453,-29.535768508911133,2.3562400341033936
4.940529823303223,-29.041467666625977,2.330768346786499
6.045363903045654,-28.54667854309082,2.3087003231048584
7.054915428161621,-27.76006317138672,2.266192674636841
7.8754143714904785,-26.48259162902832,2.1859865188598633
8.551499366760254,-25.028636932373047,2.0926578044891357
10.277262687683105,-26.543128967285156,2.25201153755188
11.301329612731934,-26.0307674407959,2.2452731132507324
12.316610336303711,-25.51171112060547,2.2414028644561768
13.325366973876953,-24.9848690032959,2.2403740882873535
10.12530517578125,-17.275474548339844,1.5843031406402588
10.83394718170166,-16.890417098999023,1.5876502990722656
16.33450698852539,-23.345966339111328,2.254361152648926
17.339153289794922,-22.776004791259766,2.2648041248321533
17.96694564819336,-21.730735778808594,2.2308924198150635
17.91885757446289,-19.980615615844727,2.1234655380249023
17.875558853149414,-18.389299392700195,2.029083490371704
16.660194396972656,-15.815107345581055,1.817486047744751
10.504231452941895,-9.198071479797363,1.104689359664917
16.596038818359375,-13.393657684326172,1.6873481273651123
16.47763442993164,-12.23853874206543,1.6239718198776245
14.548048973083496,-9.924149513244629,1.393351435661316
19.68553352355957,-12.300018310546875,1.8365564346313477
21.672677993774414,-12.35983657836914,1.9739906787872314
18.94148063659668,-9.81567668914795,1.6879205703735352
26.72675132751465,-12.514850616455078,2.3349618911743164
31.778512954711914,-13.351394653320312,2.7272017002105713
25.953027725219727,-9.696704864501953,2.1920409202575684
34.508670806884766,-11.335644721984863,2.8738489151000977
33.29896926879883,-9.474431991577148,2.739175796508789
35.214935302734375,-8.506513595581055,2.8663363456726074
38.727806091308594,-7.723090648651123,3.12446928024292
40.42129898071289,-6.384552001953125,3.2377748489379883
42.64345932006836,-4.9894514083862305,3.396959066390991
44.58864974975586,-3.408423900604248,3.538137912750244
46.67921829223633,-1.6863667964935303,3.6956591606140137
48.93886184692383,0.19921272993087769,3.8720667362213135
51.3966064453125,2.275909423828125,4.070474624633789
50.211883544921875,4.24971866607666,3.9869601726531982
53.739463806152344,6.731689453125,4.285087585449219
60.363494873046875,10.03884220123291,4.841538906097412
64.07637023925781,13.3214750289917,5.178103923797607
64.78543853759766,16.208942413330078,5.283804893493652
72.43641662597656,21.249114990234375,5.972662448883057
71.92204284667969,24.276029586791992,6.005870819091797
71.34222412109375,27.319252014160156,6.044289588928223
70.7547836303711,30.406951904296875,6.093164443969727
77.94819641113281,41.20209503173828,6.9758124351501465
55.8967170715332,42.22707748413086,5.542667865753174
51.657012939453125,42.38838195800781,5.286973476409912
-96.97698974609375,-19.41217613220215,7.825016498565674
-95.62040710449219,-23.171398162841797,7.784435749053955
-94.21882629394531,-26.881511688232422,7.75205135345459
-66.30437469482422,-21.833383560180664,5.523087024688721
-64.06201171875,-23.988069534301758,5.4122633934021
-64.01097106933594,-26.948074340820312,5.495045185089111
-61.49848937988281,-28.851160049438477,5.37458610534668
-54.06873321533203,-28.068737030029297,4.819997787475586
-53.40913391113281,-30.510297775268555,4.866614818572998
-53.33851623535156,-33.381019592285156,4.978445053100586
-22.02402114868164,-15.04739761352539,2.1104114055633545
-20.059261322021484,-14.921335220336914,1.9780266284942627
-18.35282325744629,-14.833431243896484,1.867055892944336
-18.307695388793945,-16.054649353027344,1.926570177078247
-18.27313232421875,-17.371400833129883,1.9948140382766724
-17.949491500854492,-18.492115020751953,2.0389950275421143
-19.629549026489258,-21.920042037963867,2.328071355819702
-18.861255645751953,-22.84606170654297,2.3439908027648926
-18.28961181640625,-24.06060791015625,2.3912312984466553
-17.95154571533203,-25.696670532226562,2.480097770690918
-17.981773376464844,-28.078784942626953,2.6381006240844727
-17.91063690185547,-30.609344482421875,2.8059377670288086
-17.17057991027832,-32.250816345214844,2.89079213142395
-16.665307998657227,-34.58323669433594,3.037353038787842
-15.90916633605957,-36.71695327758789,3.166015148162842
-13.945883750915527,-36.095733642578125,3.061631441116333
-12.099451065063477,-35.496829986572266,2.9671740531921387
-10.356176376342773,-34.91718292236328,2.8815908432006836
-7.962253570556641,-31.425668716430664,2.56496262550354
-7.050163745880127,-33.41078567504883,2.7016704082489014
-5.5691237449646,-32.88047790527344,2.6385514736175537
-4.201222896575928,-32.74592590332031,2.612088918685913
-2.8245413303375244,-32.22785949707031,2.5596389770507812
-1.4993317127227783,-31.716957092285156,2.51224422454834
-0.2202095091342926,-31.21182632446289,2.4695358276367188
1.017714500427246,-30.711153030395508,2.431196451187134
2.2188923358917236,-30.21371078491211,2.396942615509033
3.3872621059417725,-29.71836280822754,2.366537570953369
4.526552677154541,-29.223976135253906,2.3397693634033203
5.640104293823242,-28.729488372802734,2.316460132598877
6.731040000915527,-28.233848571777344,2.2964630126953125
7.72152042388916,-27.449195861816406,2.2560694217681885
8.101648330688477,-24.91408348083496,2.0728037357330322
9.896469116210938,-26.730838775634766,2.2552287578582764
10.924367904663086,-26.220664978027344,2.2474260330200195
11.942621231079102,-25.704204559326172,2.2425012588500977
12.953537940979004,-25.180374145507812,2.2404212951660156
13.959333419799805,-24.648019790649414,2.2411811351776123
10.480916023254395,-16.886112213134766,1.5724568367004395
15.964290618896484,-23.553117752075195,2.2512431144714355
16.967824935913086,-22.98801040649414,2.2606041431427
17.97501564025879,-22.409297943115234,2.2729251384735107
17.936010360717773,-20.606761932373047,2.1614911556243896
17.89103889465332,-18.960044860839844,2.062544345855713
16.67333221435547,-16.304582595825195,1.8451042175292969
10.429587364196777,-9.40969181060791,1.1113982200622559
16.607078552246094,-13.814362525939941,1.7091197967529297
16.0595760345459,-12.301875114440918,1.6005823612213135
17.22049331665039,-12.125406265258789,1.6663535833358765
14.633737564086914,-9.448217391967773,1.378172755241394
20.905092239379883,-12.336637496948242,1.9205375909805298
23.08900260925293,-12.402909278869629,2.0736868381500244
25.65796661376953,-12.481789588928223,2.2575182914733887
31.298070907592773,-13.699307441711426,2.7031168937683105
25.52452850341797,-9.970582962036133,2.168107509613037
33.98704147338867,-11.725707054138184,2.8445799350738525
33.26539993286133,-10.000656127929688,2.7483201026916504
33.77629852294922,-8.6912841796875,2.759430408477783
38.127017974853516,-8.193230628967285,3.0854692459106445
39.78422164916992,-6.890348434448242,3.194580554962158
41.54417037963867,-5.486741065979004,3.3155102729797363
43.85466003417969,-4.007509231567383,3.484229326248169
45.88905334472656,-2.339905023574829,3.635448455810547
50.46403121948242,1.4849292039871216,3.994431972503662
48.85536193847656,3.4057910442352295,3.874810218811035
55.374488830566406,6.103581428527832,4.407751083374023
59.03193664550781,8.919547080993652,4.723613739013672
62.65262222290039,12.058743476867676,5.048037052154541
64.68458557128906,15.16772174835205,5.256649017333984
64.9592514038086,18.013530731201172,5.333518028259277
72.1441650390625,23.164636611938477,5.995062828063965
62.38347625732422,22.833375930786133,5.256004810333252
70.97268676757812,29.26109504699707,6.073880672454834
62.29545974731445,28.6630916595459,5.425507068634033
78.07051086425781,39.79630661010742,6.933152675628662
71.75965118408203,25.41314125061035,6.660224437713623
71.17720794677734,28.473844528198242,6.706997394561768
70.5864028930664,31.58326530456543,6.765508651733398
79.01870727539062,39.238887786865234,7.718684196472168
62.239315032958984,34.08942794799805,6.208509922027588
70.1356201171875,69.71065521240234,8.65146541595459
-77.23239135742188,-13.433732986450195,6.858410835266113
-95.42643737792969,-20.57870101928711,8.540655136108398
-94.04583740234375,-24.27241325378418,8.497564315795898
-69.90088653564453,-21.069683074951172,6.3873090744018555
-64.03201293945312,-22.143310546875,5.927588939666748
-63.98196029663086,-25.046493530273438,6.011318683624268
-63.911399841308594,-28.02945327758789,6.1056294441223145
-56.48795700073242,-27.530241012573242,5.497739315032959
-53.387882232666016,-28.728628158569336,5.304148197174072
-53.31853103637695,-31.5167179107666,5.418766021728516
-23.12409210205078,-14.953747749328613,2.4092581272125244
-21.031587600708008,-14.83170223236084,2.2515504360198975
-19.189971923828125,-14.721880912780762,2.1160495281219482
-18.30327606201172,-15.247767448425293,2.084186553955078
-18.269611358642578,-16.507068634033203,2.1541807651519775
-18.233102798461914,-17.855737686157227,2.2327167987823486
-17.926891326904297,-19.025646209716797,2.287036657333374
-19.20003318786621,-22.09129524230957,2.5606958866119385
-18.34851837158203,-22.908920288085938,2.5678887367248535
-18.11289405822754,-24.57659339904785,2.6710357666015625
-17.997142791748047,-26.593786239624023,2.8093619346618652
-17.921804428100586,-28.92107391357422,2.9766974449157715
-17.84495735168457,-31.562198638916016,3.172130823135376
-16.68592643737793,-32.49354553222656,3.1957316398620605
-16.58905601501465,-35.77252960205078,3.4498374462127686
-14.699899673461914,-35.35481643676758,3.3498575687408447
-12.853754997253418,-34.7958984375,3.2453107833862305
-11.111123085021973,-34.25309371948242,3.1504809856414795
-8.735311508178711,-31.139495849609375,2.8295164108276367
-7.690591335296631,-32.36261749267578,2.910209894180298
-6.320405006408691,-32.31855010986328,2.881070852279663
-4.9059953689575195,-31.825904846191406,2.8172950744628906
-3.591421127319336,-31.713546752929688,2.792310953140259
-2.2705628871917725,-31.227304458618164,2.7392470836639404
-0.9965649843215942,-30.74554443359375,2.6913001537323
0.23546576499938965,-30.26711654663086,2.648110866546631
1.4299088716506958,-29.79093360900879,2.609370470046997
2.5907185077667236,-29.315959930419922,2.574810266494751
3.721496343612671,-28.841217041015625,2.5441994667053223
4.825573444366455,-28.365745544433594,2.517335891723633
5.906012058258057,-27.888612747192383,2.4940521717071533
6.89353084564209,-27.12506866455078,2.4485740661621094
7.908587455749512,-26.594152450561523,2.4273874759674072
8.427403450012207,-24.665435791015625,2.280428171157837
10.045987129211426,-25.945789337158203,2.434169292449951
11.047740936279297,-25.44666862487793,2.427053928375244
12.040708541870117,-24.940217971801758,2.4229650497436523
13.026999473571777,-24.425432205200195,2.42187762260437
10.149003028869629,-17.315902709960938,1.7559807300567627
10.863394737243652,-16.936330795288086,1.7603557109832764
15.966540336608887,-22.820039749145508,2.436654567718506
16.946762084960938,-22.260587692260742,2.4476890563964844
17.93062973022461,-21.686800003051758,2.461874485015869
17.948848724365234,-20.014062881469727,2.352004289627075
17.904146194458008,-18.418710708618164,2.247297525405884
16.685741424560547,-15.839360237121582,2.012810230255127
10.539504051208496,-9.228954315185547,1.2256375551223755
16.61966323852539,-13.412718772888184,1.8684815168380737
16.345752716064453,-12.14058780670166,1.7813746929168701
14.54473876953125,-9.921892166137695,1.540380835533142
19.768936157226562,-12.352126121520996,2.0394182205200195
21.771394729614258,-12.416132926940918,2.1927266120910645
18.944690704345703,-9.817338943481445,1.8667765855789185
26.870868682861328,-12.582332611083984,2.5958621501922607
30.916540145874023,-12.989238739013672,2.933871269226074
26.035865783691406,-9.727655410766602,2.4316396713256836
33.52375411987305,-11.012114524841309,3.087128162384033
33.0948600769043,-9.416358947753906,3.0103440284729004
35.58491516113281,-8.59588623046875,3.2028210163116455
37.51747131347656,-7.481727123260498,3.3469839096069336
39.113731384277344,-6.1780195236206055,3.464430332183838
41.212242126464844,-4.821992874145508,3.6302003860473633
43.03212356567383,-3.2894411087036133,3.7758054733276367
44.97981643676758,-1.6249722242355347,3.937788724899292
47.07538604736328,0.19162708520889282,4.118595123291016
49.3432731628418,2.1849851608276367,4.321204662322998
51.302310943603516,4.341991424560547,4.5044169425964355
53.9846305847168,6.762388229370117,4.75995397567749
57.516658782958984,9.565399169921875,5.101161003112793
60.85490417480469,12.651735305786133,5.4379496574401855
64.61285400390625,16.1657657623291,5.827134132385254
62.84817123413086,18.436412811279297,5.7302045822143555
71.97301483154297,24.293231964111328,6.645842552185059
71.39310455322266,27.33873176574707,6.688384532928467
70.80564880371094,30.428813934326172,6.7425055503845215
51.627647399902344,42.364288330078125,5.842877388000488
65.54562377929688,68.53721618652344,8.296943664550781
-95.91943359375,-19.200481414794922,8.558341979980469
-94.55155181884766,-22.912385940551758,8.511605262756348
-93.18962860107422,-26.587871551513672,8.47838020324707
-64.05610656738281,-21.093048095703125,5.900200843811035
-64.00717163085938,-23.967531204223633,5.97961950302124
-63.93785095214844,-26.917299270629883,6.069336891174316
-59.22465515136719,-27.7844181060791,5.723341941833496
-53.41249465942383,-27.72806167602539,5.265141010284424
-53.34461212158203,-30.473447799682617,5.374876976013184
-23.972026824951172,-15.00248908996582,2.4741389751434326
-21.771970748901367,-14.875190734863281,2.3069310188293457
-19.843948364257812,-14.761167526245117,2.163774013519287
-18.164318084716797,-14.681077003479004,2.0433366298675537
-18.282352447509766,-16.032421112060547,2.1274023056030273
-18.24694061279297,-17.34650421142578,2.2026515007019043
-18.208412170410156,-18.758869171142578,2.287191390991211
-19.393177032470703,-21.656085968017578,2.543321371078491
-18.86251449584961,-22.847578048706055,2.5920968055725098
-18.25852394104004,-24.01970672607422,2.6396658420562744
-17.815738677978516,-25.50226402282715,2.7216806411743164
-17.947704315185547,-28.02559471130371,2.911616325378418
-17.87455177307129,-30.547670364379883,3.096480369567871
-17.212310791015625,-32.329185485839844,3.204332113265991
-16.62664031982422,-34.502994537353516,3.3508312702178955
-15.410385131835938,-35.56580352783203,3.39113712310791
-13.522635459899902,-35.000244140625,3.2827224731445312
-11.743230819702148,-34.45176315307617,3.184426784515381
-10.059832572937012,-33.917991638183594,3.095205783843994
-7.745161056518555,-30.56884002685547,2.758934497833252
-6.858488082885742,-32.502479553222656,2.906216859817505
-5.421169281005859,-32.00691223144531,2.8401269912719727
-4.091984748840332,-31.894445419311523,2.8132739067077637
-2.752528667449951,-31.40624237060547,2.7582249641418457
-1.4618027210235596,-30.92296600341797,2.7084314823150635
-0.21479177474975586,-30.443439483642578,2.6635210514068604
0.9930402040481567,-29.96654510498047,2.6231727600097656
2.165832757949829,-29.491233825683594,2.587099552154541
3.3072733879089355,-29.016529083251953,2.5550568103790283
4.420834541320801,-28.541446685791016,2.526829719543457
5.509660720825195,-28.06502914428711,2.5022428035736084
6.508552074432373,-27.30060386657715,2.4554338455200195
7.545670509338379,-26.824052810668945,2.437883138656616
7.91821813583374,-24.35000991821289,2.2401576042175293
9.673445701599121,-26.12842559814453,2.4375739097595215
10.679011344909668,-25.631746292114258,2.4293267726898193
11.67497444152832,-25.128128051757812,2.4241244792938232
12.663480758666992,-24.616539001464844,2.421931505203247
13.646660804748535,-24.095935821533203,2.422732353210449
10.507054328918457,-16.928226470947266,1.743118166923523
15.605132102966309,-23.023235321044922,2.433361530303955
16.584537506103516,-22.46873664855957,2.4432551860809326
17.566822052001953,-21.900405883789062,2.4562630653381348
17.966569900512695,-20.641868591308594,2.3941938877105713
17.920120239257812,-18.990869522094727,2.2844161987304688
16.69928741455078,-16.329967498779297,2.0434443950653076
10.445189476013184,-9.4237699508667,1.2307926416397095
16.631023406982422,-13.834280967712402,1.8926258087158203
15.984455108642578,-12.244327545166016,1.7616019248962402
17.08023452758789,-12.026649475097656,1.8276057243347168
14.674128532409668,-9.474291801452637,1.5281548500061035
20.997722625732422,-12.391301155090332,2.1330904960632324
23.199506759643555,-12.462267875671387,2.304001808166504
25.791706085205078,-12.54685115814209,2.5093159675598145
30.456439971923828,-13.330918312072754,2.908656597137451
25.571786880493164,-9.989047050476074,2.4018731117248535
33.02659606933594,-11.3943510055542,3.056576728820801
31.668046951293945,-9.520437240600586,2.8930904865264893
33.07098388671875,-8.509790420532227,2.9875905513763428
36.94989776611328,-7.940271854400635,3.306493043899536
38.51388168334961,-6.670332908630371,3.4196877479553223
40.169063568115234,-5.3051323890686035,3.544855833053589
42.34628677368164,-3.869671583175659,3.72025465965271
44.24464416503906,-2.256056308746338,3.8759326934814453
48.484130859375,1.4266691207885742,4.243645668029785
48.98843002319336,3.415067195892334,4.296332836151123
52.964080810546875,5.8378987312316895,4.661818504333496
56.374515533447266,8.518033981323242,4.988103866577148
59.05301284790039,11.365907669067383,5.261291027069092
63.17085647583008,14.812796592712402,5.676631450653076
64.74967193603516,17.95541000366211,5.878634929656982
71.91381072998047,23.090673446655273,6.6080169677734375
62.36425018310547,22.826345443725586,5.8101630210876465
71.02355194091797,29.282062530517578,6.721149444580078
62.36936950683594,28.697099685668945,6.006505012512207
78.03714752197266,39.779300689697266,7.6632232666015625
65.01626586914062,23.0250301361084,6.612409591674805
71.22821044921875,28.494247436523438,7.35476016998291
62.91315841674805,28.149930953979492,6.607697010040283
78.75699615478516,39.108951568603516,8.430087089538574
62.35340118408203,34.15190887451172,6.8157219886779785
32.65824890136719,21.464431762695312,3.746629476547241
32.31216812133789,23.147674560546875,3.810612916946411
70.08011627197266,69.65552520751953,9.47274112701416
-77.09910583496094,-13.410553932189941,7.502444267272949
-94.36463928222656,-20.3497257232666,9.254674911499023
-93.0259017944336,-24.00916862487793,9.210602760314941
-64.22352600097656,-19.358396530151367,6.430708408355713
-63.977787017822266,-22.124549865722656,6.489925384521484
-63.90955352783203,-25.01816177368164,6.579718589782715
-61.979286193847656,-27.182100296020508,6.488254547119141
-54.547794342041016,-26.584667205810547,5.817481994628906
-53.324222564697266,-28.694377899169922,5.805328845977783
-53.807594299316406,-31.805789947509766,5.992325782775879
-22.8505802154541,-14.776874542236328,2.6088263988494873
-20.798931121826172,-14.667631149291992,2.4399445056915283
-18.990331649780273,-14.568723678588867,2.294633150100708
-18.27845001220703,-15.227089881896973,2.28074312210083
-18.244001388549805,-16.48394012451172,2.357231616973877
-18.206613540649414,-17.82979965209961,2.4430453777313232
-18.16582489013672,-19.279224395751953,2.5395259857177734
-18.969709396362305,-21.826290130615234,2.772336959838867
-18.39914894104004,-22.972129821777344,2.821643352508545
-17.874591827392578,-24.253244400024414,2.8884010314941406
-17.92526626586914,-26.48757553100586,3.066192626953125
-17.887109756469727,-28.865074157714844,3.2555360794067383
-17.80814552307129,-31.497095108032227,3.46883487701416
-16.649032592773438,-32.421695709228516,3.494123935699463
-16.145259857177734,-34.81551742553711,3.6791863441467285
-14.257694244384766,-34.29126739501953,3.560331344604492
-12.478790283203125,-33.780860900878906,3.4524588584899902
-10.796205520629883,-33.28227233886719,3.354433059692383
-8.631254196166992,-30.768539428710938,3.0636346340179443
-7.589348316192627,-31.936601638793945,3.1470155715942383
-6.1543073654174805,-31.469192504882812,3.074094533920288
-4.7798380851745605,-31.00752830505371,3.007795572280884
-3.50093936920166,-30.91451644897461,2.9827094078063965
-2.214416980743408,-30.455102920532227,2.92742919921875
-0.9723407030105591,-29.998247146606445,2.8774328231811523
0.22983235120773315,-29.542966842651367,2.8323612213134766
1.3961822986602783,-29.088359832763672,2.7919020652770996
2.530409336090088,-28.633527755737305,2.755786418914795
3.6358702182769775,-28.177637100219727,2.7237772941589355
4.715697288513184,-27.719837188720703,2.695674180984497
5.7128682136535645,-26.976613998413086,2.64359712600708
6.7391510009765625,-26.517602920532227,2.623047351837158
7.748032569885254,-26.054241180419922,2.605919599533081
8.080337524414062,-23.649633407592773,2.395970106124878
9.824562072753906,-25.373929977416992,2.6085643768310547
10.804940223693848,-24.887405395507812,2.601102352142334
11.776515007019043,-24.39299774169922,2.5968174934387207
12.741301536560059,-23.88973617553711,2.5956778526306152
10.172857284545898,-17.35660171508789,1.9287179708480835
10.893122673034668,-16.982677459716797,1.9342677593231201
15.61427116394043,-22.316566467285156,2.6111643314361572
16.57122039794922,-21.767284393310547,2.6227309703826904
17.531028747558594,-21.203493118286133,2.6375882625579834
17.978984832763672,-20.04766273498535,2.5816433429718018
17.932865142822266,-18.448251724243164,2.466527223587036
16.711406707763672,-15.863723754882812,2.209019660949707
10.57505989074707,-9.260091781616211,1.3475786447525024
16.643390655517578,-13.43187141418457,2.050395965576172
16.21578598022461,-12.04405403137207,1.936499834060669
14.541427612304688,-9.919633865356445,1.6875572204589844
19.85316276550293,-12.404751777648926,2.24430513381958
21.87114906311035,-12.473027229309082,2.4137918949127197
18.947906494140625,-9.81900405883789,2.0459511280059814
27.01676368713379,-12.650646209716797,2.8599772453308105
30.098934173583984,-12.64572811126709,3.1298987865448
31.322498321533203,-11.70286750793457,3.205620765686035
30.616676330566406,-10.057188034057617,3.0895190238952637
31.02288246154785,-8.826827049255371,3.092197895050049
34.9461784362793,-8.441609382629395,3.4466381072998047
36.37891387939453,-7.254674911499023,3.5563042163848877
37.88637924194336,-5.984158515930176,3.677180290222168
39.872108459472656,-4.665191650390625,3.848599672317505
41.578575134277344,-3.1783289909362793,3.997750759124756
43.3975830078125,-1.5678117275238037,4.163224220275879
45.34619903564453,0.18458789587020874,4.347360134124756
47.44504928588867,2.1009297370910645,4.5529961585998535
49.22877502441406,4.166497707366943,4.736415386199951
51.68416976928711,6.474221229553223,4.9936652183532715
54.922630310058594,9.13399887084961,5.337721824645996
57.93781661987305,12.045269012451172,5.6732330322265625
61.3053092956543,15.338237762451172,6.058478832244873
62.60370635986328,18.364702224731445,6.254707336425781
64.9139633178711,21.91057777404785,6.568216323852539
71.44412231445312,27.358274459838867,7.3343400955200195
70.85665893554688,30.45073890686035,7.393730640411377
87.35070037841797,41.772613525390625,9.282587051391602
62.866756439208984,33.23029708862305,6.817194938659668
31.529796600341797,21.88678550720215,3.67964768409729
65.52236938476562,68.51288604736328,9.088522911071777
-94.88321685791016,-18.993061065673828,9.276875495910645
-93.52452087402344,-22.66351318359375,9.225666999816895
-69.51985168457031,-19.834665298461914,6.930800437927246
-64.002197265625,-21.07529067993164,6.459972858428955
-63.93511962890625,-23.940549850463867,6.545060157775879
-63.864803314208984,-26.886547088623047,6.64315128326416
-57.1099853515625,-26.792354583740234,6.047677040100098
-53.349273681640625,-27.69523811340332,5.762689113616943
-53.280155181884766,-30.436628341674805,5.882647514343262
-23.680953979492188,-14.820322036743164,2.6782305240631104
-21.5252742767334,-14.70663833618164,2.499281406402588
-19.632898330688477,-14.60417652130127,2.3458354473114014
-17.979379653930664,-14.531601905822754,2.2162811756134033
-18.257041931152344,-16.010229110717773,2.327969551086426
-18.22079086303711,-17.321638107299805,2.410196304321289
-18.18131446838379,-18.730945587158203,2.5025627613067627
-17.657419204711914,-19.71778678894043,2.537515878677368
-18.633495330810547,-22.570178985595703,2.8059206008911133
-18.09817886352539,-23.808773040771484,2.867130756378174
-17.948740005493164,-25.692651748657227,3.0046682357788086
-17.913719177246094,-27.972518920898438,3.1844935417175293
-17.83855628967285,-30.486156463623047,3.386277437210083
-17.25429344177246,-32.40804672241211,3.5198566913604736
-16.588098526000977,-34.423030853271484,3.663311719894409
-14.941274642944336,-34.483116149902344,3.602870225906372
-13.123749732971191,-33.96781921386719,3.4910852909088135
-11.406913757324219,-33.46509552001953,3.3895416259765625
-9.034078598022461,-30.459535598754883,3.0458779335021973
-7.7150702476501465,-30.450088500976562,3.0114831924438477
-6.676718711853027,-31.641027450561523,3.100214958190918
-5.280661582946777,-31.177391052246094,3.0315375328063965
-3.988131046295166,-31.084972381591797,3.0045342445373535
-2.6839990615844727,-30.62438201904297,2.9472031593322754
-1.4260478019714355,-30.166683197021484,2.89530086517334
-0.2096182107925415,-29.710927963256836,2.8484485149383545
0.9694966673851013,-29.256175994873047,2.8063206672668457
2.115178108215332,-28.801528930664062,2.768630266189575
3.2308688163757324,-28.346134185791016,2.735131025314331
4.319796085357666,-27.889141082763672,2.7056071758270264
5.329073429107666,-27.145151138305664,2.652071237564087
6.362398147583008,-26.687541961669922,2.6302287578582764
7.377401351928711,-26.225879669189453,2.6118533611297607
7.862553596496582,-24.178836822509766,2.437497138977051
8.687636375427246,-23.46571922302246,2.398879051208496
10.444087982177734,-25.067907333374023,2.603489875793457
11.418686866760254,-24.576520919799805,2.5980329513549805
12.38574504852295,-24.07663917541504,2.595733880996704
13.347264289855957,-23.567289352416992,2.5965726375579834
10.533374786376953,-16.97063446044922,1.9148868322372437
15.261300086975098,-22.51595687866211,2.607712745666504
16.217681884765625,-21.971712112426758,2.6180789470672607
17.17620277404785,-21.413419723510742,2.6317126750946045
17.997276306152344,-20.677148818969727,2.628031015396118
17.949344635009766,-19.02184295654297,2.507335662841797
16.725364685058594,-16.355466842651367,2.2426953315734863
10.460860252380371,-9.437908172607422,1.3507211208343506
16.655073165893555,-13.854287147521973,2.076930046081543
16.006799697875977,-12.26144790649414,1.9330551624298096
17.772424697875977,-12.5140380859375,2.083838701248169
14.71479606628418,-9.5005521774292,1.6791857481002808
21.091310501098633,-12.44653034210205,2.347846031188965
23.311233520507812,-12.522286415100098,2.5368733406066895
25.92705535888672,-12.612689971923828,2.7641282081604004
29.657730102539062,-12.981319427490234,3.1037068367004395
25.65278434753418,-10.020686149597168,2.6403000354766846
32.11768341064453,-11.080761909484863,3.2572014331817627
31.482316970825195,-9.464603424072266,3.1516425609588623
33.39876937866211,-8.594138145446777,3.3062353134155273
35.841705322265625,-7.702131748199463,3.5145723819732666
37.320465087890625,-6.463642120361328,3.6311631202697754
39.26753234863281,-5.186064720153809,3.7972521781921387
40.936248779296875,-3.7408201694488525,3.940894365310669
42.711875915527344,-2.1779000759124756,4.100091934204102
46.65116500854492,1.3727338314056396,4.474366188049316
48.85729217529297,3.4059107303619385,4.695296764373779
50.7516975402832,5.594041347503662,4.8950114250183105
53.88588333129883,8.142003059387207,5.224649429321289
56.78711700439453,10.929807662963867,5.544071197509766
28.406694412231445,6.6610107421875,2.7972099781036377
63.64539337158203,17.649187088012695,6.3319196701049805
64.81246185302734,20.81050682067871,6.525993824005127
62.34501266479492,22.819297790527344,6.364786624908447
71.0745620727539,29.303091049194336,7.37029504776001
62.443565368652344,28.731239318847656,6.589727401733398
78.03787231445312,39.779666900634766,8.397403717041016
64.80101013183594,22.948793411254883,7.167585849761963
71.22056579589844,28.491186141967773,7.9978837966918945
62.615352630615234,28.016685485839844,7.152254581451416
78.61051177978516,39.03620529174805,9.151176452636719
33.88481521606445,20.37006187438965,4.122215747833252
32.069297790527344,21.077354431152344,4.0012054443359375
30.343963623046875,21.737709045410156,3.8918352127075195
32.372074127197266,25.218368530273438,4.278532981872559
70.03675079345703,69.61238861083984,10.295791625976562
-7.180614471435547,7.888298988342285,1.1121931076049805
-76.966064453125,-13.38741397857666,8.145279884338379
-93.34588623046875,-20.13003158569336,9.956354141235352
-73.3117904663086,-18.921140670776367,7.894256114959717
-63.97231674194336,-19.282670974731445,6.966427326202393
-63.906341552734375,-22.09984016418457,7.0503034591674805
-63.83720016479492,-24.989830017089844,7.147736072540283
-59.689117431640625,-26.177711486816406,6.795630931854248
-53.32842254638672,-25.990392684936523,6.185428619384766
-53.26061248779297,-28.660144805908203,6.306113243103027
-53.74202346801758,-31.767030715942383,6.509072303771973
-22.583051681518555,-14.603870391845703,2.804037570953369
-20.571008682250977,-14.5068998336792,2.6245059967041016
-18.79449462890625,-14.418487548828125,2.4698147773742676
-18.25365447998047,-15.20643424987793,2.4770798683166504
-18.218421936035156,-16.46082305908203,2.5600368976593018
-18.180158615112305,-17.80388641357422,2.653097152709961
-18.13838768005371,-19.25010871887207,2.757714033126831
-17.61306381225586,-20.265361785888672,2.7994537353515625
-18.208982467651367,-22.734697341918945,3.0369906425476074
-17.955440521240234,-24.362945556640625,3.1555163860321045
-17.892532348632812,-26.439208984375,3.328577995300293
-17.852493286132812,-28.809232711791992,3.533740282058716
-17.77142906188965,-31.432172775268555,3.7647886276245117
-16.664466857910156,-32.451759338378906,3.803593635559082
-15.657732963562012,-33.76423263549805,3.8805091381073
-13.840664863586426,-33.28828430175781,3.7588183879852295
-12.124549865722656,-32.8218879699707,3.6481666564941406
-10.498183250427246,-32.36353302001953,3.54744291305542
-8.52947998046875,-30.40578269958496,3.2926008701324463
-7.3902082443237305,-31.098583221435547,3.3327603340148926
-5.996464729309082,-30.662090301513672,3.257514715194702
-4.659832000732422,-30.228986740112305,3.189023733139038
-3.4147634506225586,-30.153575897216797,3.164029598236084
-2.160900831222534,-29.719032287597656,3.1068062782287598
-0.9492325186729431,-29.28530502319336,3.055006742477417
0.22444766759872437,-28.85158920288086,3.0082743167877197
1.363966703414917,-28.4171142578125,2.966294765472412
2.47275972366333,-27.98113250732422,2.92879581451416
3.553968906402588,-27.54292106628418,2.8955438137054443
4.61053466796875,-27.10173225402832,2.8663337230682373
5.586583614349365,-26.380252838134766,2.8115105628967285
6.591311454772949,-25.93584442138672,2.7901363372802734
7.579124450683594,-25.486303329467773,2.772317409515381
7.90510892868042,-23.136781692504883,2.5492544174194336
9.61235523223877,-24.82588005065918,2.7756946086883545
10.572216033935547,-24.35137367248535,2.767928123474121
11.523271560668945,-23.868453979492188,2.7634618282318115
12.46743106842041,-23.37624168395996,2.7622761726379395
10.196874618530273,-17.397581100463867,2.1025495529174805
10.923136711120605,-17.02947425842285,2.1094295978546143
15.276692390441895,-21.83407974243164,2.778404712677002
16.211406707763672,-21.29464340209961,2.790435791015625
17.14824867248535,-20.74053192138672,2.805903434753418
18.009267807006836,-20.081436157226562,2.812419891357422
17.96172332763672,-18.477941513061523,2.686814308166504
16.7371883392334,-15.888195037841797,2.4061484336853027
10.610918998718262,-9.291488647460938,1.4705417156219482
16.667221069335938,-13.451102256774902,2.233123302459717
17.400793075561523,-12.924201965332031,2.259962320327759
14.53810977935791,-9.917369842529297,1.8349024057388306
19.938249588012695,-12.457915306091309,2.451277256011963
21.97199058532715,-12.530538558959961,2.6372478008270264
18.982654571533203,-9.837010383605957,2.229175567626953
27.164485931396484,-12.719818115234375,3.127406120300293
29.32225227355957,-12.319416046142578,3.3161165714263916
30.495208740234375,-11.393769264221191,3.394225597381592
29.382781982421875,-9.651864051818848,3.224618673324585
30.16008758544922,-8.581336975097656,3.2694218158721924
33.946170806884766,-8.200044631958008,3.6411614418029785
35.30575180053711,-7.040665149688721,3.7536001205444336
36.7319221496582,-5.801811695098877,3.8772945404052734
38.61444091796875,-4.518039226531982,4.053558349609375
40.2179069519043,-3.0743184089660645,4.205513954162598
41.92060852050781,-1.5144538879394531,4.373661994934082
43.7370719909668,0.17803823947906494,4.560238838195801
45.68476867675781,2.022982120513916,4.767942428588867
47.31340026855469,4.004390239715576,4.950718879699707
49.568511962890625,6.209202289581299,5.208600997924805
52.54890441894531,8.739225387573242,5.554200172424316
55.283565521240234,11.493450164794922,5.887328624725342
58.315425872802734,14.590201377868652,6.267604827880859
61.707298278808594,18.10173797607422,6.704964637756348
65.19574737548828,22.005691528320312,7.174343109130859
64.97462463378906,24.88088607788086,7.254230976104736
70.9078369140625,30.47273063659668,8.0469331741333
80.988525390625,38.730106353759766,9.360072135925293
62.68501663208008,33.13422775268555,7.392673969268799
32.72848892211914,20.821977615356445,4.044459342956543
30.97120475769043,21.499019622802734,3.9309372901916504
32.233734130859375,24.350923538208008,4.212038040161133
51.612152099609375,45.94219207763672,7.204407215118408
65.60796356201172,68.60237884521484,9.897225379943848
-93.82927703857422,-18.782094955444336,9.977093696594238
-92.51797485351562,-22.41959571838379,9.925481796264648
-63.91594314575195,-18.23581314086914,6.930060863494873
-63.93104553222656,-21.051864624023438,7.017796039581299
-63.86311340332031,-23.913593292236328,7.110130786895752
-62.6539421081543,-26.376806259155273,7.087839603424072
-55.13811492919922,-25.86727523803711,6.350115776062012
-53.28609848022461,-27.662443161010742,6.2598490715026855
-53.76936721801758,-30.716062545776367,6.456479072570801
-23.396404266357422,-14.64224624633789,2.877737283706665
-21.283720016479492,-14.541603088378906,2.6876163482666016
-19.425966262817383,-14.450244903564453,2.524348020553589
-17.797889709472656,-14.38491153717041,2.3860080242156982
-18.231760025024414,-15.98806381225586,2.5283010005950928
-18.19466781616211,-17.296812057495117,2.61747407913208
-18.154253005981445,-18.70306968688965,2.717636823654175
-18.0255126953125,-20.12883758544922,2.8172311782836914
-18.409622192382812,-22.299009323120117,3.014941453933716
-17.864500045776367,-23.50136375427246,3.077915668487549
-17.9166202545166,-25.64667320251465,3.2619099617004395
-17.87980842590332,-27.919570922851562,3.4567718505859375
-17.80265235900879,-30.42479705810547,3.675366163253784
-17.296554565429688,-32.4874267578125,3.8374314308166504
-16.356626510620117,-33.94269561767578,3.9284791946411133
-14.499176979064941,-33.46281814575195,3.802401065826416
-12.747149467468262,-32.99306106567383,3.687811851501465
-11.088829040527344,-32.53190612792969,3.5835394859313965
-8.743358612060547,-29.479368209838867,3.2059760093688965
-7.685166835784912,-30.332019805908203,3.2624711990356445
-6.504057884216309,-30.82279396057129,3.2844796180725098
-5.147054195404053,-30.388559341430664,3.2135603427886963
-3.889265298843384,-30.31438446044922,3.1866064071655273
-2.6187005043029785,-29.87933349609375,3.1272833347320557
-1.3919477462768555,-29.44539451599121,3.0735244750976562
-0.20468509197235107,-29.011756896972656,3.024958372116089
0.9470142722129822,-28.577661514282227,2.9812564849853516
2.066772699356079,-28.142314910888672,2.942133903503418
3.1577887535095215,-27.70501708984375,2.907341718673706
4.223128318786621,-27.26502227783203,2.8766603469848633
5.210894584655762,-26.543184280395508,2.820324659347534
6.222437858581543,-26.100486755371094,2.797607898712158
7.216230869293213,-25.652931213378906,2.7784881591796875
7.8931145668029785,-24.27281951904297,2.6612284183502197
8.567913055419922,-23.14235496520996,2.572972059249878
10.218936920166016,-24.52750587463379,2.770406723022461
11.173029899597168,-24.047792434692383,2.7647292613983154
12.119511604309082,-23.559112548828125,2.7623331546783447
13.060266494750977,-23.060548782348633,2.7632107734680176
10.559885025024414,-17.01334571838379,2.087796211242676
14.931780815124512,-22.029787063598633,2.774808406829834
15.866143226623535,-21.49544906616211,2.785597324371338
16.801992416381836,-20.946903228759766,2.799791097640991
17.741147994995117,-20.38287925720215,2.817460775375366
17.97870635986328,-19.052946090698242,2.7313361167907715
16.751562118530273,-16.38108253479004,2.4428842067718506
10.476604461669922,-9.452113151550293,1.4712014198303223
16.679231643676758,-13.874382972717285,2.2620630264282227
16.8472900390625,-12.9052734375,2.2126996517181396
17.833473205566406,-12.55702018737793,2.274083137512207
14.755757331848145,-9.526998519897461,1.8312996625900269
21.185882568359375,-12.502344131469727,2.564875364303589
23.424226760864258,-12.582983016967773,2.772374391555786
26.064041137695312,-12.679328918457031,3.022035837173462
28.898672103881836,-12.649078369140625,3.2890772819519043
25.734426498413086,-10.052576065063477,2.880622386932373
29.53318977355957,-10.18911361694336,3.257356882095337
31.298473358154297,-9.409334182739258,3.4075841903686523
33.459442138671875,-8.609763145446777,3.602261543273926
34.796443939208984,-7.477511882781982,3.7108378410339355
36.19706344604492,-6.269076347351074,3.8302323818206787
38.04493713378906,-5.02459716796875,4.001161098480225
39.61504364013672,-3.6200859546661377,4.147631645202637
41.27954864501953,-2.1048645973205566,4.309561729431152
44.94913864135742,1.3226503133773804,4.688605785369873
46.99011993408203,3.275747299194336,4.9112677574157715
48.71360778808594,5.3693952560424805,5.109832763671875
47.23786544799805,7.137500762939453,4.981114387512207
54.24216079711914,10.439985275268555,5.759294033050537
28.29933738708496,6.635838031768799,3.0306355953216553
60.40835952758789,16.751541137695312,6.5361008644104
64.06795501708984,20.57146453857422,7.015885353088379
62.3463249206543,22.819782257080078,6.922228813171387
71.12572479248047,29.324182510375977,8.021403312683105
70.5324935913086,32.45308303833008,8.09510326385498
78.07318115234375,39.79766082763672,9.136809349060059
33.40056228637695,20.55991554260254,4.089367389678955
62.719886779785156,22.21177864074707,7.496903896331787
64.85810089111328,25.945938110351562,7.870800495147705
62.60373306274414,28.01148223876953,7.727647304534912
77.6014175415039,38.535118103027344,9.76226806640625
35.12797927856445,19.240131378173828,4.512770652770996
33.265708923339844,19.997873306274414,4.373281478881836
31.5002498626709,20.703351974487305,4.2471795082092285
29.82000160217285,21.362348556518555,4.133090019226074
28.38603973388672,22.113182067871094,4.054285049438477
70.00558471679688,69.5813980102539,11.121196746826172
-7.160601615905762,7.866316318511963,1.1985424757003784
-9.678827285766602,9.81032657623291,1.5527732372283936
-76.83325958251953,-13.364315032958984,8.787010192871094
-92.3471908569336,-19.914661407470703,10.644224166870117
-73.59947204589844,-18.995384216308594,8.564409255981445
-63.901676177978516,-19.261384963989258,7.519958972930908
-63.83492660522461,-22.075145721435547,7.610396385192871
-63.7648811340332,-24.961519241333008,7.715453624725342
-57.55860900878906,-25.24334716796875,7.081578731536865
-53.2659912109375,-25.959957122802734,6.6764607429504395
-53.711891174316406,-28.902971267700195,6.872447490692139
-24.578449249267578,-14.528385162353516,3.2169535160064697
-22.321256637573242,-14.434579849243164,2.99505615234375
-20.347644805908203,-14.349382400512695,2.80537748336792
-18.602325439453125,-14.271061897277832,2.6417176723480225
-18.228879928588867,-15.185787200927734,2.6732254028320312
-18.19287109375,-16.437734603881836,2.7626240253448486
-18.15373420715332,-17.778013229370117,2.862903594970703
-18.110986709594727,-19.221017837524414,2.975623846054077
-18.008445739746094,-20.720277786254883,3.093141794204712
-17.990867614746094,-22.46237564086914,3.242612838745117
-17.92435646057129,-24.320777893066406,3.4041075706481934
-17.85986328125,-26.390939712524414,3.5904619693756104
-17.817949295043945,-28.753482818603516,3.811351776123047
-17.734800338745117,-31.36737823486328,4.060037612915039
-16.705148696899414,-32.53096008300781,4.120388984680176
-15.198023796081543,-32.77291488647461,4.070350646972656
-13.446686744689941,-32.3406982421875,3.946343183517456
-11.78927993774414,-31.91431999206543,3.833381175994873
-10.215700149536133,-31.492700576782227,3.7303898334503174
-7.97410249710083,-28.42593765258789,3.3264682292938232
-7.200932025909424,-30.30207633972168,3.509305000305176
-5.846250534057617,-29.8940486907959,3.4320566654205322
-4.545500755310059,-29.487329483032227,3.361666679382324
-3.3325886726379395,-29.4279727935791,3.336930751800537
-2.109816789627075,-29.016504287719727,3.2780075073242188
-0.927161455154419,-28.60430335998535,3.2246265411376953
0.21930938959121704,-28.19071388244629,3.176427125930786
1.3331491947174072,-27.775068283081055,3.1331005096435547
2.4175820350646973,-27.356746673583984,3.094377040863037
3.4755423069000244,-26.93513298034668,3.060023546218872
4.509805679321289,-26.509584426879883,3.029827117919922
5.465545177459717,-25.8087215423584,2.972435712814331
6.449559211730957,-25.37811851501465,2.9503254890441895
7.41717004776001,-24.941667556762695,2.9318838119506836
7.880340576171875,-23.06427574157715,2.746218681335449
8.662495613098145,-22.37266731262207,2.7031543254852295
10.348926544189453,-23.837060928344727,2.9279894828796387
11.280288696289062,-23.36514663696289,2.9233648777008057
12.20464038848877,-22.88351058959961,2.9221348762512207
10.221060752868652,-17.438846588134766,2.2775089740753174
10.953461647033691,-17.076745986938477,2.2858831882476807
14.952855110168457,-21.371234893798828,2.9388339519500732
15.866289138793945,-20.841312408447266,2.9512922763824463
16.78120994567871,-20.296606063842773,2.967299699783325
17.69936752319336,-19.735864639282227,2.98694109916687
17.990724563598633,-18.507774353027344,2.9081926345825195
16.76309585571289,-15.912786483764648,2.6042284965515137
10.647079467773438,-9.323155403137207,1.5945576429367065
16.691164016723633,-13.470420837402344,2.4166905879974365
17.46681022644043,-12.973237991333008,2.4514949321746826
14.534789085388184,-9.915104866027832,1.9824341535568237
20.02420997619629,-12.511629104614258,2.6603949069976807
22.07395362854004,-12.588683128356934,2.863166332244873
19.042625427246094,-9.86808967590332,2.416569709777832
27.314085006713867,-12.789871215820312,3.398242950439453
28.583389282226562,-12.008993148803711,3.4932637214660645
29.70917320251465,-11.100081443786621,3.573423147201538
29.41690444946289,-9.663078308105469,3.4887328147888184
30.278701782226562,-8.615087509155273,3.5469961166381836
33.00019836425781,-7.971536159515381,3.8251729011535645
34.292388916015625,-6.838580131530762,3.9399032592773438
35.64390563964844,-5.629959583282471,4.065891265869141
37.43169403076172,-4.379653453826904,4.246307849884033
38.941349029541016,-2.9767353534698486,4.4004340171813965
40.538543701171875,-1.464524269104004,4.57057523727417
42.235721588134766,0.1719263792037964,4.7588605880737305
44.04767990112305,1.9504897594451904,4.967844009399414
45.53852844238281,3.854172468185425,5.149302959442139
47.61600875854492,5.964623928070068,5.406963348388672
50.368202209472656,8.37656307220459,5.7530670166015625
52.85784149169922,10.989140510559082,6.08298397064209
55.564781188964844,13.901992797851562,6.453624248504639
58.6423454284668,17.2026424407959,6.885836124420166
62.052452087402344,20.944725036621094,7.379164218902588
65.23834991455078,24.981874465942383,7.871099472045898
65.03246307373047,27.947782516479492,7.97537899017334
75.48128509521484,36.0964469909668,9.42714786529541
62.50399398803711,33.038543701171875,7.965829372406006
33.94133377075195,19.724531173706055,4.423142910003662
32.141578674316406,20.448583602905273,4.292272567749023
30.431116104125977,21.124116897583008,4.173893451690674
28.799327850341797,21.756404876708984,4.066765785217285
32.28737258911133,26.494171142578125,4.705923080444336
51.681514739990234,46.00393295288086,7.795909404754639
65.69393157958984,68.69226837158203,10.709455490112305
-9.68155288696289,10.108755111694336,1.5770982503890991
-10.019108772277832,9.653180122375488,1.5675987005233765
-94.10905456542969,-14.934368133544922,10.73622989654541
-92.82334899902344,-18.580730438232422,10.666157722473145
-91.53116607666016,-22.180469512939453,10.611571311950684
-66.19491577148438,-18.88602638244629,7.756000518798828
-63.85993957519531,-21.0284481048584,7.575350761413574
-63.7911491394043,-23.88664436340332,7.6749067306518555
-60.325035095214844,-25.39635467529297,7.374768257141113
-53.29477310180664,-25.00249481201172,6.632843494415283
-53.222965240478516,-27.629667282104492,6.756694793701172
-53.704341888427734,-30.67892074584961,6.968758583068848
-23.118144989013672,-14.468098640441895,3.0728421211242676
-21.047119140625,-14.37995433807373,2.872087001800537
-19.223005294799805,-14.29926872253418,2.6994357109069824
-17.75777816772461,-14.35249137878418,2.572628974914551
-18.206506729125977,-15.965911865234375,2.7284250259399414
-18.168577194213867,-17.272008895874023,2.824519634246826
-18.127225875854492,-18.67522430419922,2.9324429035186768
-18.0819091796875,-20.19181251525879,3.0539674758911133
-18.190690994262695,-22.033815383911133,3.219353675842285
-17.94635581970215,-23.60903549194336,3.341390609741211
-17.88456153869629,-25.600784301757812,3.518676280975342
-17.845966339111328,-27.866724014282227,3.7284908294677734
-17.766828536987305,-30.363569259643555,3.9637937545776367
-17.339099884033203,-32.56733322143555,4.157121658325195
-15.870641708374023,-32.9341926574707,4.119170188903809
-14.081803321838379,-32.499542236328125,3.9907796382904053
-12.39095401763916,-32.07113265991211,3.8738739490509033
-10.787490844726562,-31.647869110107422,3.767315626144409
-8.643950462341309,-29.144189834594727,3.4251487255096436
-7.655440330505371,-30.214733123779297,3.511958360671997
-6.339826583862305,-30.044498443603516,3.459750175476074
-5.019828796386719,-29.63738250732422,3.3868939876556396
-3.79502010345459,-29.579824447631836,3.3601651191711426
-2.5564043521881104,-29.16847801208496,3.299098014831543
-1.359391212463379,-28.756624221801758,3.243712902069092
-0.19997012615203857,-28.343610763549805,3.1936380863189697
0.9255151748657227,-27.928794860839844,3.1485486030578613
2.020451307296753,-27.511537551879883,3.1081552505493164
3.0878262519836426,-27.091222763061523,3.0722126960754395
4.130529403686523,-26.667205810546875,3.04050350189209
5.097651481628418,-25.966350555419922,2.981553077697754
