15.932445526123047,-16.678997039794922,2.017998456954956
15.93674087524414,-15.394864082336426,1.9385844469070435
15.941023826599121,-14.206382751464844,1.868119478225708
14.736388206481934,-12.10661506652832,1.6685622930526733
14.740362167358398,-11.149029731750488,1.6169543266296387
14.744363784790039,-10.247660636901855,1.5709302425384521
8.798110961914062,-5.604567050933838,0.9126460552215576
14.994902610778809,-8.725749969482422,1.5178364515304565
15.466240882873535,-8.186707496643066,1.5309948921203613
16.391817092895508,-7.850564956665039,1.590088963508606
12.977426528930664,-5.5860090255737305,1.2360919713974
21.108314514160156,-8.097125053405762,1.9779495000839233
17.310176849365234,-5.853960037231445,1.5987038612365723
36.361473083496094,-10.689523696899414,3.315828561782837
35.56851577758789,-8.921008110046387,3.208220958709717
34.79467010498047,-7.254899024963379,3.109600067138672
29.39694595336914,-4.906445503234863,2.607475757598877
30.69350242614746,-3.862945556640625,2.706516742706299
32.020591735839844,-2.728839874267578,2.811595916748047
31.315481185913086,-1.4049791097640991,2.74250864982605
30.444578170776367,1.082101821899414,2.6652400493621826
29.75385093688965,2.2569830417633057,2.610605239868164
29.06948471069336,3.3840830326080322,2.5604262351989746
28.390361785888672,4.467322826385498,2.5143985748291016
27.71546173095703,5.510239124298096,2.4722487926483154
27.043792724609375,6.516037940979004,2.4337360858917236
26.3743953704834,7.487622261047363,2.398648500442505
25.518678665161133,8.366114616394043,2.349515914916992
24.61869239807129,9.181838035583496,2.2987844944000244
23.961950302124023,10.05095386505127,2.2733538150787354
23.303966522216797,10.895597457885742,2.2506678104400635
22.64389991760254,11.717607498168945,2.230616569519043
20.18229866027832,11.494325637817383,2.032007932662964
19.052257537841797,11.88892650604248,1.9647692441940308
20.995237350463867,14.304326057434082,2.2226333618164062
20.30697250366211,15.064441680908203,2.212104320526123
19.612293243408203,15.809083938598633,2.2038843631744385
18.910282135009766,16.53946304321289,2.1979384422302246
18.19999885559082,17.256736755371094,2.194249153137207
17.48048973083496,17.961992263793945,2.192793369293213
16.73504066467285,18.638790130615234,2.1915276050567627
15.99285888671875,19.320249557495117,2.194281816482544
15.240167617797852,19.994762420654297,2.19952392578125
14.473898887634277,20.6611328125,2.207033157348633
13.707192420959473,21.342586517333984,2.219169855117798
12.909163475036621,21.995933532714844,2.2313365936279297
9.737168312072754,18.23154067993164,1.8082925081253052
11.25904369354248,23.28653335571289,2.2629477977752686
10.40381908416748,23.925399780273438,2.2825424671173096
9.526237487792969,24.56103515625,2.304781198501587
8.624441146850586,25.194175720214844,2.329775333404541
7.696392059326172,25.82561492919922,2.3576502799987793
6.0060505867004395,23.57550811767578,2.1284713745117188
5.638388633728027,26.548683166503906,2.374514579772949
4.637945175170898,27.167221069335938,2.411210775375366
3.5042924880981445,27.034048080444336,2.3849613666534424
2.5782716274261475,28.982868194580078,2.5456860065460205
1.4390677213668823,29.62189292907715,2.5946366786956787
0.2530553638935089,30.26515007019043,2.647952079772949
-0.9840158224105835,30.913633346557617,2.705963373184204
-2.2769386768341064,31.568397521972656,2.769052267074585
-3.6310033798217773,32.23054122924805,2.837644577026367
-4.802104473114014,31.272693634033203,2.7680752277374268
-5.978700160980225,30.6657657623291,2.73342227935791
-6.631708145141602,27.979047775268555,2.5156712532043457
-9.155970573425293,32.71219253540039,2.971938133239746
-10.602697372436523,32.75050354003906,3.0117099285125732
-11.484347343444824,31.144506454467773,2.9041342735290527
-12.675339698791504,30.53554916381836,2.892533779144287
-12.953146934509277,27.9746150970459,2.6970973014831543
-14.998224258422852,29.2488956451416,2.875762939453125
-16.91524887084961,29.958492279052734,3.009962797164917
-17.972246170043945,29.040199279785156,2.987881898880005
-18.01294708251953,26.65052032470703,2.81424880027771
-16.464460372924805,22.367115020751953,2.4298644065856934
-10.685659408569336,13.357427597045898,1.496553897857666
-11.09875202178955,12.785080909729004,1.4812238216400146
-28.32323455810547,30.094205856323242,3.6155879497528076
-30.537561416625977,29.940317153930664,3.7415754795074463
-30.573293685913086,27.656089782714844,3.6068105697631836
-30.606033325195312,25.5268611907959,3.486783027648926
-16.673648834228516,12.806855201721191,1.8393988609313965
-30.60512924194336,21.609718322753906,3.2777953147888184
-30.901546478271484,20.00867462158203,3.2207858562469482
-21.918434143066406,12.973237037658691,2.2283401489257812
-37.21169662475586,20.05191421508789,3.6981844902038574
-66.42394256591797,32.42042541503906,6.466603755950928
-66.46674346923828,29.196226119995117,6.351367473602295
-32.98617935180664,12.934935569763184,3.099867105484009
-38.49140548706055,13.335986137390137,3.563955783843994
-44.0621452331543,13.309231758117676,4.026959419250488
-42.068721771240234,10.88361644744873,3.801713705062866
-84.98519134521484,18.37871742248535,7.607120037078857
-78.99794006347656,-8.603063583374023,6.952286720275879
-96.95537567138672,-14.52016830444336,8.577095031738281
-97.45218658447266,-18.624652862548828,8.68027400970459
-65.93901824951172,-24.037145614624023,6.140270709991455
-90.71980285644531,-37.26401901245117,8.580445289611816
-24.877138137817383,-11.407051086425781,2.3943662643432617
-22.331279754638672,-11.346634864807129,2.1914682388305664
-20.171234130859375,-11.290708541870117,2.0224061012268066
-20.03063201904297,-12.29395866394043,2.0562033653259277
-24.626182556152344,-16.512006759643555,2.593999147415161
-24.892831802368164,-18.18170166015625,2.696904420852661
-25.012874603271484,-19.85810661315918,2.7941477298736572
-56.562232971191406,-67.3074722290039,7.691831588745117
-24.71117401123047,-20.843116760253906,3.0992422103881836
-24.632587432861328,-22.53118324279785,3.200408458709717
-24.764463424682617,-24.550235748291016,3.3430802822113037
-24.90096092224121,-26.752910614013672,3.503870725631714
-23.04715347290039,-26.847415924072266,3.392155408859253
-21.157432556152344,-26.749475479125977,3.2696635723114014
-19.557373046875,-26.878997802734375,3.186814069747925
-27.304086685180664,-48.98893737792969,5.376767635345459
-24.78387451171875,-48.99786376953125,5.2641377449035645
-22.3627872467041,-49.005558013916016,5.164198398590088
-20.488330841064453,-50.138916015625,5.192636013031006
-21.476795196533203,-59.2505989074707,6.041985034942627
10.66610336303711,-78.86017608642578,7.629138469696045
12.76687240600586,-72.36808013916016,7.045039653778076
15.60214614868164,-71.51483917236328,7.017371654510498
18.64289093017578,-71.52278137207031,7.085971832275391
17.418073654174805,-57.287654876708984,5.740396022796631
14.784086227416992,-42.4209098815918,4.306782245635986
15.607361793518066,-39.58892822265625,4.079672813415527
17.2391414642334,-39.052391052246094,4.092497825622559
14.432744979858398,-29.434066772460938,3.1428093910217285
15.795239448547363,-29.184823989868164,3.181434154510498
15.93371868133545,-26.80868148803711,2.9898266792297363
8.417291641235352,-12.947946548461914,1.4805587530136108
9.1265287399292,-12.875738143920898,1.513035774230957
14.72895622253418,-19.103961944580078,2.3126327991485596
15.806096076965332,-18.88102149963379,2.3606646060943604
15.95001220703125,-17.568016052246094,2.2748372554779053
15.953490257263184,-16.212539672851562,2.180609703063965
15.957038879394531,-14.963282585144043,2.0971741676330566
14.255146026611328,-12.329447746276855,1.8068937063217163
14.75400161743164,-11.758872032165527,1.8087431192398071
14.757506370544434,-10.821624755859375,1.754420280456543
8.805680274963379,-5.92837381362915,1.0176904201507568
8.89858341217041,-5.484714508056641,1.0021333694458008
15.111393928527832,-8.495976448059082,1.6619919538497925
15.482765197753906,-7.903666019439697,1.666546106338501
12.832585334777832,-5.913512706756592,1.3545981645584106
19.59760284423828,-8.093143463134766,2.0327203273773193
22.001306533813477,-8.067328453063965,2.246582269668579
17.364912033081055,-5.586786270141602,1.7488092184066772
34.248435974121094,-9.51869010925293,3.4078335762023926
23.836217880249023,-5.603907585144043,2.3474740982055664
32.8747673034668,-6.347206115722656,3.209888458251953
26.439697265625,-4.0106682777404785,2.5637612342834473
31.010089874267578,-3.4363062381744385,2.9911253452301025
30.364809036254883,-2.134526491165161,2.9182493686676025
21.598485946655273,-0.6481204628944397,2.071570873260498
21.697795867919922,0.2209630310535431,2.080268383026123
28.947986602783203,1.4591792821884155,2.778759002685547
28.311323165893555,2.5705087184906006,2.725362777709961
27.677444458007812,3.6389663219451904,2.676265239715576
27.045583724975586,4.667890548706055,2.6311872005462646
26.414981842041016,5.660301685333252,2.5898847579956055
25.784912109375,6.618953227996826,2.552137851715088
25.154664993286133,7.546351909637451,2.5177509784698486
24.32712745666504,8.377161026000977,2.466639995574951
23.48995018005371,9.160067558288574,2.417141914367676
22.865596771240234,9.992531776428223,2.392301321029663
22.238317489624023,10.802248001098633,2.37019419670105
21.607418060302734,11.590834617614746,2.3507187366485596
19.623538970947266,11.564972877502441,2.1837079524993896
18.184921264648438,11.726066589355469,2.0744032859802246
17.071609497070312,12.005757331848145,2.000849723815918
19.35826301574707,14.810896873474121,2.336735963821411
18.687244415283203,15.526379585266113,2.3292016983032227
18.008020401000977,16.228078842163086,2.3239850997924805
17.319753646850586,16.917051315307617,2.321063995361328
16.62157440185547,17.594249725341797,2.320411205291748
15.912546157836914,18.260570526123047,2.3220417499542236
15.17577838897705,18.89702033996582,2.323532819747925
14.442902565002441,19.543460845947266,2.329740285873413
13.710509300231934,20.202667236328125,2.340728282928467
12.947930335998535,20.833751678466797,2.3516321182250977
12.169090270996094,21.457887649536133,2.364949941635132
9.400836944580078,18.248180389404297,1.9679510593414307
10.557372093200684,22.688173294067383,2.3990638256073
9.721604347229004,23.295635223388672,2.420016288757324
8.863808631896973,23.89885902404785,2.4436867237091064
7.982250213623047,24.49846076965332,2.4701874256134033
6.182437896728516,21.928970336914062,2.1842780113220215
6.01826286315918,25.17918586730957,2.48191499710083
5.072685241699219,25.759878158569336,2.5170185565948486
4.0954484939575195,26.339452743530273,2.5554964542388916
3.0839951038360596,26.91849136352539,2.597548246383667
2.0768609046936035,28.056859970092773,2.6971616744995117
0.9658997654914856,28.64495849609375,2.747744083404541
-0.18931245803833008,29.238792419433594,2.8031721115112305
-1.3929996490478516,29.834741592407227,2.8633623123168945
-2.649439573287964,30.433483123779297,2.9286839962005615
-3.963487386703491,31.0357723236084,2.9995548725128174
-5.340490818023682,31.642358779907227,3.0764458179473877
-6.650731563568115,31.608749389648438,3.0966713428497314
-8.141773223876953,32.21281051635742,3.1853466033935547
-9.186208724975586,31.038654327392578,3.10325288772583
-10.730880737304688,31.541858673095703,3.1941146850585938
-11.556684494018555,29.963655471801758,3.0788588523864746
-12.770546913146973,29.5203800201416,3.0835769176483154
-12.946600914001465,26.906339645385742,2.862582206726074
-13.118599891662598,24.674713134765625,2.6791062355041504
-16.28605842590332,27.870134353637695,3.0946455001831055
-17.96034049987793,28.081270217895508,3.195685386657715
-15.62256145477295,22.39056396484375,2.6174380779266357
-16.674591064453125,21.962507247924805,2.6436290740966797
-10.678138732910156,12.94942569732666,1.6090986728668213
-26.938344955444336,30.116891860961914,3.873776912689209
-29.211944580078125,30.130077362060547,4.023282527923584
-30.515954971313477,29.043874740600586,4.038799285888672
-30.551721572875977,26.823240280151367,3.8976571559906006
-16.222383499145508,13.127107620239258,2.0006399154663086
-30.614723205566406,22.800771713256836,3.6595804691314697
-30.64265251159668,20.961997985839844,3.559305191040039
-31.99592399597168,20.049962997436523,3.6199400424957275
-35.091827392578125,20.073486328125,3.8757688999176025
-38.666259765625,20.101369857788086,4.177921772003174
-27.87091827392578,13.095020294189453,2.9522061347961426
-66.4212646484375,28.008262634277344,6.910764217376709
-66.46166229248047,24.93071174621582,6.8051862716674805
-70.791015625,23.356407165527344,7.146561145782471
-75.9395980834961,21.714019775390625,7.572079181671143
-55.00896072387695,13.364015579223633,5.427089214324951
-66.14864349365234,13.28117561340332,6.468206882476807
-95.52791595458984,-7.959489822387695,9.189964294433594
-95.50980377197266,-11.837442398071289,9.22655200958252
-95.99909210205078,-15.836522102355957,9.327789306640625
-96.51084899902344,-19.93320083618164,9.44775104522705
-74.22564697265625,-18.467912673950195,7.332940101623535
-65.8482437133789,-19.223188400268555,6.576351642608643
-65.86763763427734,-22.13671112060547,6.661790370941162
-65.88645935058594,-25.13148307800293,6.760419845581055
-25.90048599243164,-11.09074592590332,2.701143503189087
-23.205141067504883,-11.059906005859375,2.4644293785095215
-20.930620193481445,-11.028656005859375,2.268127918243408
-20.007526397705078,-11.592193603515625,2.216808557510376
-20.01253318786621,-12.69538402557373,2.2720787525177
-24.325315475463867,-16.838716506958008,2.8362905979156494
-24.564708709716797,-18.50706672668457,2.948575496673584
-24.661653518676758,-20.18291664123535,3.055140972137451
-24.779266357421875,-21.999208450317383,3.1767120361328125
-24.715282440185547,-23.784923553466797,3.288438320159912
-24.849966049194336,-25.91630744934082,3.442209482192993
-23.779918670654297,-26.883560180664062,3.44092059135437
-21.839778900146484,-26.78565788269043,3.3133304119110107
-20.156530380249023,-26.855785369873047,3.2191643714904785
-28.26253318786621,-48.985313415527344,5.421793460845947
-25.702072143554688,-48.994720458984375,5.3041839599609375
-23.2459774017334,-49.00285720825195,5.199686527252197
-21.245046615600586,-49.865089416503906,5.196349143981934
-19.921628952026367,-52.514991760253906,5.3846821784973145
11.712579727172852,-72.67797088623047,7.057514190673828
14.558502197265625,-71.83229064941406,7.026551723480225
17.229907989501953,-70.36294555664062,6.944972991943359
20.416301727294922,-70.91201782226562,7.074468612670898
15.919610023498535,-47.95700454711914,4.844319820404053
14.925932884216309,-39.571067810058594,4.054564476013184
16.552873611450195,-39.05599594116211,4.0666913986206055
14.719141960144043,-31.179950714111328,3.3055484294891357
15.288667678833008,-29.27827262878418,3.1665453910827637
15.932587623596191,-27.735509872436523,3.066490888595581
8.2792329788208,-13.158721923828125,1.4904505014419556
8.781744003295898,-12.787256240844727,1.4871636629104614
14.34121322631836,-19.182960510253906,2.2961883544921875
15.403637886047363,-18.964906692504883,2.3423211574554443
15.746170043945312,-17.86910057067871,2.283323287963867
15.952199935913086,-16.699676513671875,2.2140543460845947
15.955718040466309,-15.41319465637207,2.126821279525757
15.959315299987793,-14.222685813903809,2.049426555633545
14.752730369567871,-12.120039939880371,1.8304294347763062
14.756203651428223,-11.161011695861816,1.773754358291626
14.759757041931152,-10.258359909057617,1.7232143878936768
8.80705738067627,-5.610267162322998,1.0010899305343628
14.752313613891602,-8.584580421447754,1.636328101158142
15.750370025634766,-8.337101936340332,1.7084755897521973
16.95649528503418,-8.121010780334473,1.8024344444274902
12.971832275390625,-5.583601474761963,1.353920340538025
21.05717658996582,-8.077510833740234,2.162177085876465
17.338151931762695,-5.863419055938721,1.7546824216842651
34.50700759887695,-10.144347190856934,3.4481594562530518
33.810455322265625,-8.480059623718262,3.341789722442627
33.12519454956055,-6.906800270080566,3.2439894676208496
28.81264877319336,-4.808924198150635,2.8004679679870605
30.491968154907227,-3.837580919265747,2.9463143348693848
30.602285385131836,-2.6079702377319336,2.9444658756256104
21.812366485595703,-0.9786134362220764,2.093247175216675
29.183914184570312,1.0372934341430664,2.799621820449829
28.5460262298584,2.1653637886047363,2.7445614337921143
27.91121482849121,3.2492449283599854,2.6939101219177246
27.2786922454834,4.292398452758789,2.64737868309021
26.647708892822266,5.2979559898376465,2.6047093868255615
26.01753044128418,6.268766403198242,2.565673828125
25.387428283691406,7.207425117492676,2.5300676822662354
24.75670051574707,8.116302490234375,2.497710943222046
23.719871520996094,8.846609115600586,2.427027702331543
23.096424102783203,9.687906265258789,2.4011495113372803
22.470304489135742,10.505826950073242,2.3780453205108643
21.840822219848633,11.302032470703125,2.357609510421753
20.49151611328125,11.670431137084961,2.2607791423797607
19.071754455566406,11.90108871459961,2.1551883220672607
17.473915100097656,11.905195236206055,2.027076482772827
19.604103088378906,14.543039321899414,2.3401081562042236
18.935903549194336,15.26386833190918,2.3317129611968994
18.25980567932129,15.970529556274414,2.3256490230560303
17.57497215270996,16.664106369018555,2.3218729496002197
16.880558013916016,17.34552574157715,2.3203916549682617
16.175642013549805,18.01576805114746,2.3211750984191895
15.44306755065918,18.656070709228516,2.3218226432800293
14.71504020690918,19.305809020996094,2.327179193496704
13.988213539123535,19.967832565307617,2.337284564971924
13.231298446655273,20.601608276367188,2.347327709197998
12.458605766296387,21.22822380065918,2.359748363494873
9.747175216674805,18.250272750854492,1.9835529327392578
10.860705375671387,22.462678909301758,2.391996383666992
10.032670021057129,23.071868896484375,2.4119696617126465
9.183192253112793,23.676593780517578,2.434624671936035
8.310624122619629,24.277450561523438,2.460066556930542
6.353052616119385,21.317981719970703,2.132573127746582
5.984684467315674,23.491636276245117,2.3240702152252197
5.425365447998047,25.545637130737305,2.5036749839782715
4.460108280181885,26.12555503845215,2.540884494781494
3.461601734161377,26.704721450805664,2.5815916061401367
2.4765048027038574,27.83892822265625,2.679448366165161
1.3809727430343628,28.426103591918945,2.7284154891967773
0.24264384806156158,29.019325256347656,2.782170534133911
-0.9426559209823608,29.614408493041992,2.840561628341675
-2.179105281829834,30.212053298950195,2.903942346572876
-3.4712975025177,30.812942504882812,2.972712993621826
-4.8243937492370605,31.417856216430664,3.047323703765869
-6.119351387023926,31.387216567993164,3.06573748588562
-7.582184314727783,31.98906898498535,3.151749610900879
-9.123786926269531,32.597206115722656,3.245187282562256
-9.435038566589355,29.143753051757812,2.9367728233337402
-11.251941680908203,30.51422691345215,3.1179354190826416
-12.260598182678223,29.536420822143555,3.0659146308898926
-12.927962303161621,27.92022132873535,2.949719190597534
-13.283360481262207,25.904619216918945,2.7909398078918457
-15.617476463317871,27.660009384155273,3.0452499389648438
-17.472251892089844,28.232301712036133,3.1830198764801025
-15.419329643249512,22.813188552856445,2.6398088932037354
-16.170591354370117,21.9678897857666,2.61510968208313
-10.671463012695312,13.339681625366211,1.6377372741699219
-11.112072944641113,12.80042839050293,1.6250666379928589
-28.358501434326172,30.131681442260742,3.96687650680542
-30.501911163330078,29.905359268188477,4.095213413238525
-30.53888511657715,27.624963760375977,3.947878122329712
-30.572731018066406,25.49909782409668,3.816643714904785
-16.677907943725586,12.8101224899292,2.016120195388794
-30.573762893676758,21.587574005126953,3.588111400604248
-30.953317642211914,20.04219627380371,3.5352351665496826
-21.919099807739258,12.973631858825684,2.4418787956237793
-37.283302307128906,20.090499877929688,4.060250759124756
-27.483295440673828,13.414141654968262,2.9319047927856445
-66.4057388305664,29.16943359375,6.953411102294922
-33.058780670166016,12.96340560913086,3.4042952060699463
-38.45644760131836,13.323873519897461,3.90181827545166
-44.06362533569336,13.309676170349121,4.412869930267334
-42.10893630981445,10.894028663635254,4.1698808670043945
-85.36117553710938,18.460031509399414,8.372722625732422
-96.83201599121094,16.900876998901367,9.423593521118164
-95.32666015625,-10.38129997253418,9.192968368530273
-95.81954193115234,-14.350066184997559,9.288630485534668
-96.29685974121094,-18.403852462768555,9.399035453796387
-65.26749420166016,-18.00724220275879,6.490952968597412
-65.86053466796875,-21.052215576171875,6.628751754760742
-65.87957000732422,-24.015460968017578,6.722411155700684
-90.60810852050781,-37.21814727783203,9.390833854675293
-24.14500617980957,-11.071342468261719,2.5465190410614014
-21.728261947631836,-11.040238380432129,2.336555242538452
-19.728635787963867,-11.042962074279785,2.1675164699554443
-20.010698318481445,-12.281723976135254,2.250934600830078
-19.519758224487305,-13.088112831115723,2.253079414367676
-24.52543830871582,-17.91335678100586,2.911639451980591
-24.621150970458984,-19.547109603881836,3.0138630867004395
-24.739355087280273,-21.315921783447266,3.130704879760742
-24.666690826416016,-23.043224334716797,3.2361316680908203
-24.799678802490234,-25.107383728027344,3.383269786834717
-24.533283233642578,-26.919706344604492,3.4917519092559814
-22.539875030517578,-26.821809768676758,3.358799695968628
-20.684328079223633,-26.723819732666016,3.2397758960723877
-24.31029510498047,-20.50498390197754,3.315931558609009
-24.249969482421875,-22.181203842163086,3.4265713691711426
-24.36292839050293,-24.152177810668945,3.5768487453460693
-24.47812271118164,-26.298622131347656,3.7459633350372314
-22.703153610229492,-26.446701049804688,3.6341073513031006
-20.852886199951172,-26.364431381225586,3.504770517349243
-20.02549934387207,-27.522371292114258,3.548811197280884
-27.276386260986328,-48.93925476074219,5.841624736785889
-24.759252548217773,-48.94921112060547,5.71937894821167
-22.341014862060547,-48.95781707763672,5.610905647277832
-20.240392684936523,-49.532188415527344,5.5789642333984375
-20.7594051361084,-57.27146911621094,6.35153341293335
10.734625816345215,-79.36690521240234,8.350461959838867
12.507489204406738,-70.89783477783203,7.506244659423828
15.945612907409668,-73.08919525146484,7.799822807312012
18.468717575073242,-70.85460662841797,7.634426593780518
16.387067794799805,-53.8967399597168,5.873496055603027
14.822641372680664,-42.53153991699219,4.696099758148193
15.592508316040039,-39.55124282836914,4.4326653480529785
17.222457885742188,-39.01459884643555,4.446529865264893
14.271822929382324,-29.105880737304688,3.379884958267212
15.616984367370605,-28.855457305908203,3.420954704284668
15.960481643676758,-26.85371208190918,3.2570784091949463
8.417070388793945,-12.94760513305664,1.610154151916504
9.099960327148438,-12.8382568359375,1.640726923942566
14.551697731018066,-18.874052047729492,2.4848592281341553
15.611976623535156,-18.649137496948242,2.535834550857544
15.970388412475586,-17.590452194213867,2.4771811962127686
15.9730224609375,-16.232393264770508,2.3744475841522217
15.975829124450684,-14.98090648651123,2.2834889888763428
14.330183982849121,-12.39434814453125,1.9754501581192017
14.770214080810547,-11.771799087524414,1.9692789316177368
14.773235321044922,-10.83315658569336,1.9100703001022339
8.81480598449707,-5.934518814086914,1.1079466342926025
8.883722305297852,-5.475554943084717,1.0880604982376099
14.866705894470215,-8.358407974243164,1.7782495021820068
15.867448806762695,-8.100037574768066,1.8575001955032349
12.859539985656738,-5.925936698913574,1.4763011932373047
19.553007125854492,-8.074728012084961,2.2056732177734375
21.945974349975586,-8.047041893005371,2.4371492862701416
17.3535213470459,-5.583122730255127,1.9006867408752441
32.60251998901367,-9.061238288879395,3.5281074047088623
23.86942481994629,-5.6117143630981445,2.556575059890747
31.38247299194336,-6.059090614318848,3.332484245300293
26.04305648803711,-3.9505021572113037,2.746415853500366
29.672805786132812,-3.288118362426758,3.1127452850341797
29.085912704467773,-2.0446248054504395,3.040099859237671
21.09065818786621,-0.6328821182250977,2.1999869346618652
21.144500732421875,0.21532857418060303,2.2047247886657715
27.803455352783203,1.401486873626709,2.9025814533233643
27.212627410888672,2.4707534313201904,2.848971128463745
26.62196922302246,3.5001959800720215,2.799602508544922
26.030921936035156,4.492766857147217,2.7542171478271484
25.438962936401367,5.451156139373779,2.712580680847168
24.845550537109375,6.377820014953613,2.674485206604004
24.250165939331055,7.275002956390381,2.6397464275360107
23.652250289916992,8.144765853881836,2.60819935798645
22.664525985717773,8.838188171386719,2.5364129543304443
22.070085525512695,9.644880294799805,2.5112533569335938
21.471527099609375,10.429780006408691,2.488847494125366
20.86829376220703,11.194348335266113,2.4690964221954346
19.918785095214844,11.738971710205078,2.4106431007385254
17.91800308227539,11.553950309753418,2.2229244709014893
16.829792022705078,11.835697174072266,2.1452202796936035
18.710554122924805,14.315346717834473,2.456310272216797
18.06392478942871,15.008492469787598,2.448662042617798
17.408672332763672,15.687972068786621,2.4433531761169434
16.7440185546875,16.354694366455078,2.4403836727142334
16.06918716430664,17.009532928466797,2.4397220611572266
15.383363723754883,17.653301239013672,2.4413788318634033
14.685680389404297,18.286766052246094,2.445356607437134
13.975234031677246,18.91065788269043,2.4516701698303223
13.25103759765625,19.525634765625,2.460350513458252
12.512045860290527,20.13237762451172,2.4714417457580566
11.757180213928223,20.73155975341797,2.4849636554718018
9.410449028015137,18.266828536987305,2.1424527168273926
10.195033073425293,21.90949249267578,2.519580364227295
9.385146141052246,22.489370346069336,2.540822744369507
8.554136276245117,23.06391716003418,2.5648062229156494
7.70046329498291,23.63360595703125,2.5916388034820557
6.05096435546875,21.462631225585938,2.325014352798462
5.800668239593506,24.2687931060791,2.601637601852417
4.886775493621826,24.8158016204834,2.6370861530303955
3.943148612976074,25.35993194580078,2.675898790359497
2.967495918273926,25.901578903198242,2.7182693481445312
1.9970998764038086,26.97921371459961,2.8206582069396973
0.9282199740409851,27.527389526367188,2.8717477321624756
-0.18176980316638947,28.074262619018555,2.927196979522705
-1.3362957239151,28.620304107666016,2.987319231033325
-2.5392398834228516,29.16759490966797,3.05263352394104
-3.794802188873291,29.714923858642578,3.123359441757202
-5.107635974884033,30.262676239013672,3.199934482574463
-6.353374481201172,30.19546890258789,3.217236042022705
-7.767801761627197,30.73317527770996,3.3051321506500244
-9.255374908447266,31.272371292114258,3.400387763977051
-9.449607849121094,27.775728225708008,3.0590178966522217
-11.355104446411133,29.441009521484375,3.2900402545928955
-10.694056510925293,24.720375061035156,2.808284282684326
-12.922181129455566,26.855581283569336,3.1073570251464844
-12.975252151489258,24.40508270263672,2.881849765777588
-15.643240928649902,26.77008628845215,3.232771873474121
-14.960458755493164,23.39089584350586,2.8949928283691406
-15.40052604675293,22.072338104248047,2.806164264678955
-16.628372192382812,21.901626586914062,2.8671371936798096
-10.664196014404297,12.932523727416992,1.7477062940597534
-25.413284301757812,28.411874771118164,3.974454879760742
-28.40968894958496,29.302621841430664,4.25539493560791
-30.480806350708008,29.01042938232422,4.387377738952637
-30.517759323120117,26.79343032836914,4.234225749969482
-16.226497650146484,13.130439758300781,2.1763675212860107
-30.582765579223633,22.7769832611084,3.9758594036102295
-30.611541748046875,20.940719604492188,3.867027997970581
-32.05099105834961,20.084474563598633,3.943679094314575
-35.15652847290039,20.110485076904297,4.222901821136475
-38.743080139160156,20.141311645507812,4.552767276763916
-27.951805114746094,13.13302230834961,3.2200188636779785
-64.54449462890625,27.216869354248047,7.303506374359131
-66.40191650390625,24.908308029174805,7.394397258758545
-71.00025177001953,23.42544174194336,7.795285701751709
-76.35404968261719,21.832534790039062,8.280033111572266
-54.97157669067383,13.35493278503418,5.898275375366211
-96.7168197631836,19.41858673095703,10.28532886505127
-94.4939956665039,-7.873345375061035,9.886466026306152
-94.43274688720703,-11.703948974609375,9.921271324157715
-94.90662384033203,-15.65630054473877,10.02908706665039
-65.17806243896484,-13.461773872375488,6.9391584396362305
-65.77079772949219,-16.364276885986328,7.0665998458862305
-65.79012298583984,-19.206218719482422,7.1458659172058105
-65.80874633789062,-22.116920471191406,7.238617897033691
-65.8266830444336,-25.10868263244629,7.345691680908203
-25.115215301513672,-10.754488945007324,2.8485898971557617
-22.561538696289062,-10.753155708312988,2.6058778762817383
-20.395160675048828,-10.746515274047852,2.4036197662353516
-19.987899780273438,-11.580821990966797,2.40854811668396
-19.992416381835938,-12.682624816894531,2.468539237976074
-23.995723724365234,-16.610563278198242,3.0428411960601807
-24.2023983001709,-18.23410415649414,3.159456491470337
-24.27565574645996,-19.86700439453125,3.270643711090088
-24.385963439941406,-21.650026321411133,3.400029420852661
-24.32098960876465,-23.405475616455078,3.5193192958831787
-24.435291290283203,-25.48383903503418,3.681138753890991
-23.419960021972656,-26.476625442504883,3.6855616569519043
-21.521268844604492,-26.395017623901367,3.550893545150757
-19.85791778564453,-26.457929611206055,3.4491677284240723
-28.2336368560791,-48.93521499633789,5.890496253967285
-25.676349639892578,-48.94569778442383,5.762845516204834
-23.223161697387695,-48.95478820800781,5.649423122406006
-20.650495529174805,-48.46957778930664,5.4931840896606445
-19.873863220214844,-52.38911056518555,5.84212589263916
11.474202156066895,-71.19886016845703,7.519263744354248
15.949775695800781,-78.69690704345703,8.372081756591797
17.35138702392578,-70.8589859008789,7.606322288513184
16.433195114135742,-57.07746887207031,6.192868232727051
15.28903865814209,-46.057472229003906,5.05980920791626
14.911816596984863,-39.53362274169922,4.4054107666015625
16.53695297241211,-39.018436431884766,4.418519020080566
14.748727798461914,-31.24262046813965,3.602207899093628
15.116931915283203,-28.949384689331055,3.4051239490509033
15.96003532409668,-27.783283233642578,3.3407373428344727
8.284747123718262,-13.167484283447266,1.622033953666687
8.773444175720215,-12.775176048278809,1.6158524751663208
14.262467384338379,-19.07762908935547,2.483529806137085
15.215917587280273,-18.733779907226562,2.5163686275482178
15.973307609558105,-18.126859664916992,2.5190722942352295
15.972030639648438,-16.720443725585938,2.410912275314331
15.974772453308105,-15.431600570678711,2.315808057785034
15.977682113647461,-14.239054679870605,2.2314395904541016
14.769136428833008,-12.133520126342773,1.9929165840148926
14.772102355957031,-11.173039436340332,1.9311432838439941
14.775208473205566,-10.269097328186035,1.876061201095581
8.816035270690918,-5.61598539352417,1.0898549556732178
14.517070770263672,-8.4476900100708,1.7512279748916626
15.48832893371582,-8.198396682739258,1.8271549940109253
16.922271728515625,-8.104618072509766,1.9563000202178955
12.966235160827637,-5.5811920166015625,1.4718340635299683
21.006216049194336,-8.05795955657959,2.345806360244751
17.36625862121582,-5.872926712036133,1.9114165306091309
32.829994201660156,-9.651341438293457,3.5678281784057617
32.2155876159668,-8.080047607421875,3.4629547595977783
31.60627555847168,-6.590097904205322,3.366260290145874
28.250242233276367,-4.715056896209717,2.9862263202667236
29.890195846557617,-3.7618565559387207,3.141059160232544
29.30229949951172,-2.4971823692321777,3.066251277923584
21.162086486816406,-0.9494385719299316,2.2086639404296875
28.021738052368164,0.995985746383667,2.9235057830810547
27.430728912353516,2.0807621479034424,2.868256092071533
26.840068817138672,3.124549150466919,2.8173534870147705
26.249225616455078,4.130407333374023,2.7705259323120117
25.657663345336914,5.101119041442871,2.7275309562683105
25.064851760864258,6.039224147796631,2.6881511211395264
24.470256805419922,6.9470415115356445,2.652193546295166
23.873342514038086,7.82670259475708,2.6194851398468018
22.883075714111328,8.534517288208008,2.5464203357696533
22.29001808166504,9.349649429321289,2.520216226577759
21.693037033081055,10.142420768737793,2.4968066215515137
21.09160041809082,10.914331436157227,2.476085662841797
20.48511505126953,11.666783332824707,2.4579646587371826
19.091320037841797,11.913294792175293,2.346298933029175
17.22320556640625,11.734380722045898,2.1729345321655273
16.178720474243164,12.001946449279785,2.100339651107788
18.30364990234375,14.754206657409668,2.451212167739868
17.651647567749023,15.438631057739258,2.445040225982666
16.99054718017578,16.109966278076172,2.4412074089050293
16.3195743560791,16.769094467163086,2.439695358276367
15.63790225982666,17.416854858398438,2.4404983520507812
14.944709777832031,18.05404281616211,2.4436166286468506
14.239081382751465,18.68136978149414,2.4490671157836914
13.520073890686035,19.29957389831543,2.456873893737793
12.786675453186035,19.909324645996094,2.4670538902282715
12.037796020507812,20.51119613647461,2.479682683944702
9.757214546203613,18.269073486328125,2.159456253051758
10.489014625549316,21.69394302368164,2.512410879135132
9.686555862426758,22.275924682617188,2.5326645374298096
8.863513946533203,22.852371215820312,2.5556259155273438
8.01839828491211,23.42379379272461,2.581393241882324
6.221083164215088,20.875139236450195,2.2711217403411865
6.131006240844727,24.066007614135742,2.5893654823303223
5.227544784545898,24.614192962646484,2.6236157417297363
4.295158386230469,25.159330368041992,2.661165714263916
3.3316030502319336,25.70185661315918,2.7021987438201904
2.3819823265075684,26.776409149169922,2.8028411865234375
1.32749342918396,27.325159072875977,2.8523921966552734
0.23305170238018036,27.872472763061523,2.906198263168335
-0.9045822024345398,28.41815757751465,2.964492082595825
-2.0891990661621094,28.965547561645508,3.027909994125366
-3.3248250484466553,29.512815475463867,3.096590042114258
-4.615945339202881,30.06036376953125,3.1709516048431396
-5.875456809997559,30.136234283447266,3.201284646987915
-7.237420558929443,30.534500122070312,3.271857261657715
-8.697199821472168,31.073104858398438,3.36431884765625
-9.314398765563965,28.771120071411133,3.1530778408050537
-11.019893646240234,29.884923934936523,3.321012020111084
-11.995960235595703,28.898895263671875,3.262394905090332
-12.902835845947266,27.8659725189209,3.2017645835876465
-12.952585220336914,25.259563446044922,2.959730386734009
-15.220198631286621,26.95640754699707,3.227644920349121
-16.36709213256836,26.446552276611328,3.2427656650543213
-15.192367553710938,22.477407455444336,2.828692674636841
-8.150530815124512,11.07257080078125,1.4335192441940308
-10.657281875610352,13.321959495544434,1.7787703275680542
-11.125452995300293,12.815837860107422,1.7694851160049438
-27.262462615966797,28.96711540222168,4.147475242614746
-30.54347801208496,29.94611358642578,4.4598612785339355
-30.504499435424805,27.59385108947754,4.288719177246094
-30.53944969177246,25.471338272094727,4.146310806274414
-30.512853622436523,23.436595916748047,4.011534214019775
-30.54241180419922,21.56543731689453,3.898284912109375
-31.00535774230957,20.075885772705078,3.8512446880340576
-21.91977310180664,12.974026679992676,2.6557705402374268
-37.35530090332031,20.12929344177246,4.4242939949035645
-27.460874557495117,13.403197288513184,3.186021089553833
-64.62667846679688,28.387962341308594,7.359653472900391
-33.14226150512695,12.996139526367188,3.711724281311035
-38.468048095703125,13.327887535095215,4.244743347167969
-44.06510543823242,13.3101224899292,4.799422264099121
-76.3795394897461,19.760181427001953,8.225829124450684
-85.64871215820312,18.522214889526367,9.136512756347656
-97.67789459228516,-6.681131362915039,10.208083152770996
-94.25733947753906,-10.264852523803711,9.885753631591797
-94.73363494873047,-14.18743896484375,9.987462997436523
-68.22274780273438,-13.038447380065918,7.241918087005615
-65.76348114013672,-15.33013916015625,7.040599822998047
-65.78307342529297,-18.149490356445312,7.115066051483154
-65.80194091796875,-21.033489227294922,7.202752590179443
-65.82012939453125,-23.993799209594727,7.30443000793457
-26.17914390563965,-10.753334045410156,2.950840711593628
-23.45366096496582,-10.754339218139648,2.6901941299438477
-21.156068801879883,-10.749505996704102,2.4742252826690674
-19.49077606201172,-10.909825325012207,2.328882932662964
-19.990772247314453,-12.269490242004395,2.445589065551758
-19.811824798583984,-13.283945083618164,2.4870235919952393
-24.16817855834961,-17.65241241455078,3.120455026626587
-24.24091148376465,-19.245229721069336,3.2271366119384766
-24.35228157043457,-20.982406616210938,3.3515572547912598
-24.27933120727539,-22.68135643005371,3.4642186164855957
-24.3928165435791,-24.69547462463379,3.61914324760437
-24.156522750854492,-26.506298065185547,3.7391724586486816
-22.206710815429688,-26.425355911254883,3.598903179168701
-20.3892765045166,-26.342618942260742,3.473191738128662
-23.146774291992188,-19.523590087890625,3.411858558654785
-21.3222599029541,-19.503265380859375,3.255871057510376
-19.648727416992188,-19.4787540435791,3.117386817932129
-24.06870460510254,-25.858760833740234,3.9803669452667236
-22.368715286254883,-26.057111740112305,3.8693480491638184
-20.556474685668945,-25.989673614501953,3.7335946559906006
-19.996553421020508,-27.482593536376953,3.829479694366455
-24.4207820892334,-39.9520378112793,5.275862693786621
-24.50351905822754,-43.964176177978516,5.671011924743652
-24.50688362121582,-48.45025634765625,6.117651462554932
-22.31922149658203,-48.91008758544922,6.0575151443481445
-19.925695419311523,-48.762046813964844,5.935172080993652
-19.433300018310547,-53.61298370361328,6.425328731536865
3.0294811725616455,-55.970252990722656,6.31556510925293
16.010250091552734,-73.38541412353516,8.463043212890625
15.452503204345703,-59.28303909301758,6.902780532836914
15.469804763793945,-50.87983703613281,5.9919047355651855
14.861462593078613,-42.64291763305664,5.088131427764893
15.577657699584961,-39.51356506347656,4.785597801208496
14.283793449401855,-32.357540130615234,3.9852426052093506
14.24903392791748,-29.059406280517578,3.64664626121521
15.44240951538086,-28.532901763916016,3.655529260635376
15.987380027770996,-26.898969650268555,3.5256946086883545
8.417208671569824,-12.947813987731934,1.7400416135787964
9.07770824432373,-12.806864738464355,1.7687166929244995
14.378361701965332,-18.649227142333984,2.6532769203186035
15.422245979309082,-18.4224910736084,2.707045078277588
15.99190616607666,-17.61415672302246,2.6805737018585205
15.993693351745605,-16.25339698791504,2.5692670345306396
15.995747566223145,-14.999582290649414,2.470729351043701
14.578108787536621,-12.608781814575195,2.171703815460205
14.786491394042969,-11.784768104553223,2.1304473876953125
14.78902530670166,-10.844735145568848,2.0663247108459473
8.823966979980469,-5.940686225891113,1.198547124862671
8.868886947631836,-5.466410160064697,1.1738488674163818
14.629417419433594,-8.224997520446777,1.8909950256347656
15.603090286254883,-7.965085506439209,1.973863959312439
12.8866548538208,-5.938431262969971,1.5987298488616943
13.18885326385498,-5.446549892425537,1.607755184173584
21.890832901000977,-8.026822090148926,2.627088785171509
17.342121124267578,-5.57945442199707,2.0526294708251953
31.105064392089844,-8.645049095153809,3.637535333633423
23.909204483032227,-5.621066570281982,2.7673699855804443
27.648895263671875,-5.33823823928833,3.1728174686431885
25.378284454345703,-3.849663019180298,2.892157554626465
28.444061279296875,-3.1519577503204346,3.224494218826294
27.908437728881836,-1.9618531465530396,3.152287244796753
20.786142349243164,-0.6237443089485168,2.343090057373047
20.818111419677734,0.21200445294380188,2.3457603454589844
26.74420738220215,1.3480935096740723,3.017176389694214
26.19432830810547,2.3782973289489746,2.9635348320007324
25.64239501953125,3.371403694152832,2.9140710830688477
25.088064193725586,4.330035209655762,2.8685407638549805
24.530977249145508,5.256589889526367,2.826723575592041
23.970760345458984,6.153262138366699,2.788423538208008
23.40703773498535,7.022066593170166,2.753464460372925
22.839412689208984,7.864859580993652,2.7216877937316895
21.89385223388672,8.5376558303833,2.6477725505828857
21.326810836791992,9.320062637329102,2.6223936080932617
20.754653930664062,10.081558227539062,2.59977650642395
20.176904678344727,10.823466300964355,2.579829216003418
19.59308433532715,11.547022819519043,2.5624680519104004
18.036605834960938,11.630431175231934,2.418104887008667
16.594327926635742,11.6701021194458,2.285799264907837
15.595081329345703,11.931697845458984,2.212445020675659
17.479877471923828,14.523238182067871,2.5605862140655518
16.846982955932617,15.181803703308105,2.555220127105713
16.20441246032715,15.827637672424316,2.5522146224975586
15.5514554977417,16.46151351928711,2.551546096801758
14.887411117553711,17.08416175842285,2.553227424621582
14.211481094360352,17.69628143310547,2.557251453399658
13.522831916809082,18.298492431640625,2.563638210296631
12.820624351501465,18.89141845703125,2.572415828704834
12.103873252868652,19.475635528564453,2.583620309829712
11.371603965759277,20.051692962646484,2.597292423248291
9.420092582702637,18.28554916381836,2.3176143169403076
9.856170654296875,21.1812744140625,2.6322877407073975
9.070661544799805,21.735795974731445,2.653735399246216
8.264893531799316,22.284025192260742,2.6779377460479736
6.365983009338379,19.53794288635254,2.3153061866760254
5.924746990203857,21.01496124267578,2.4601218700408936
5.597916126251221,23.420520782470703,2.713191270828247
4.713719844818115,23.937015533447266,2.748850107192993
3.801532745361328,24.44912338256836,2.787855386734009
2.8592896461486816,24.957128524780273,2.8303892612457275
1.9231090545654297,25.97962188720703,2.9352099895477295
0.8932279944419861,26.48971176147461,2.986370325088501
-0.17479564249515533,26.996322631835938,3.0418195724487305
-1.2839722633361816,27.499664306640625,3.1018433570861816
-2.437580108642578,27.99988555908203,3.166762590408325
-3.6396405696868896,28.499895095825195,3.2372467517852783
-4.893883228302002,28.996179580688477,3.313291311264038
-6.081007957458496,28.901012420654297,3.3276638984680176
-7.42609977722168,29.381250381469727,3.4145772457122803
-8.837044715881348,29.858877182006836,3.508540153503418
-9.333623886108398,27.434804916381836,3.26515531539917
-11.117878913879395,28.82593536376953,3.4811058044433594
-10.564319610595703,24.420454025268555,2.9979543685913086
-11.774864196777344,24.4711856842041,3.059824228286743
-12.988627433776855,24.430234909057617,3.117481231689453
-15.30372428894043,26.189075469970703,3.417673349380493
-14.610706329345703,22.844064712524414,3.0553359985351562
-15.22967529296875,21.82748031616211,2.9988417625427246
-16.559246063232422,21.810577392578125,3.085491418838501
-10.65026569366455,12.915623664855957,1.8861924409866333
-23.21432113647461,25.953454971313477,3.9233601093292236
-25.857179641723633,26.669878005981445,4.185425758361816
-28.823652267456055,27.433202743530273,4.483453750610352
-30.48381233215332,26.763633728027344,4.570627212524414
-16.230623245239258,13.133776664733887,2.3524911403656006
-30.55082130432129,22.75318145751953,4.292026042938232
-30.580440521240234,20.919445037841797,4.174660682678223
-32.10635757446289,20.119163513183594,4.269099235534668
-35.22154235839844,20.14768409729004,4.571920871734619
-38.820369720458984,20.18148422241211,4.929765701293945
-43.76108169555664,20.56092643737793,5.44780969619751
-64.47322082519531,27.18681526184082,7.883821964263916
-66.34217071533203,24.885896682739258,7.983570575714111
-71.21106719970703,23.495004653930664,8.448991775512695
-76.28707885742188,21.81338882446289,8.939973831176758
-55.120208740234375,13.39104175567627,6.391205787658691
-96.63353729248047,19.40186309814453,11.105273246765137
-89.16844940185547,14.20352554321289,10.173534393310547
-93.48046875,-7.7888994216918945,10.569218635559082
-93.37761688232422,-11.573180198669434,10.601632118225098
-93.83689880371094,-15.479832649230957,10.715778350830078
-65.8519287109375,-13.600947380065918,7.576334476470947
-65.73072052001953,-16.354299545288086,7.631869792938232
-65.74938201904297,-19.194316864013672,7.71740198135376
-65.7498550415039,-22.09713363647461,7.815415382385254
-65.76690673828125,-25.08588981628418,7.930918216705322
-24.374919891357422,-10.437492370605469,2.987593173980713
-21.951644897460938,-10.462471008300781,2.739917755126953
-19.933298110961914,-10.503146171569824,2.5386505126953125
-19.968284606933594,-11.56945514678955,2.600243330001831
-19.97230339050293,-12.669864654541016,2.6649439334869385
-19.503889083862305,-13.501177787780762,2.6727089881896973
-23.850021362304688,-17.968618392944336,3.364555835723877
-23.86376953125,-19.52992057800293,3.4744527339935303
-21.976947784423828,-19.51128578186035,3.3112757205963135
-20.250551223754883,-19.488264083862305,3.1666455268859863
-24.033546447753906,-25.064851760864258,3.91262149810791
-23.070146560668945,-26.081148147583008,3.9233133792877197
-21.211389541625977,-26.01495933532715,3.782022476196289
-19.568151473999023,-26.071857452392578,3.6729559898376465
-24.451770782470703,-38.700626373291016,5.157946586608887
-24.499223709106445,-42.46263885498047,5.523605823516846
-24.492969512939453,-46.689884185791016,5.9406023025512695
-23.20036506652832,-48.906734466552734,6.099058628082275
-20.840442657470703,-48.91539001464844,5.990811824798584
-19.82624626159668,-52.2635498046875,6.298165798187256
16.019193649291992,-79.03948211669922,9.086677551269531
17.33553123474121,-70.79428100585938,8.212270736694336
15.466265678405762,-53.71904754638672,6.2985520362854
14.96674919128418,-45.086578369140625,5.352622032165527
14.897687911987305,-39.49617004394531,4.756197929382324
16.521032333374023,-38.98088455200195,4.770277976989746
14.778483390808105,-31.30567169189453,3.9005837440490723
14.948720932006836,-28.62725067138672,3.6388015747070312
15.987626075744629,-27.83131217956543,3.6164093017578125
8.291024208068848,-13.177461624145508,1.7541799545288086
8.765666007995605,-12.763848304748535,1.7446227073669434
14.77573013305664,-19.764179229736328,2.7804102897644043
15.032388687133789,-18.507829666137695,2.686518907546997
15.969195365905762,-18.122196197509766,2.721534252166748
15.993000984191895,-16.74239158630371,2.608771562576294
15.99495792388916,-15.45109748840332,2.5057387351989746
14.28681468963623,-12.732172012329102,2.1562116146087646
14.785606384277344,-12.14704704284668,2.156046152114868
14.788064956665039,-11.185113906860352,2.089146852493286
14.790719032287598,-10.279879570007324,2.0294947624206543
8.825047492980957,-5.621726989746094,1.1789565086364746
14.288826942443848,-8.314871788024902,1.8627103567123413
15.23442268371582,-8.063998222351074,1.9421488046646118
