-8.77464771270752,-65.71302795410156,-3.0325820446014404
-6.236900329589844,-67.18716430664062,-3.0865461826324463
27.271669387817383,-48.73652267456055,-2.554644823074341
29.57341194152832,-48.198097229003906,-2.5866544246673584
29.989871978759766,-44.73970031738281,-2.463768482208252
61.47410583496094,-71.36571502685547,-4.308610439300537
88.81733703613281,-12.195165634155273,-4.100883483886719
69.89998626708984,-6.7502336502075195,-3.2123069763183594
39.644020080566406,46.809383392333984,-2.8059306144714355
-12.701102256774902,-66.84822845458984,-3.112532377243042
-9.81360912322998,-66.01351165771484,-3.05283260345459
-7.285214900970459,-67.57293701171875,-3.108891725540161
-4.541247844696045,-67.46045684814453,-3.0928187370300293
4.238496780395508,-79.40233612060547,-3.6372649669647217
26.498666763305664,-49.04883575439453,-2.5501272678375244
28.716581344604492,-48.398040771484375,-2.5742347240448
30.452016830444336,-46.919456481933594,-2.558642864227295
30.9445858001709,-43.72588348388672,-2.4503493309020996
60.65129852294922,-72.56034088134766,-4.325928211212158
38.8813591003418,47.31459045410156,-2.29146671295166
35.20460510253906,46.53224563598633,-2.1832756996154785
-36.358734130859375,-92.68548583984375,-3.7253427505493164
-11.633710861206055,-66.60343933105469,-2.5298571586608887
-8.78333854675293,-65.778076171875,-2.4830877780914307
-6.181978225708008,-66.59558868408203,-2.50254487991333
-3.9119057655334473,-74.61286163330078,-2.795650005340576
2.7716965675354004,-99.02645111083984,-3.706759214401245
27.042430877685547,-48.32686233520508,-2.0721189975738525
29.321746826171875,-47.78792953491211,-2.0978610515594482
29.34659194946289,-43.780033111572266,-1.9721168279647827
31.474218368530273,-43.10348892211914,-1.9970277547836304
61.53785705566406,-71.43975830078125,-3.528073310852051
88.86358642578125,-12.201518058776855,-3.35624623298645
69.93702697753906,-6.753801345825195,-2.6290392875671387
39.5994873046875,46.756797790527344,-2.2926557064056396
-12.714017868041992,-66.9161376953125,-2.5486180782318115
-9.823400497436523,-66.07929229736328,-2.4996864795684814
-7.131548881530762,-66.1475830078125,-2.4894111156463623
-4.580879211425781,-68.04908752441406,-2.5519816875457764
1.3068128824234009,-99.39120483398438,-3.7192811965942383
4.24253511428833,-79.4776382446289,-2.9780802726745605
28.050687789916992,-71.30767822265625,-2.86716365814209
26.264751434326172,-48.6158447265625,-2.0675723552703857
28.473371505737305,-47.98813247680664,-2.087874174118042
29.59366226196289,-45.59694290161133,-2.0339603424072266
30.974220275878906,-43.76776123046875,-2.006290912628174
59.592891693115234,-71.29409790039062,-3.4768285751342773
67.63003540039062,-39.03144836425781,-2.2720425128936768
38.890785217285156,47.3260612487793,-1.7823524475097656
35.17690658569336,46.49563217163086,-1.696455955505371
-36.396888732910156,-92.78276062011719,-2.8999950885772705
-14.613242149353027,-67.5308609008789,-2.010427713394165
-11.645438194274902,-66.6706314086914,-1.9692888259887695
-8.792044639587402,-65.84320831298828,-1.9328460693359375
-6.128046989440918,-66.01470184326172,-1.9290916919708252
-3.8236236572265625,-72.9294662475586,-2.124945640563965
-1.2001539468765259,-98.37374114990234,-2.8625974655151367
2.726383686065674,-97.407958984375,-2.8353943824768066
18.044239044189453,-65.43447875976562,-1.975014090538025
33.52788543701172,-81.65410614013672,-2.56838321685791
41.26874542236328,-81.24685668945312,-2.6515307426452637
26.817169189453125,-47.92428207397461,-1.597927451133728
29.074474334716797,-47.38493728637695,-1.6176118850708008
29.63490867614746,-44.210147857666016,-1.548653483390808
31.81630516052246,-43.57199478149414,-1.569838523864746
61.60453796386719,-71.51714324951172,-2.7465224266052246
88.90985870361328,-12.20787239074707,-2.611293315887451
69.97407531738281,-6.757382392883301,-2.045515775680542
39.55506134033203,46.7043571472168,-1.7808458805084229
-48.472042083740234,-86.81636047363281,-2.893162727355957
-12.726923942565918,-66.98413848876953,-1.983907699584961
-9.833178520202637,-66.14515686035156,-1.9457789659500122
-6.986438274383545,-64.80152130126953,-1.896459698677063
-4.627272605895996,-68.73841094970703,-2.0046112537384033
-2.636691093444824,-97.50725555419922,-2.838207960128784
1.2853764295578003,-97.76133728027344,-2.8448143005371094
4.2477240562438965,-79.57499694824219,-2.318694829940796
28.06963348388672,-71.3558120727539,-2.231109380722046
35.75383377075195,-81.15799713134766,-2.5804569721221924
41.403873443603516,-84.59825897216797,-2.7405545711517334
26.057491302490234,-48.232208251953125,-1.5951292514801025
28.234371185302734,-47.585357666015625,-1.609976887702942
28.89718246459961,-44.52381896972656,-1.5444519519805908
31.003902435302734,-43.8096923828125,-1.5616545677185059
59.626708984375,-71.33457946777344,-2.7052371501922607
68.4254150390625,-38.53755569458008,-2.28503155708313
67.56108093261719,-38.99163818359375,-1.6210085153579712
38.90020751953125,47.33753967285156,-1.273242473602295
35.14927291870117,46.459083557128906,-1.210636854171753
-63.904945373535156,-55.461544036865234,-1.7583774328231812
-57.102943420410156,-53.72867202758789,-1.6293365955352783
-36.43562698364258,-92.88145446777344,-2.073342800140381
-14.628314018249512,-67.60045623779297,-1.4373016357421875
-11.164438247680664,-63.91693115234375,-1.348349928855896
-8.80074691772461,-65.90843200683594,-1.3817805051803589
-6.068216323852539,-65.3700180053711,-1.3642776012420654
-3.7473978996276855,-71.4755859375,-1.4873533248901367
-1.171718716621399,-96.0418930053711,-1.9959697723388672
2.6825783252716064,-95.84223175048828,-1.9924514293670654
18.06058692932129,-65.49378967285156,-1.411807894706726
32.993099212646484,-80.35161590576172,-1.805046558380127
36.47179412841797,-79.5668716430664,-1.8188867568969727
38.944705963134766,-76.67146301269531,-1.7870452404022217
26.595718383789062,-47.52854537963867,-1.1317962408065796
28.66298484802246,-46.71430587768555,-1.1389275789260864
29.663076400756836,-44.252174377441406,-1.107079029083252
31.84697151184082,-43.61397933959961,-1.122239112854004
61.67440414428711,-71.59828186035156,-1.963757038116455
88.95616149902344,-12.214216232299805,-1.8659210205078125
70.01114654541016,-6.760968208312988,-1.461655855178833
39.51079177856445,46.652061462402344,-1.2704336643218994
-66.70269012451172,-56.176753997802734,-1.8122272491455078
-59.49319076538086,-54.33656311035156,-1.674352765083313
-48.45846176147461,-86.7919921875,-2.065678119659424
-15.6286039352417,-67.37208557128906,-1.4372174739837646
-11.833272933959961,-62.280643463134766,-1.3173904418945312
-9.842985153198242,-66.21112060546875,-1.3910353183746338
-7.0509748458862305,-65.40018463134766,-1.3669389486312866
-4.636691093444824,-68.87826538085938,-1.4345793724060059
-2.5313045978546143,-93.61012268066406,-1.9459986686706543
4.2545623779296875,-79.70292663574219,-1.6586436033248901
28.088581085205078,-71.40398406982422,-1.594506025314331
35.18085479736328,-79.85742950439453,-1.81339693069458
38.69716262817383,-79.06782531738281,-1.829317569732666
27.13779640197754,-50.23186111450195,-1.1864521503448486
27.99949073791504,-47.18948745727539,-1.1402573585510254
28.871061325073242,-44.48357009887695,-1.1020317077636719
31.033620834350586,-43.8516845703125,-1.1163835525512695
59.66056442260742,-71.37506103515625,-1.933141827583313
68.30953979492188,-38.472293853759766,-1.6291751861572266
67.59685516357422,-39.012298583984375,-0.9730312824249268
52.67731475830078,-27.642534255981445,-0.7416731119155884
54.90298080444336,-26.053531646728516,-0.7576500773429871
56.94319534301758,-24.26938247680664,-0.7717176079750061
38.909629821777344,47.34900665283203,-0.7640590667724609
35.12167739868164,46.4226188659668,-0.7257451415061951
-67.52069854736328,-54.00088119506836,-1.077908992767334
-60.302799224853516,-52.3353157043457,-0.9954650402069092
-57.0259895324707,-53.65629577636719,-0.9761953353881836
-56.02521514892578,-57.128055572509766,-0.997573971748352
-54.52827072143555,-60.26438522338867,-1.0132412910461426
-36.47492218017578,-92.98162841796875,-1.2452318668365479
-12.674894332885742,-58.573360443115234,-0.7471510171890259
-10.966375350952148,-62.782981872558594,-0.7945855855941772
-8.8092679977417,-65.97216796875,-0.8297981023788452
-6.049598217010498,-65.16951751708984,-0.8159799575805664
-3.7961339950561523,-72.40489959716797,-0.9039318561553955
-1.1304326057434082,-92.6604995727539,-1.1553101539611816
18.076967239379883,-65.55317687988281,-0.8477743268013
32.47522735595703,-79.09044647216797,-1.0659308433532715
35.89503860473633,-78.30859375,-1.0739750862121582
37.99840545654297,-74.8084487915039,-1.046076774597168
26.377981185913086,-47.13941955566406,-0.673454999923706
27.872013092041016,-45.42518997192383,-0.6644364595413208
29.691280364990234,-44.29426574707031,-0.6648188829421997
31.877687454223633,-43.65602493286133,-0.6739299297332764
61.7480354309082,-71.6837387084961,-1.179551124572754
67.72820281982422,-40.43917465209961,-0.9834485650062561
53.5376091003418,-26.385711669921875,-0.7441288232803345
57.13372802734375,-25.35863494873047,-0.7793116569519043
61.51459503173828,-24.394664764404297,-0.8250230550765991
89.00249481201172,-12.2205810546875,-1.120033621788025
70.04824829101562,-6.764549255371094,-0.8773790597915649
39.46660232543945,46.59989929199219,-0.7613382935523987
-62.83434295654297,-52.91885757446289,-1.0241841077804565
-57.38493728637695,-52.41104507446289,-0.9689223766326904
-56.399810791015625,-55.828582763671875,-0.9893852472305298
-55.37038803100586,-59.39960861206055,-1.0124027729034424
-48.44487762451172,-86.76769256591797,-1.2389483451843262
-13.260568618774414,-57.16388702392578,-0.7316024303436279
-11.623998641967773,-61.17927932739258,-0.7763856053352356
-9.753618240356445,-65.61002349853516,-0.8269683122634888
-7.057708740234375,-65.46276092529297,-0.8208726048469543
-4.670126914978027,-69.37483978271484,-0.866873025894165
-2.458529472351074,-90.91893005371094,-1.1339282989501953
1.2541375160217285,-95.38423156738281,-1.1892850399017334
4.261386394500732,-79.83131408691406,-0.9966994524002075
28.107540130615234,-71.45220947265625,-0.9572618007659912
34.62615966796875,-78.59831237792969,-1.0707862377166748
36.857940673828125,-75.309814453125,-1.045326590538025
25.80663299560547,-47.767860412597656,-0.6768852472305298
27.768552780151367,-46.800270080566406,-0.6784494519233704
28.89839744567871,-44.52568435668945,-0.6617838144302368
31.063386917114258,-43.89374542236328,-0.6704097986221313
32.962982177734375,-42.82014846801758,-0.673709511756897
59.694427490234375,-71.41559600830078,-1.1604361534118652
68.41481018066406,-38.53157043457031,-0.9789220094680786
52.37940979003906,-26.787939071655273,-0.7334737181663513
55.90095138549805,-25.810834884643555,-0.7676360607147217
56.81056594848633,-23.510435104370117,-0.7665279507637024
67.63570404052734,-39.034725189208984,-0.3245166540145874
52.91167449951172,-27.765506744384766,-0.2483113408088684
54.226619720458984,-25.73257064819336,-0.2494262456893921
56.26368713378906,-23.979772567749023,-0.2541576027870178
55.78883743286133,-21.171688079833984,-0.2479674220085144
67.2193603515625,-22.46437644958496,-0.29452502727508545
38.9190559387207,47.360469818115234,-0.2547377347946167
35.09413528442383,46.38621520996094,-0.24171751737594604
-63.63734436035156,-50.89509963989258,-0.33862411975860596
-58.00129699707031,-50.3379020690918,-0.31914424896240234
-57.04106903076172,-53.670467376708984,-0.32546985149383545
-56.04035949707031,-57.14348220825195,-0.3325999975204468
-54.99306106567383,-60.77806854248047,-0.3406097888946533
-36.51482391357422,-93.08335876464844,-0.41550981998443604
-12.471481323242188,-57.633338928222656,-0.2450428307056427
-10.697507858276367,-61.24368667602539,-0.25835514068603516
-8.085713386535645,-60.55352020263672,-0.25386857986450195
-6.055501461029053,-65.23306274414062,-0.2722477912902832
-3.79886794090271,-72.4570083618164,-0.30151501297950745
-1.0725481510162354,-87.91361999511719,-0.3653607666492462
18.093366622924805,-65.6126708984375,-0.282834529876709
31.973508834838867,-77.86852264404297,-0.3498057425022125
34.82378387451172,-75.97158813476562,-0.34729212522506714
25.16048240661621,-49.53410339355469,-0.23087254166603088
26.163366317749023,-46.75589370727539,-0.22264927625656128
27.315237045288086,-44.51776885986328,-0.21704477071762085
29.71955108642578,-44.336421966552734,-0.22180616855621338
31.9084415435791,-43.69815444946289,-0.22484925389289856
61.82598114013672,-71.77423858642578,-0.3936614990234375
70.13101196289062,-69.2891845703125,-0.40968334674835205
67.60742950439453,-40.3670768737793,-0.32721763849258423
52.64387130737305,-28.628950119018555,-0.2490215301513672
52.889686584472656,-26.06639862060547,-0.2450290322303772
56.4453125,-25.053085327148438,-0.25662899017333984
55.96138381958008,-22.19244956970215,-0.25016969442367554
65.38127136230469,-22.933866500854492,-0.287930965423584
70.56414794921875,-21.61020851135254,-0.3066767454147339
89.0488510131836,-12.226953506469727,-0.3735237121582031
70.08537292480469,-6.768135070800781,-0.2926037311553955
39.42253112792969,46.54787063598633,-0.2534834146499634
-66.32504272460938,-51.45011901855469,-0.3488248586654663
-59.39075469970703,-50.0186882019043,-0.32267022132873535
-57.39999771118164,-52.42478561401367,-0.3230440616607666
-56.41492462158203,-55.84354782104492,-0.32986950874328613
-55.38557434082031,-59.4158821105957,-0.33754563331604004
-54.319000244140625,-63.18033218383789,-0.3462444543838501
-48.43131637573242,-86.74335479736328,-0.41284847259521484
-28.88045883178711,-79.49114990234375,-0.3514585494995117
-13.069215774536133,-56.339046478271484,-0.24033886194229126
-11.4302396774292,-60.15946960449219,-0.25446945428848267
-9.039375305175781,-60.805484771728516,-0.25545963644981384
-7.064635276794434,-65.52696990966797,-0.27388182282447815
-4.673346519470215,-69.42272186279297,-0.2891441881656647
-2.3432159423828125,-86.65452575683594,-0.3602302074432373
1.1881014108657837,-90.36170959472656,-0.3755384087562561
4.268274784088135,-79.95997619628906,-0.33275315165519714
30.74369239807129,-78.15357971191406,-0.34899798035621643
34.088802337646484,-77.37854766845703,-0.3513706624507904
36.819576263427734,-75.23139190673828,-0.34806275367736816
25.594322204589844,-47.374881744384766,-0.22376078367233276
27.462554931640625,-46.2845344543457,-0.22364795207977295
28.925771713256836,-44.567874908447266,-0.22079473733901978
31.09319496154785,-43.93587875366211,-0.22367477416992188
33.321632385253906,-43.28604507446289,-0.22700151801109314
59.72834014892578,-71.4561538696289,-0.38701438903808594
70.0743179321289,-71.31848907470703,-0.415489137172699
68.53819274902344,-38.60104751586914,-0.32688015699386597
52.673274993896484,-26.9382266998291,-0.2458518147468567
55.203330993652344,-25.48872947692871,-0.2526729106903076
56.13715744018555,-23.231754302978516,-0.2524687647819519
55.91865158081055,-20.55129623413086,-0.2475690245628357
67.67771911621094,-39.058956146240234,0.32471799850463867
52.89444351196289,-27.756471633911133,0.24823182821273804
53.56675720214844,-25.419445037841797,0.24639302492141724
55.60026168823242,-23.697006225585938,0.25116199254989624
55.34149932861328,-21.001930236816406,0.24598026275634766
66.24474334716797,-22.1386661529541,0.2902456521987915
71.53081512451172,-20.750709533691406,0.3095061779022217
38.92849349975586,47.37194061279297,0.254799485206604
35.0666389465332,46.34987258911133,0.24151986837387085
-84.02649688720703,-16.370819091796875,0.35574471950531006
-35.980892181396484,-8.523462295532227,0.153658926486969
-67.12112426757812,-49.39458084106445,0.34631264209747314
-60.176612854003906,-48.127315521240234,0.32020676136016846
-58.016334533691406,-50.35095977783203,0.31922447681427
-57.05615234375,-53.684661865234375,0.3255544900894165
-56.06953048706055,-57.17323684692383,0.33277201652526855
-55.02204895019531,-60.810115814208984,0.3407890796661377
-14.712958335876465,-56.83982849121094,0.24398624897003174
-12.274507522583008,-56.72305679321289,0.24117541313171387
-10.597920417785645,-60.67352294921875,0.2559485137462616
-8.025543212890625,-60.103031158447266,0.25197863578796387
-6.061409950256348,-65.2967529296875,0.2725118398666382
-3.8016138076782227,-72.5091323852539,0.3017314076423645
-1.0608259439468384,-86.9532699584961,0.36136579513549805
18.109798431396484,-65.67225646972656,0.2830917537212372
35.03055953979492,-76.42267608642578,0.349353164434433
25.342384338378906,-49.8922119140625,0.2325437068939209
25.941696166992188,-46.359764099121094,0.2207614779472351
27.611682891845703,-45.000919342041016,0.21939948201179504
29.747846603393555,-44.378662109375,0.22201669216156006
31.939268112182617,-43.740352630615234,0.2250669002532959
34.14506530761719,-43.019832611083984,0.22823932766914368
61.90922927856445,-71.87089538574219,0.39419078826904297
67.65119934082031,-72.43621063232422,0.4118771553039551
67.88922882080078,-67.07428741455078,0.3965890407562256
68.30563354492188,-62.26633834838867,0.3840869069099426
67.5384292602539,-40.32585525512695,0.32688236236572266
53.23891067504883,-28.95256233215332,0.25183749198913574
52.346458435058594,-25.79865837097168,0.24251395463943481
55.77334213256836,-24.75482177734375,0.2535734176635742
55.311744689941406,-21.934825897216797,0.24726653099060059
64.4542007446289,-22.608684539794922,0.2838383913040161
69.49942779541016,-21.284135818481445,0.3020517826080322
89.09526062011719,-12.23332691192627,0.3737128973007202
70.12255096435547,-6.771718978881836,0.29275190830230713
39.378562927246094,46.49595260620117,0.25320327281951904
-84.53897094726562,-15.172508239746094,0.3569236993789673
-84.58525085449219,-18.716466903686523,0.3600022792816162
-57.135189056396484,-15.073641777038574,0.24555432796478271
-62.61558151245117,-48.57258987426758,0.3293135166168213
-58.36166763305664,-49.152000427246094,0.31707704067230225
-57.41506576538086,-52.43855285644531,0.32312798500061035
-56.44416809082031,-55.872501373291016,0.3300377130508423
-55.41463088989258,-59.44705581665039,0.33772122859954834
-54.33427810668945,-63.19811248779297,0.3463408946990967
-48.41774368286133,-86.7190933227539,0.41272997856140137
-28.862178802490234,-79.44083404541016,0.35123246908187866
-13.19864559173584,-56.89697265625,0.24271735548973083
-11.238725662231445,-59.151451110839844,0.2502043843269348
-8.971708297729492,-60.35031509399414,0.2535451352596283
-6.589199066162109,-61.1170539855957,0.2554476857185364
-4.676568508148193,-69.47067260742188,0.2893432676792145
-2.3615546226501465,-87.3325424194336,0.3630467653274536
4.275165557861328,-80.08910369873047,0.33329182863235474
36.40316390991211,-82.63194274902344,0.37522757053375244
37.10658264160156,-75.81781768798828,0.3507745563983917
25.385488510131836,-46.98833465576172,0.22193554043769836
26.666479110717773,-44.9428596496582,0.2171631157398224
28.953201293945312,-44.610137939453125,0.22100165486335754
31.123069763183594,-43.97808837890625,0.2238871157169342
33.3541259765625,-43.3282470703125,0.227224200963974
59.76228332519531,-71.49676513671875,0.3872342109680176
67.80362701416016,-69.0074691772461,0.4020277261734009
68.22628021240234,-64.0729751586914,0.3889436721801758
68.69439697265625,-38.68903732299805,0.3276252746582031
52.65629577636719,-26.929542541503906,0.24577254056930542
54.52295684814453,-25.174585342407227,0.24955826997756958
55.47955322265625,-22.959617614746094,0.24951183795928955
56.65727615356445,-20.82276153564453,0.25084149837493896
67.72296905517578,-39.085086822509766,0.9748458862304688
52.877227783203125,-27.747425079345703,0.7444899082183838
52.92271423339844,-25.113832473754883,0.7303228974342346
54.952239990234375,-23.420814514160156,0.7447354793548584
55.729469299316406,-21.149158477783203,0.7431452870368958
65.29789733886719,-21.822233200073242,0.8583422303199768
70.44164276123047,-20.434738159179688,0.9144219160079956
38.937931060791016,47.3834342956543,0.7646167874336243
35.03916931152344,46.31358337402344,0.7240341901779175
-85.96953582763672,-9.673883438110352,1.07857084274292
-84.6198959350586,-12.982739448547363,1.0673273801803589
-83.24431610107422,-16.21842384338379,1.0573499202728271
-63.392398834228516,-46.650604248046875,0.9812685251235962
-58.95637893676758,-47.15141677856445,0.9411841630935669
-58.045921325683594,-50.37662887573242,0.9582096338272095
-57.08553695678711,-53.71230697631836,0.9772138595581055
-56.084686279296875,-57.18869400024414,0.9986310005187988
-55.03728485107422,-60.826942443847656,1.0226993560791016
-15.587632179260254,-44.97142791748047,0.5933952331542969
-13.420413970947266,-44.409385681152344,0.5783941745758057
-14.868331909179688,-57.44010925292969,0.7397242784500122
-12.26508617401123,-56.679542541503906,0.7229944467544556
-10.412324905395508,-59.611019134521484,0.7544398307800293
-7.966306686401367,-59.65918731689453,0.7503887414932251
-6.06734037399292,-65.36058044433594,0.8183712959289551
-3.8043410778045654,-72.56143188476562,0.9058858156204224
-1.0618250370025635,-87.03590393066406,1.0851833820343018
2.7676594257354736,-98.88250732421875,1.2332791090011597
18.126264572143555,-65.7319564819336,0.8500875234603882
35.0627326965332,-76.4928970336914,1.0490741729736328
25.666601181030273,-50.53048324584961,0.7065879106521606
25.7237491607666,-45.97026824951172,0.6567515730857849
27.63771629333496,-45.0433235168457,0.658850908279419
29.776220321655273,-44.420982360839844,0.6667182445526123
31.970136642456055,-43.78263854980469,0.6758840680122375
34.22895812988281,-43.12553405761719,0.6864289045333862
61.999210357666016,-71.975341796875,1.184350609779358
65.47734069824219,-70.10855865478516,1.1959826946258545
65.97624969482422,-65.18428802490234,1.1562939882278442
66.26011657714844,-60.40168380737305,1.1178061962127686
66.52141571044922,-55.916229248046875,1.0834143161773682
67.49249267578125,-40.298439025878906,0.9800260066986084
53.22132873535156,-28.9429874420166,0.7552967667579651
51.70991897583008,-25.484949111938477,0.7187265753746033
55.11714172363281,-24.463577270507812,0.751805305480957
54.67698669433594,-21.683101654052734,0.7333182096481323
57.41588592529297,-20.13983154296875,0.7585803866386414
68.46627807617188,-20.967742919921875,0.8927178382873535
89.14173126220703,-12.239700317382812,1.1217820644378662
70.15975952148438,-6.775315284729004,0.8787667751312256
39.334693908691406,46.444156646728516,0.758794903755188
-81.49546813964844,18.58661651611328,1.042110562324524
-85.37174987792969,-8.326021194458008,1.0694035291671753
-85.07238006591797,-11.763172149658203,1.0707141160964966
-83.74944305419922,-15.030810356140137,1.0608108043670654
-85.5040283203125,-18.919771194458008,1.091788649559021
-57.1395149230957,-15.074783325195312,0.7367494702339172
-65.97816467285156,-47.060813903808594,1.0103754997253418
-59.298831939697266,-45.99970245361328,0.9356539249420166
-58.376712799072266,-49.16465377807617,0.9515231847763062
-57.444522857666016,-52.4654541015625,0.9699270725250244
-56.45930099487305,-55.887474060058594,0.9904284477233887
-55.42983627319336,-59.46335983276367,1.0134880542755127
-54.34956359863281,-63.21588897705078,1.0393673181533813
-48.40419387817383,-86.69479370117188,1.2379034757614136
-16.416908264160156,-45.186248779296875,0.5993784070014954
-14.207736015319824,-44.61366653442383,0.5837346315383911
-13.212416648864746,-56.956298828125,0.7289457321166992
-11.05264949798584,-58.172096252441406,0.7382231950759888
-8.905046463012695,-59.901885986328125,0.7550199031829834
-6.651100158691406,-61.6911506652832,0.7735774517059326
-4.6798014640808105,-69.5186767578125,0.8686721324920654
-2.3638062477111816,-87.41593170166016,1.0902400016784668
1.30063796043396,-98.92139434814453,1.233385682106018
4.28209114074707,-80.21862030029297,1.0015344619750977
36.339454650878906,-82.4873046875,1.1237664222717285
37.140811920166016,-75.88777160644531,1.0533483028411865
25.180025100708008,-46.60801696777344,0.6604568362236023
26.860332489013672,-45.269588470458984,0.656258225440979
28.980690002441406,-44.65248489379883,0.6636669635772705
31.152996063232422,-44.020381927490234,0.6723449230194092
33.386680603027344,-43.370540618896484,0.6823691725730896
59.796268463134766,-71.53742218017578,1.1624146699905396
65.35601043701172,-72.09378814697266,1.2131738662719727
65.67533874511719,-66.84142303466797,1.1682711839675903
66.1580810546875,-62.13067626953125,1.1315125226974487
66.42737579345703,-57.54048156738281,1.0956679582595825
53.14670181274414,-29.932483673095703,0.7604559659957886
52.63932418823242,-26.92086410522461,0.7371150851249695
53.859100341796875,-24.86806297302246,0.7395971417427063
54.83713912963867,-22.69375991821289,0.739902138710022
56.74409866333008,-20.854663848876953,0.7537094354629517
53.25944519042969,-30.73770523071289,1.2778666019439697
52.86001968383789,-27.738412857055664,1.240523099899292
52.293861389160156,-24.815412521362305,1.202850580215454
54.31903076171875,-23.15094566345215,1.227034568786621
55.81379699707031,-21.18116569519043,1.2405612468719482
64.37754821777344,-21.514657974243164,1.410539150238037
69.38490295410156,-20.128183364868164,1.5013113021850586
38.94736862182617,47.39492416381836,1.2747883796691895
35.011756896972656,46.27734375,1.2058911323547363
-74.74748992919922,-5.381643772125244,1.5573261976242065
-85.17522430419922,-9.584504127502441,1.7811729907989502
-83.83200073242188,-12.861859321594238,1.7624744176864624
-82.47640991210938,-16.068817138671875,1.746147632598877
-95.67404174804688,-26.765344619750977,2.064509391784668
-60.05548858642578,-44.19496154785156,1.5495017766952515
-58.98618698120117,-47.17525100708008,1.5695799589157104
-58.06098556518555,-50.38970947265625,1.5975754261016846
-57.10064697265625,-53.72651290893555,1.6292692422866821
-56.099857330322266,-57.204158782958984,1.6649894714355469
-55.052528381347656,-60.84379196166992,1.7051280736923218
-17.02674102783203,-43.40446090698242,0.9688928127288818
-15.444185256958008,-44.557552337646484,0.9799820780754089
-13.300004959106445,-44.010929107666016,0.9554260969161987
-11.455879211425781,-44.25694274902344,0.9500029683113098
-12.277799606323242,-56.73823547363281,1.2063499689102173
-10.244572639465332,-58.65068435668945,1.2372573614120483
-7.907883644104004,-59.22175598144531,1.2415931224822998
-6.073273181915283,-65.42454528808594,1.3654099702835083
-3.8070836067199707,-72.61376953125,1.5110379457473755
-1.0628377199172974,-87.11871337890625,1.81052565574646
2.6983180046081543,-96.40498352050781,2.0041465759277344
35.68317794799805,-86.90311431884766,1.9522169828414917
35.09500503540039,-76.5632553100586,1.7502237558364868
25.999277114868164,-51.18544006347656,1.193021535873413
25.50939178466797,-45.587181091308594,1.0855623483657837
27.663787841796875,-45.08582305908203,1.0992220640182495
29.804662704467773,-44.46339416503906,1.1123619079589844
32.001094818115234,-43.82501220703125,1.1276673078536987
34.26261520385742,-43.16792678833008,1.1452791690826416
62.098350524902344,-72.09040069580078,1.9772529602050781
65.3884506225586,-70.013427734375,1.9907786846160889
63.99346923828125,-63.225284576416016,1.8694102764129639
64.3331527709961,-58.645084381103516,1.808998465538025
65.55278015136719,-55.10200119018555,1.7795617580413818
67.46077728271484,-40.279510498046875,1.6327582597732544
53.20375061035156,-28.933427810668945,1.2585266828536987
52.29471969604492,-25.773164749145508,1.211533546447754
54.476078033447266,-24.179040908813477,1.2385475635528564
54.15508270263672,-21.476137161254883,1.2106430530548096
58.03355407714844,-20.356489181518555,1.2780179977416992
67.46321105957031,-20.66054344177246,1.466202735900879
89.1882553100586,-12.246088981628418,1.8707836866378784
70.19701385498047,-6.7789201736450195,1.4655272960662842
39.29090118408203,46.3924560546875,1.2633638381958008
-81.4554672241211,18.57748794555664,1.7361623048782349
-80.43851470947266,11.653325080871582,1.6890193223953247
-72.42437744140625,-4.135416030883789,1.5074809789657593
-81.72127532958984,-7.970023155212402,1.7062809467315674
-84.29205322265625,-11.655279159545898,1.7683155536651611
-82.974365234375,-14.891700744628906,1.751822829246521
-86.44388580322266,-19.127735137939453,1.839816689491272
-57.14384078979492,-15.075922966003418,1.228122591972351
-62.407691955566406,-44.514076232910156,1.5929770469665527
-59.319862365722656,-46.01601791381836,1.560120940208435
-58.40638732910156,-49.189640045166016,1.5868253707885742
-57.45961380004883,-52.479225158691406,1.6171176433563232
-56.47444534301758,-55.902462005615234,1.6513091325759888
-55.44504928588867,-59.479679107666016,1.6897658109664917
-54.36486053466797,-63.233699798583984,1.7329214811325073
-48.390647888183594,-86.6705093383789,2.062786817550659
-17.40988540649414,-42.51482009887695,0.954695463180542
-16.264320373535156,-44.7662467956543,0.9897695779800415
-14.07908821105957,-44.209716796875,0.9641709327697754
-12.042121887207031,-43.83083724975586,0.9445855617523193
-13.226205825805664,-57.0157585144043,1.2162867784500122
-10.87731647491455,-57.24931335449219,1.2109636068344116
-8.83935260772705,-59.459983825683594,1.249199628829956
-7.078299522399902,-65.6535873413086,1.3722361326217651
-4.683039665222168,-69.56675720214844,1.448918342590332
-2.366074562072754,-87.49948120117188,1.8189682960510254
1.2603778839111328,-95.85832214355469,1.992173433303833
4.289017200469971,-80.3486328125,1.6720788478851318
12.672503471374512,-94.22340393066406,1.9756574630737305
34.339473724365234,-87.29438781738281,1.9493508338928223
36.276023864746094,-82.34337615966797,1.8698463439941406
37.17510223388672,-75.9578628540039,1.7573614120483398
24.977815628051758,-46.233734130859375,1.0920171737670898
26.885589599609375,-45.31212615966797,1.094891905784607
29.008230209350586,-44.694923400878906,1.1072642803192139
31.18300437927246,-44.06275939941406,1.1217544078826904
33.4193000793457,-43.412925720214844,1.138496994972229
59.830291748046875,-71.57814025878906,1.9386402368545532
66.27945709228516,-73.1124496459961,2.050711154937744
63.86016845703125,-64.9939956665039,1.893479585647583
64.21119689941406,-60.30232238769531,1.8305227756500244
64.53273010253906,-55.899322509765625,1.7741906642913818
53.55768966674805,-30.163955688476562,1.2773454189300537
52.62236404418945,-26.912189483642578,1.22823965549469
53.21108627319336,-24.56886100769043,1.2179417610168457
54.20930862426758,-22.433935165405273,1.2191623449325562
56.831207275390625,-20.886672973632812,1.258226752281189
53.79669189453125,-31.047775268554688,1.8073089122772217
52.84281539916992,-27.72938346862793,1.736406922340393
51.67058181762695,-24.519638061523438,1.6641521453857422
53.70003128051758,-22.887136459350586,1.6985068321228027
55.89842224121094,-21.213281631469727,1.7396602630615234
63.48250198364258,-21.215532302856445,1.947566270828247
68.35903930664062,-19.830598831176758,2.071044921875
38.95682144165039,47.406429290771484,1.7853823900222778
34.984375,46.241146087646484,1.687159538269043
-42.1893310546875,3.7585747241973877,1.2324466705322266
-39.552093505859375,1.9266034364700317,1.1522133350372314
-71.64564514160156,-5.158321380615234,2.090070962905884
-81.69841766357422,-9.193270683288574,2.392181873321533
-83.0583724975586,-12.743167877197266,2.4450325965881348
-81.72228240966797,-15.921893119812012,2.4225878715515137
-95.6109619140625,-26.74769401550293,2.888807773590088
-61.01278305053711,-44.899436950683594,2.2041854858398438
-59.00123596191406,-47.18728256225586,2.1982762813568115
-58.07606506347656,-50.40278625488281,2.2374954223632812
-56.621299743652344,-53.27552795410156,2.2621402740478516
-51.40305709838867,-52.414939880371094,2.1361236572265625
-46.74899673461914,-51.66680908203125,2.027400493621826
-43.8444938659668,-89.80058288574219,2.907738208770752
-17.861255645751953,-40.6478157043457,1.2918776273727417
-16.813114166259766,-42.85989761352539,1.3396164178848267
-15.303302764892578,-44.151084899902344,1.3596467971801758
-13.181692123413086,-43.619415283203125,1.3258825540542603
-11.641469955444336,-44.97393035888672,1.3517369031906128
-12.290511131286621,-56.79705810546875,1.690873384475708
-10.08112621307373,-57.714942932128906,1.7047595977783203
-7.993692398071289,-59.86441421508789,1.7573356628417969
-6.079225063323975,-65.48865509033203,1.9137158393859863
-3.805487871170044,-72.58358764648438,2.11486554145813
-1.0629233121871948,-87.12577819824219,2.5352911949157715
2.6508474349975586,-94.70935821533203,2.756838083267212
6.457648277282715,-94.58966064453125,2.758683443069458
10.272254943847656,-94.43828582763672,2.7640786170959473
13.999295234680176,-93.55976867675781,2.7526180744171143
17.965560913085938,-94.06946563720703,2.786611318588257
21.857404708862305,-93.81896209716797,2.8029584884643555
25.594114303588867,-92.81294250488281,2.8013803958892822
29.781606674194336,-93.21142578125,2.8472447395324707
33.8341178894043,-92.85135650634766,2.8754639625549316
35.1021842956543,-85.48815155029297,2.6889781951904297
35.12732696533203,-76.63377380371094,2.4529082775115967
31.562463760375977,-62.137847900390625,2.0278971195220947
25.550140380859375,-45.660003662109375,1.5224336385726929
27.71061134338379,-45.162147521972656,1.5417277812957764
29.85546112060547,-44.53916931152344,1.5601763725280762
32.05604934692383,-43.90029525756836,1.581665277481079
34.32199478149414,-43.242740631103516,1.6063907146453857
62.21136474609375,-72.22161102294922,2.773576259613037
65.35458374023438,-69.97715759277344,2.786032199859619
62.12576675415039,-61.3800163269043,2.541140079498291
62.514495849609375,-56.987220764160156,2.461338520050049
65.62461853027344,-55.16239547729492,2.494459629058838
69.71928405761719,-53.9771728515625,2.565545082092285
67.43926239013672,-40.26665115356445,2.2854514122009277
53.18618392944336,-28.923887252807617,1.7615975141525269
52.278099060058594,-25.764970779418945,1.6958428621292114
53.84952163696289,-23.900943756103516,1.7142633199691772
54.50594711303711,-21.615276336669922,1.7061171531677246
58.40965270996094,-20.48841094970703,1.801071047782898
66.48876953125,-20.362119674682617,2.0233147144317627
71.7435302734375,-18.854888916015625,2.158414363861084
89.2348403930664,-12.252492904663086,2.620828151702881
70.23432922363281,-6.7825164794921875,2.053114652633667
39.24720764160156,46.340858459472656,1.7669881582260132
-81.41551971435547,18.568363189697266,2.4297728538513184
-80.45930480957031,11.656336784362793,2.365565776824951
-42.44959259033203,4.417425155639648,1.241828441619873
-38.2288818359375,2.431105136871338,1.1145952939987183
-42.0306396484375,0.9805958271026611,1.2233023643493652
-72.40360260009766,-4.1342315673828125,2.110159397125244
-77.8244400024414,-7.5899763107299805,2.275202512741089
-83.52562713623047,-11.549304008483887,2.4534711837768555
-82.21324157714844,-14.755104064941406,2.430387020111084
-87.40496063232422,-19.34039306640625,2.6047394275665283
-57.14817428588867,-15.077066421508789,1.7197377681732178
-64.31027221679688,-45.871158599853516,2.2984752655029297
-59.33490753173828,-46.027679443359375,2.185023784637451
-58.421451568603516,-49.20232009887695,2.2224364280700684
-57.474708557128906,-52.49302673339844,2.264874219894409
-53.26177978515625,-52.72238540649414,2.180619478225708
-48.393287658691406,-51.91481399536133,2.0650784969329834
-54.38017272949219,-63.25149917602539,2.4271082878112793
-48.37710189819336,-86.64627075195312,2.887490749359131
-18.27497100830078,-39.96870422363281,1.2787703275680542
-17.19462013244629,-41.989112854003906,1.320229172706604
-16.114482879638672,-44.35383605957031,1.3731011152267456
-13.952707290649414,-43.8128662109375,1.337906837463379
-11.93150520324707,-43.428260803222656,1.3104575872421265
-13.240026473999023,-57.07535934448242,1.7048194408416748
-10.697402000427246,-56.30243682861328,1.6675392389297485
-8.935701370239258,-60.10808181762695,1.768186330795288
-6.953260898590088,-64.49388122558594,1.8874545097351074
-4.686294078826904,-69.61487579345703,2.0301671028137207
-2.366281032562256,-87.5069580078125,2.547121524810791
1.245348334312439,-94.71538543701172,2.7561705112457275
5.0517730712890625,-94.63750457763672,2.757589101791382
8.86241626739502,-94.4979019165039,2.761669874191284
12.598021507263184,-93.66976928710938,2.7500503063201904
16.537742614746094,-94.1533203125,2.7815213203430176
20.41585922241211,-93.91548156738281,2.7964816093444824
24.335126876831055,-93.64697265625,2.815347194671631
28.083982467651367,-92.61570739746094,2.816011905670166
32.32972717285156,-92.98882293701172,2.8645598888397217
33.684417724609375,-85.62922668457031,2.6773998737335205
36.21270751953125,-82.19962310791016,2.6135756969451904
31.35568618774414,-64.06734466552734,2.0754566192626953
24.778762817382812,-45.865291595458984,1.5168468952178955
26.930986404418945,-45.388668060302734,1.535651445388794
29.057552337646484,-44.77089309692383,1.5530219078063965
31.23639678955078,-44.138221740722656,1.5733639001846313
33.477012634277344,-43.487911224365234,1.5968692302703857
59.864376068115234,-71.61888885498047,2.7160191535949707
66.24408721923828,-73.07342529296875,2.869859218597412
63.94893264770508,-65.08435821533203,2.6549253463745117
62.375003814697266,-58.57790756225586,2.4897961616516113
64.16865539550781,-55.583953857421875,2.4701955318450928
68.1802978515625,-54.42257308959961,2.5383501052856445
53.539737701416016,-30.15384292602539,1.7879319190979004
52.605403900146484,-26.90350914001465,1.7192201614379883
52.578269958496094,-24.27667236328125,1.685074806213379
53.595481872558594,-22.179908752441406,1.6877334117889404
56.918601989746094,-20.918794631958008,1.7644697427749634
53.778465270996094,-31.037254333496094,2.3233237266540527
52.82560729980469,-27.72034454345703,2.232208251953125
51.94319152832031,-24.648998260498047,2.151310682296753
53.09469223022461,-22.62913703918457,2.1595754623413086
55.98334884643555,-21.24551010131836,2.2405166625976562
59.22404861450195,-19.792375564575195,2.3364806175231934
67.3626480102539,-19.541534423828125,2.6244428157806396
46.92445373535156,41.33882522583008,2.3399434089660645
38.966285705566406,47.41794967651367,2.296473979949951
34.95701599121094,46.204994201660156,2.1679108142852783
-43.266788482666016,7.39218282699585,1.6423869132995605
-42.473934173583984,5.5112624168396,1.6025876998901367
-36.90126419067383,3.2874550819396973,1.3862158060073853
-38.35874557495117,1.8684759140014648,1.4369864463806152
-42.18190002441406,0.35813432931900024,1.5783953666687012
-95.79328918457031,-3.036874771118164,3.586132049560547
-72.11634826660156,-5.192210674285889,2.7053873538970947
-78.16157531738281,-8.79529857635498,2.9430575370788574
-82.29853057861328,-12.626593589782715,3.115426540374756
-80.98146057128906,-15.777563095092773,3.0870866775512695
-90.24480438232422,-25.24648666381836,3.506368637084961
-61.176021575927734,-45.01957321166992,2.842061996459961
-59.016300201416016,-47.19932556152344,2.827599048614502
-58.091156005859375,-50.4158821105957,2.878058433532715
-54.84872817993164,-51.60770797729492,2.817934274673462
-49.880855560302734,-50.86277389526367,2.6656055450439453
-46.761966705322266,-51.68113327026367,2.6078615188598633
-45.82757568359375,-54.93165969848633,2.676753044128418
-47.91275405883789,-62.36262893676758,2.9426164627075195
-46.191410064697266,-65.40145874023438,2.9959590435028076
-51.059688568115234,-78.8346939086914,3.5144436359405518
-18.64862823486328,-38.19540786743164,1.5904182195663452
-17.691673278808594,-40.26190185546875,1.6455192565917969
-16.60468292236328,-42.328548431396484,1.7013261318206787
-15.16487979888916,-43.75177764892578,1.7326253652572632
-13.065403938293457,-43.23462677001953,1.6899805068969727
-11.6915864944458,-45.16754913330078,1.7457506656646729
-12.30328369140625,-56.85603713989258,2.1766421794891357
-9.92274284362793,-56.80815505981445,2.15779447555542
-8.0016508102417,-59.92416000366211,2.2621045112609863
-6.039072036743164,-65.05597686767578,2.4446866512298584
-3.8082497119903564,-72.63602447509766,2.72157883644104
-0.9945379495620728,-81.52018737792969,3.05049467086792
2.504136562347412,-89.46732330322266,3.348940372467041
6.099979877471924,-89.3509292602539,3.3510565757751465
9.197504997253418,-84.55755615234375,3.182581901550293
13.322762489318848,-89.0384521484375,3.368671417236328
16.961353302001953,-88.8114242553711,3.3831467628479004
20.62890625,-88.5458755493164,3.401878833770752
24.33329200744629,-88.24070739746094,3.424971580505371
28.073444366455078,-87.86516571044922,3.4514148235321045
30.2966365814209,-83.14340209960938,3.3111114501953125
31.890275955200195,-77.66583251953125,3.1414921283721924
35.15972900390625,-76.70445251464844,3.1572318077087402
30.286880493164062,-59.626583099365234,2.502387046813965
25.9050350189209,-46.29425048828125,1.9849634170532227
27.736833572387695,-45.204872131347656,1.9844642877578735
23.32300567626953,-34.79388427734375,1.5673255920410156
25.073678970336914,-34.338050842285156,1.5909149646759033
34.35581588745117,-43.285369873046875,2.067776679992676
62.35096740722656,-72.38368225097656,3.5746874809265137
65.32072448730469,-69.94088745117188,3.5808463096618652
63.155128479003906,-62.39704132080078,3.321927547454834
61.81110382080078,-56.34601593017578,3.1295504570007324
65.69664764404297,-55.22294616699219,3.2112772464752197
69.79798889160156,-54.038116455078125,3.3028910160064697
53.99872589111328,-32.2415657043457,2.3532462120056152
53.16862106323242,-28.914321899414062,2.2645812034606934
52.26148223876953,-25.75678825378418,2.1800801753997803
53.2369384765625,-23.629060745239258,2.179379940032959
54.587162017822266,-21.647480010986328,2.197253704071045
58.50152587890625,-20.52065086364746,2.319732666015625
65.54163360595703,-20.07206916809082,2.5648131370544434
70.67692565917969,-18.574602127075195,2.734344959259033
39.203582763671875,46.289344787597656,2.2697341442108154
-81.37556457519531,18.55926513671875,3.123040199279785
-43.559410095214844,8.108962059020996,1.657880187034607
-42.73845672607422,6.191629886627197,1.615856647491455
-42.03081130981445,4.373839855194092,1.5811761617660522
-37.11201858520508,2.360079765319824,1.3914402723312378
-40.68678283691406,0.9492435455322266,1.522809386253357
-72.42110443115234,-4.135231018066406,2.7142200469970703
-74.28068542480469,-7.244363784790039,2.792574405670166
-82.7726821899414,-11.445192337036133,3.1266016960144043
-81.46560668945312,-14.620922088623047,3.096928119659424
-80.18224334716797,-17.742198944091797,3.07277774810791
-41.46731185913086,-10.94007682800293,1.6046843528747559
-64.48977661132812,-45.999176025390625,2.9639780521392822
-59.34996032714844,-46.039363861083984,2.810549736022949
-58.43653106689453,-49.215030670166016,2.858684778213501
-56.827430725097656,-51.9018669128418,2.8797147274017334
-51.65266036987305,-51.12956237792969,2.719452381134033
-47.09513854980469,-50.522186279296875,2.584355592727661
-46.17827224731445,-53.711612701416016,2.650397300720215
-48.007049560546875,-60.60266876220703,2.8928627967834473
-47.533203125,-65.22587585449219,3.019887924194336
-53.14801788330078,-79.45035552978516,3.5766491889953613
-48.425254821777344,-86.73251342773438,3.7168703079223633
-18.99713706970215,-37.488101959228516,1.5725302696228027
-18.053985595703125,-39.48537063598633,1.6245510578155518
-16.984506607055664,-41.476016998291016,1.6770042181015015
-15.92890739440918,-43.84305953979492,1.7454074621200562
-13.82851791381836,-43.42290115356445,1.7051712274551392
-11.82287311553955,-43.032833099365234,1.6698395013809204
-13.253900527954102,-57.13512420654297,2.194612503051758
-10.713958740234375,-56.38956832885742,2.147693634033203
-8.78693675994873,-59.10741424560547,2.2359466552734375
-6.832521915435791,-63.37386703491211,2.385023832321167
-4.685510635375977,-69.60338592529297,2.6102702617645264
-2.2140235900878906,-81.87720489501953,3.064746379852295
1.0639337301254272,-80.91771697998047,3.027987480163574
4.7720947265625,-89.39810180664062,3.3498032093048096
8.371102333068848,-89.2588882446289,3.3544859886169434
11.985116958618164,-89.11274719238281,3.3643875122070312
15.61495304107666,-88.8996353149414,3.3773157596588135
19.270877838134766,-88.64847564697266,3.3944613933563232
22.960739135742188,-88.35807037353516,3.4159300327301025
26.69260025024414,-88.02716064453125,3.441842555999756
30.464862823486328,-87.62494659423828,3.471198797225952
30.689294815063477,-78.01531219482422,3.1368627548217773
33.95124435424805,-77.06629180908203,3.1510424613952637
30.05997085571289,-61.419883728027344,2.5586488246917725
25.131832122802734,-46.518836975097656,1.9783878326416016
26.956363677978516,-45.431434631347656,1.9766358137130737
22.81045150756836,-35.145591735839844,1.567751169204712
24.42128562927246,-34.50819396972656,1.5818369388580322
33.50983428955078,-43.530517578125,2.055509090423584
59.89849853515625,-71.65975189208984,3.4946603775024414
66.20875549316406,-73.03446960449219,3.688530921936035
63.91737747192383,-65.05225372314453,3.412416934967041
60.64008712768555,-56.94859313964844,3.112703323364258
64.23838806152344,-55.64436340332031,3.1800055503845215
68.25646209716797,-54.483375549316406,3.2678396701812744
53.52178955078125,-30.14373207092285,2.29842209815979
52.58844757080078,-26.894840240478516,2.210120439529419
51.96002197265625,-23.991212844848633,2.1414437294006348
53.00408935546875,-21.935171127319336,2.146394729614258
57.00630569458008,-20.951030731201172,2.272519111633301
53.80739212036133,-31.05396270751953,2.841801881790161
52.80841064453125,-27.71132469177246,2.7279953956604004
51.92689895629883,-24.64126968383789,2.6291584968566895
52.46387481689453,-22.36027717590332,2.6087229251861572
56.06858825683594,-21.27785873413086,2.7432124614715576
59.89571762084961,-20.016843795776367,2.8887503147125244
66.39424133300781,-19.260610580444336,3.1622695922851562
46.92014694213867,41.33502960205078,2.8603291511535645
38.97575378417969,47.42946243286133,2.8081297874450684
34.9296875,46.16886901855469,2.6482090950012207
-83.4582290649414,28.581287384033203,4.035280704498291
-43.68753433227539,11.135744094848633,2.062291145324707
-43.60978317260742,9.267701148986816,2.0393857955932617
-42.82505416870117,7.316704750061035,1.9873261451721191
-42.053184509277344,5.456668376922607,1.9397618770599365
-37.09601593017578,3.3048059940338135,1.703599214553833
-37.23462677001953,1.8137197494506836,1.7052398920059204
-40.828006744384766,0.34663522243499756,1.867660641670227
-72.5007095336914,-2.298463821411133,3.3180556297302246
-72.13374328613281,-5.193458080291748,3.308145046234131
-74.58032989501953,-8.39231014251709,3.4330496788024902
-81.55200958251953,-12.512056350708008,3.7740697860717773
-80.25350952148438,-15.635732650756836,3.740053653717041
-25.096363067626953,-5.945041656494141,1.179749608039856
-90.25165557861328,-25.2484073638916,4.286877155303955
-61.34029006958008,-45.140445709228516,3.4837608337402344
-59.03137969970703,-47.211395263671875,3.4576363563537598
-58.106266021728516,-50.42898941040039,3.519355297088623
-53.18279266357422,-50.040199279785156,3.3403029441833496
-48.445316314697266,-49.39897918701172,3.1649329662323
-46.77494812011719,-51.69547653198242,3.189007520675659
-45.84063720703125,-54.94730758666992,3.273273468017578
-44.85407257080078,-58.38151931762695,3.367708444595337
