53.61688232421875,-5.958327293395996,8.360614776611328
57.23589324951172,-4.041344165802002,8.892413139343262
62.070316314697266,-1.8819236755371094,9.62397575378418
66.47003936767578,0.6562016010284424,10.301921844482422
67.03089141845703,3.357943296432495,10.401368141174316
67.55828094482422,6.112748146057129,10.512847900390625
78.08929443359375,10.2423095703125,12.205811500549316
68.78287506103516,11.84946346282959,10.816887855529785
75.91492462158203,16.24261474609375,12.031455993652344
74.76025390625,19.16604995727539,11.96091079711914
73.56031799316406,22.042991638183594,11.901103019714355
72.31474304199219,24.876718521118164,11.85181999206543
71.0229263305664,27.670379638671875,11.812884330749512
69.6841812133789,30.426925659179688,11.784153938293457
68.29754638671875,33.14917755126953,11.765536308288574
66.86201477050781,35.83985900878906,11.7569580078125
65.04946899414062,38.30906295776367,11.699604988098145
63.83902359008789,41.136775970458984,11.769838333129883
62.248565673828125,43.747859954833984,11.791350364685059
60.603145599365234,46.33709716796875,11.823007583618164
58.90079116821289,48.9068717956543,11.86489486694336
56.88233947753906,51.22784423828125,11.863585472106934
52.13430404663086,50.890350341796875,11.290912628173828
50.45449447631836,53.373687744140625,11.382646560668945
48.74663543701172,55.90436935424805,11.495108604431152
41.14510726928711,51.20158004760742,10.17975902557373
47.35228729248047,64.03317260742188,12.342434883117676
45.17681121826172,66.5242691040039,12.462437629699707
42.91987609863281,69.01194763183594,12.595035552978516
40.57701110839844,71.49807739257812,12.740755081176758
30.81712532043457,59.77415084838867,10.422393798828125
35.36577606201172,75.94053649902344,12.982810974121094
32.189842224121094,77.06817626953125,12.943880081176758
28.853557586669922,77.72156524658203,12.848403930664062
25.530155181884766,78.27217864990234,12.75944995880127
22.384313583374023,79.30210876464844,12.770317077636719
19.460338592529297,81.30597686767578,12.956572532653809
16.670499801635742,84.51655578613281,13.35061264038086
14.060173034667969,90.2411880493164,14.154152870178223
10.700753211975098,93.14434814453125,14.530313491821289
5.899105548858643,79.35627746582031,12.332444190979004
2.6805074214935303,78.76518249511719,12.213972091674805
-0.4016687870025635,65.17192077636719,10.100432395935059
-2.9684720039367676,64.00669860839844,9.930318832397461
-5.509798049926758,63.51897048950195,9.881036758422852
-8.102169036865234,63.60104751586914,9.936450004577637
-12.15988540649414,72.18408966064453,11.344599723815918
-15.887188911437988,75.62345886230469,11.975841522216797
-18.91117286682129,74.91999053955078,11.97517204284668
-36.23280334472656,83.82723999023438,14.153036117553711
-39.827178955078125,-83.88871002197266,14.39174747467041
74.65998840332031,-56.50648880004883,14.511067390441895
73.30879974365234,-50.98521423339844,13.838869094848633
72.18048095703125,-46.012046813964844,13.26594352722168
70.97118377685547,-41.32868194580078,12.728032112121582
69.81881713867188,-36.984832763671875,12.244812965393066
73.32920837402344,-35.14775848388672,12.602463722229004
87.62916564941406,-37.75148010253906,14.78727912902832
87.26358795166016,-33.50535202026367,14.486571311950684
86.83183288574219,-29.394901275634766,14.20723819732666
70.64159393310547,-20.79108238220215,11.412249565124512
55.29375457763672,-13.886687278747559,8.835453033447266
53.8687744140625,-11.249494552612305,8.528597831726074
52.73033905029297,-8.817784309387207,8.285539627075195
53.96272659301758,-6.808624267578125,8.429363250732422
55.656044006347656,-4.760546684265137,8.65697956085205
60.227622985839844,-2.720874309539795,9.343498229980469
66.82769012451172,2.354489326477051,10.363275527954102
67.36746978759766,5.089115142822266,10.470254898071289
78.47103118896484,9.110383987426758,12.243000984191895
77.42292785644531,12.15810775756836,12.145930290222168
76.32984924316406,15.150832176208496,12.060264587402344
75.19181060791016,18.092288970947266,11.985692977905273
74.00862121582031,20.98600196838379,11.921951293945312
72.77994537353516,23.835323333740234,11.868804931640625
64.12730407714844,23.894338607788086,10.605840682983398
70.18397521972656,29.4133243560791,11.7935791015625
68.81514739990234,32.147926330566406,11.771236419677734
67.39778900146484,34.849952697753906,11.75895881652832
65.60116577148438,37.33445739746094,11.697917938232422
47.57094955444336,29.664505004882812,8.688444137573242
62.84208297729492,42.7864875793457,11.782225608825684
61.21717071533203,45.38357925415039,11.81011962890625
59.536109924316406,47.960205078125,11.848224639892578
57.53678894042969,50.291561126708984,11.84315299987793
44.92039108276367,42.565608978271484,9.590739250183105
51.0776481628418,52.4517822265625,11.34641170501709
49.38089370727539,54.96385192871094,11.451111793518066
47.65190887451172,57.5295295715332,11.577157974243164
48.13576126098633,63.11219787597656,12.301218032836914
39.10901641845703,55.79008483886719,10.559085845947266
43.76293182373047,68.09371185302734,12.544583320617676
41.452354431152344,70.5802001953125,12.685388565063477
39.05286407470703,73.06634521484375,12.839668273925781
36.35721969604492,75.13623809814453,12.936098098754883
33.43836975097656,76.83202362060547,12.986104965209961
30.077983856201172,77.47711944580078,12.880355834960938
26.74687957763672,78.05520629882812,12.787359237670898
23.535106658935547,78.8835220336914,12.7577543258667
20.588088989257812,80.70934295654297,12.908731460571289
17.729747772216797,83.35379028320312,13.20704460144043
14.856236457824707,86.85909271240234,13.656768798828125
11.984060287475586,92.22659301757812,14.413262367248535
7.103574275970459,79.57243347167969,12.38105583190918
3.8290328979492188,78.31482696533203,12.151605606079102
0.5690228939056396,65.61263275146484,10.168924331665039
-2.030910015106201,64.43228149414062,9.990572929382324
-4.545134544372559,63.291080474853516,9.834012985229492
-7.170191764831543,63.825279235839844,9.953766822814941
-10.328808784484863,67.40430450439453,10.568145751953125
-14.768983840942383,75.8787841796875,11.980267524719238
1.2650516033172607,65.93731689453125,10.782756805419922
-1.3597564697265625,64.74545288085938,10.588235855102539
-3.8955650329589844,63.59425354003906,10.417173385620117
-6.527538299560547,64.17761993408203,10.547191619873047
-9.72269058227539,68.23100280761719,11.268479347229004
-13.863080978393555,75.44429016113281,12.541690826416016
-16.86708641052246,74.7579345703125,12.530193328857422
-19.954301834106445,74.38433837890625,12.591870307922363
69.13007354736328,-55.131507873535156,14.457026481628418
75.36841583251953,-55.303466796875,15.28432846069336
71.44902801513672,-48.13502883911133,14.085668563842773
70.42290496826172,-43.43605041503906,13.528182983398438
69.3071060180664,-38.99448013305664,13.002175331115723
70.92142486572266,-36.2319221496582,13.021234512329102
75.44290161132812,-34.79413604736328,13.583584785461426
84.75228881835938,-35.03081130981445,14.994053840637207
84.42697143554688,-30.987144470214844,14.704227447509766
84.03474426269531,-27.065336227416992,14.434738159179688
71.37080383300781,-19.860126495361328,12.112508773803711
54.730384826660156,-12.885116577148438,9.193081855773926
53.53899383544922,-10.354181289672852,8.915840148925781
52.87641906738281,-8.037753105163574,8.744624137878418
53.229190826416016,-5.915246963500977,8.756564140319824
57.22160720825195,-4.040342807769775,9.379039764404297
62.053565979003906,-1.8814237117767334,10.150440216064453
65.01494598388672,0.6418395042419434,10.630475044250488
65.54965209960938,3.2837343215942383,10.730827331542969
67.5497055053711,6.1119704246521,11.089509010314941
76.03711700439453,9.973146438598633,12.538576126098633
68.85836791992188,11.862470626831055,11.424212455749512
73.9476547241211,15.82170295715332,12.364107131958008
72.8339614868164,18.672208786010742,12.293481826782227
71.67417907714844,21.477787017822266,12.233590126037598
70.468017578125,24.241432189941406,12.184223175048828
69.21502685546875,26.966020584106445,12.145210266113281
67.91454315185547,29.654232025146484,12.116423606872559
66.56581115722656,32.30865478515625,12.09776496887207
65.16787719726562,34.931758880615234,12.089165687561035
63.40106964111328,37.338279724121094,12.030155181884766
62.219757080078125,40.093345642089844,12.102075576782227
60.66682815551758,42.6362419128418,12.123626708984375
59.05919647216797,45.15659713745117,12.155351638793945
57.39503479003906,47.6566047668457,12.197315216064453
53.8819580078125,48.52571487426758,11.855753898620605
52.214202880859375,50.96834945678711,11.930025100708008
50.53245544433594,53.45616149902344,12.027107238769531
48.82269287109375,55.99159622192383,12.1461181640625
41.21509552001953,51.288673400878906,10.757791519165039
46.09431076049805,62.33206558227539,12.675196647644043
43.96526336669922,64.740234375,12.795130729675293
41.756961822509766,67.14205932617188,12.927578926086426
39.4652214050293,69.53903198242188,13.073041915893555
30.841176986694336,59.820770263671875,11.004069328308105
34.61328125,74.32466125488281,13.405250549316406
31.718305587768555,75.93917083740234,13.45559024810791
28.40533447265625,76.51416778564453,13.344342231750488
25.111064910888672,76.98735046386719,13.240092277526855
22.0032958984375,77.95220947265625,13.243196487426758
19.10456085205078,79.8194351196289,13.419107437133789
16.68977928161621,84.6142807006836,14.10101318359375
13.679542541503906,87.7982406616211,14.528228759765625
10.355401992797852,90.1381607055664,14.834526062011719
5.859894752502441,78.8289794921875,12.924125671386719
2.6577508449554443,78.096435546875,12.776185989379883
-0.4017205238342285,65.18045043945312,10.6572265625
-2.968853235244751,64.01493835449219,10.47771167755127
-5.424234390258789,62.53248977661133,10.262474060058594
-8.043580055236816,63.141178131103516,10.407032012939453
-12.058905601501465,71.5847396850586,11.869029998779297
-15.759016990661621,75.01339721679688,12.532447814941406
-18.75861930847168,74.3156509399414,12.53174114227295
-39.82761001586914,-83.88959503173828,15.183272361755371
71.89547729492188,-50.002262115478516,14.318366050720215
70.84809112548828,-45.162715911865234,13.737059593200684
69.71328735351562,-40.596168518066406,13.189920425415039
69.5632095336914,-36.849422454833984,12.870827674865723
73.97965240478516,-35.45950698852539,13.413369178771973
84.85467529296875,-36.556209564208984,15.106456756591797
84.55508422851562,-32.46540069580078,14.808795928955078
84.18714141845703,-28.49959945678711,14.531940460205078
70.73157501220703,-20.817548751831055,12.05511474609375
55.19036865234375,-13.860713005065918,9.303863525390625
53.97007369995117,-11.270651817321777,9.014481544494629
52.20695495605469,-8.730262756347656,8.654376029968262
53.57773208618164,-6.760058403015137,8.829431533813477
55.642520904541016,-4.759393215179443,9.13078784942627
60.211856842041016,-2.7201571464538574,9.854695320129395
65.35623931884766,2.302647590637207,10.692391395568848
65.86917114257812,4.975926399230957,10.800313949584961
76.40271759033203,8.870244979858398,12.575773239135742
75.39801025390625,11.840131759643555,12.478666305541992
74.34720611572266,14.757294654846191,12.392945289611816
73.25048828125,17.625179290771484,12.318297386169434
72.10777282714844,20.446990966796875,12.254463195800781
70.91877746582031,23.225799560546875,12.201231002807617
69.68313598632812,25.964458465576172,12.158416748046875
68.4002685546875,28.665796279907227,12.12586784362793
67.06944274902344,31.332401275634766,12.103479385375977
65.68980407714844,33.96678924560547,12.091171264648438
63.939002990722656,36.388511657714844,12.02846622467041
47.61475372314453,29.69182014465332,9.174636840820312
61.246456146240234,41.70009994506836,12.114490509033203
59.659217834472656,44.22859191894531,12.142440795898438
58.01617431640625,46.73579025268555,12.180620193481445
54.49065399169922,47.62900924682617,11.832897186279297
44.99237060546875,42.63381576538086,10.134322166442871
51.156314849853516,52.53257369995117,11.988752365112305
49.4576530456543,55.04928970336914,12.099555969238281
47.72679138183594,57.619956970214844,12.232954978942871
46.861141204833984,61.44099807739258,12.633987426757812
39.13149642944336,55.8221549987793,11.146102905273438
42.5817985534668,66.25588989257812,12.877187728881836
40.32135009765625,68.65447235107422,13.017789840698242
37.9747200012207,71.04920959472656,13.171738624572754
34.36865997314453,71.02667236328125,12.900980949401855
32.91569900512695,75.63109588623047,13.486043930053711
29.60884666442871,76.26876068115234,13.376678466796875
26.319156646728516,76.80703735351562,13.274774551391602
23.135372161865234,77.54376983642578,13.23067855834961
20.236799240112305,79.33213806152344,13.386190414428711
17.62773895263672,82.87425994873047,13.853108406066895
14.775289535522461,86.38571166992188,14.329194068908691
11.600305557250977,89.27313232421875,14.718864440917969
7.103576183319092,79.5722427368164,13.061821937561035
3.8295445442199707,78.32536315917969,12.821518898010254
0.5690867900848389,65.62126922607422,10.729503631591797
-2.031175136566162,64.44062805175781,10.541296005249023
-4.545713901519775,63.29914474487305,10.376083374023438
-7.1182541847229,63.36298751831055,10.425034523010254
-10.664994239807129,69.59825134277344,11.512160301208496
-14.649791717529297,75.26644897460938,12.537032127380371
1.2660391330718994,65.98814392089844,11.355045318603516
-1.3599462509155273,64.75389862060547,11.143068313598633
-3.896059513092041,63.60242462158203,10.9630126953125
-6.439628601074219,63.3133544921875,10.948966979980469
-9.723905563354492,68.2395248413086,11.858892440795898
-13.887725830078125,75.57841491699219,13.220614433288574
-16.731767654418945,74.15816497802734,13.079280853271484
-19.794124603271484,73.78730773925781,13.143613815307617
-65.5390853881836,71.1646957397461,16.644699096679688
55.70465087890625,-78.64022827148438,16.580120086669922
58.38813018798828,-75.78018188476562,16.458736419677734
75.60808563232422,-55.47931671142578,16.134279251098633
70.25666809082031,-47.33174133300781,14.574479103088379
69.16221618652344,-42.658470153808594,13.980377197265625
68.11380004882812,-38.323089599609375,13.446148872375488
71.55068969726562,-36.553382873535156,13.823334693908691
75.43101501464844,-34.78864288330078,14.29124927520752
82.1631851196289,-33.96064758300781,15.295700073242188
81.89620208740234,-30.058277130126953,15.008907318115234
81.56053161621094,-26.26845932006836,14.741931915283203
71.37108612060547,-19.86019515991211,12.745601654052734
54.8358268737793,-12.909944534301758,9.692179679870605
53.63903045654297,-10.37353229522705,9.399341583251953
52.25230407714844,-7.942873954772949,9.093037605285645
52.832740783691406,-5.871193885803223,9.145586013793945
57.28624725341797,-4.044897556304932,9.880370140075684
62.03679275512695,-1.880910873413086,10.678050994873047
63.61845016479492,0.6280503273010254,10.945794105529785
64.1286849975586,3.2125511169433594,11.046881675720215
67.52529907226562,6.109763145446777,11.664871215820312
71.52143859863281,9.380871772766113,12.410323143005371
68.93421936035156,11.875540733337402,12.034516334533691
71.78629302978516,15.35926628112793,12.630030632019043
70.71539306640625,18.129085540771484,12.559700012207031
69.59789276123047,20.855615615844727,12.500044822692871
68.41979217529297,23.53682518005371,12.448347091674805
67.49231719970703,26.294864654541016,12.461873054504395
66.22811889648438,28.91787338256836,12.433069229125977
64.91535186767578,31.507585525512695,12.414399147033691
63.55320739746094,34.06624984741211,12.405795097351074
61.8299674987793,36.41302490234375,12.345206260681152
60.67652130126953,39.09890365600586,12.418707847595215
59.15947723388672,41.57687759399414,12.440287590026855
57.588069915771484,44.031795501708984,12.472006797790527
55.96052932739258,46.46549606323242,12.514004707336426
53.90843963623047,48.54956817626953,12.481514930725098
52.24787139892578,51.0012092590332,12.561631202697754
50.56569290161133,53.491302490234375,12.663995742797852
48.84904479980469,56.02180862426758,12.787814140319824
41.2855110168457,51.37629318237305,11.339364051818848
44.89830780029297,60.71472930908203,12.991567611694336
42.813987731933594,63.0449333190918,13.111279487609863
40.652462005615234,65.36612701416016,13.243412971496582
37.51786422729492,66.10772705078125,13.07751178741455
30.86532211303711,59.867591857910156,11.58824348449707
32.69965744018555,70.21556854248047,13.32601547241211
31.113834381103516,74.4919662475586,13.88898754119873
27.917295455932617,75.19953155517578,13.800490379333496
24.689603805541992,75.69520568847656,13.69822883605957
21.620952606201172,76.59764862060547,13.69318675994873
18.932022094726562,79.09867858886719,13.992925643920898
16.349992752075195,82.89175415039062,14.535901069641113
13.259275436401367,85.10104370117188,14.817870140075684
10.030776977539062,87.31244659423828,15.120485305786133
5.874429225921631,79.02428436279297,13.633275985717773
2.6353087425231934,77.43716430664062,13.33041763305664
-0.4017782211303711,65.18900299072266,11.215681076049805
-2.969240665435791,64.023193359375,11.026737213134766
-5.4556379318237305,62.894466400146484,10.86133861541748
-8.122011184692383,63.7569465637207,11.057732582092285
-12.373210906982422,73.45050048828125,12.814865112304688
-15.632558822631836,74.41148376464844,13.081609725952148
-18.60810089111328,73.71935272216797,13.080892562866211
-39.82804489135742,-83.89048767089844,15.97697925567627
56.0655403137207,-75.04267120361328,16.116111755371094
70.34449005126953,-53.24030685424805,15.177953720092773
73.51122283935547,-51.12598419189453,15.405285835266113
69.56055450439453,-44.341949462890625,14.192313194274902
68.4959716796875,-39.887306213378906,13.636911392211914
69.55271911621094,-36.8438606262207,13.541460037231445
73.96812438964844,-35.45398712158203,14.112203598022461
82.24359130859375,-35.43132781982422,15.406835556030273
82.00297546386719,-31.485488891601562,15.112410545349121
81.69223022460938,-27.65500259399414,14.838262557983398
70.8281478881836,-20.845983505249023,12.702472686767578
55.29798126220703,-13.887742042541504,9.809207916259766
54.07202911376953,-11.291940689086914,9.503528594970703
52.921531677246094,-8.849761009216309,9.231329917907715
53.19717025756836,-6.712033271789551,9.224891662597656
55.62895965576172,-4.758234024047852,9.605655670166016
60.1960334777832,-2.719451427459717,10.36701488494873
63.944427490234375,2.252903461456299,11.008172035217285
64.53944396972656,4.875476360321045,11.135346412658691
71.85983276367188,8.342827796936035,12.446196556091309
70.92896270751953,11.138333320617676,12.352546691894531
72.169921875,14.325119018554688,12.65873908996582
71.11620330810547,17.111637115478516,12.584412574768066
70.01592254638672,19.85382843017578,12.520838737487793
66.19330596923828,21.678207397460938,11.98342514038086
67.94693756103516,25.317533493041992,12.475088119506836
66.7004623413086,27.95342445373535,12.442524909973145
65.40573120117188,30.5551700592041,12.42011833190918
64.06192016601562,33.125038146972656,12.407803535461426
62.35479736328125,35.486907958984375,12.343513488769531
47.658721923828125,29.719240188598633,9.663053512573242
59.725830078125,40.6647834777832,12.431138038635254
58.174652099609375,43.12800216674805,12.45910930633545
56.568077087402344,45.56926345825195,12.49730396270752
54.51727294921875,47.65226745605469,12.45740795135498
45.064781188964844,42.70241928100586,10.681136131286621
51.18968963623047,52.56684875488281,12.623558044433594
49.49063491821289,55.08598709106445,12.740409851074219
47.63329315185547,57.50707244873047,12.847066879272461
45.64906692504883,59.85181427001953,12.950427055358887
39.171844482421875,55.87968826293945,11.740728378295898
41.45977020263672,64.51006317138672,13.193148612976074
38.11820983886719,64.9031982421875,12.949679374694824
36.46259689331055,68.22006225585938,13.308236122131348
34.178279876708984,70.63323974609375,13.50003719329834
32.09169387817383,73.73773193359375,13.83560848236084
29.108596801757812,74.98013305664062,13.837963104248047
25.867755889892578,75.48966217041016,13.728988647460938
22.736284255981445,76.20606231689453,13.681983947753906
20.079818725585938,78.71675872802734,13.976532936096191
17.458030700683594,82.0764389038086,14.436763763427734
14.41598129272461,84.28512573242188,14.711427688598633
11.23939323425293,86.49568939208984,15.006271362304688
7.104548931121826,79.58319854736328,13.746373176574707
3.818035840988159,78.09004211425781,13.451082229614258
0.5695374011993408,65.67179107666016,11.298954963684082
-2.031416654586792,64.4489974975586,11.093660354614258
-4.546303749084473,63.3072395324707,10.919768333435059
-7.177591323852539,63.89107894897461,11.061311721801758
-10.730978965759277,70.02884674072266,12.188769340515137
-14.643752098083496,75.23546600341797,13.186817169189453
1.2662043571472168,65.99693298339844,11.922222137451172
-1.3609776496887207,64.80364990234375,11.707087516784668
-3.8965635299682617,63.61061096191406,11.510563850402832
-6.338214874267578,62.31610870361328,11.3132905960083
-9.592535018920898,67.31758117675781,12.281381607055664
-13.889455795288086,75.5877914428711,13.880851745605469
-16.760498046875,74.28543090820312,13.75432300567627
-64.01950073242188,69.51469421386719,17.068628311157227
-63.16420364379883,63.28388977050781,16.149206161499023
53.9659538269043,-76.18566131591797,16.86268424987793
54.43381118774414,-70.64796447753906,16.10835838317871
60.44304656982422,-72.24745178222656,17.013368606567383
75.85004425048828,-55.65688705444336,16.992137908935547
72.58585357666016,-48.90090560913086,15.807685852050781
67.94245147705078,-41.90613555908203,14.417896270751953
67.29290771484375,-37.8612174987793,13.945775985717773
71.53972625732422,-36.54779815673828,14.509660720825195
75.41908264160156,-34.78314971923828,15.000728607177734
79.72077178955078,-32.95113754272461,15.580256462097168
79.50606536865234,-29.181032180786133,15.296648979187012
79.22130584716797,-25.515050888061523,15.032361030578613
56.31070327758789,-15.669391632080078,10.556978225708008
54.94198226928711,-12.934935569763184,10.194643020629883
53.739723205566406,-10.393009185791016,9.8860445022583
52.60960388183594,-7.997198104858398,9.611237525939941
52.441043853759766,-5.827659606933594,9.529939651489258
57.271873474121094,-4.043887615203857,10.369909286499023
61.81560516357422,-1.8742027282714844,11.169950485229492
62.27696990966797,0.6148152351379395,11.24869441986084
62.76422119140625,3.1441986560821533,11.350370407104492
67.50084686279297,6.107544898986816,12.241462707519531
71.49191284179688,9.376994132995605,13.023100852966309
69.0104751586914,11.888675689697266,12.647932052612305
69.01444244384766,14.766201972961426,12.747166633605957
67.816162109375,17.385814666748047,12.6447172164917
66.63858032226562,19.968835830688477,12.56469440460205
66.74848175048828,22.961885452270508,12.749175071716309
65.84868621826172,25.654508590698242,12.76400375366211
64.61890411376953,28.215219497680664,12.73521900177002
63.34035110473633,30.743135452270508,12.716557502746582
62.012306213378906,33.24027633666992,12.707955360412598
60.330684661865234,35.530059814453125,12.645855903625488
59.20388412475586,38.149959564208984,12.720867156982422
57.721229553222656,40.56608581542969,12.742422103881836
56.18451690673828,42.95864486694336,12.77413558959961
54.59217071533203,45.32931900024414,12.816091537475586
52.942466735839844,47.67962646484375,12.868420600891113
51.23350143432617,50.01104736328125,12.931290626525879
43.68360137939453,46.21102523803711,11.485344886779785
47.62910461425781,54.62274932861328,13.08950138092041
41.35637664794922,51.4644660949707,11.924606323242188
43.75962448120117,59.17491912841797,13.292777061462402
40.503929138183594,59.6433219909668,13.021684646606445
38.98892593383789,62.69127655029297,13.334151268005371
37.40679931640625,65.91204833984375,13.688252449035645
30.889562606811523,59.91461181640625,12.175003051757812
32.764503479003906,70.35481262207031,14.017513275146484
30.308706283569336,72.5643310546875,14.203493118286133
27.421226501464844,73.86328887939453,14.230462074279785
24.253528594970703,74.3582763671875,14.126546859741211
21.246662139892578,75.27166748046875,14.12639045715332
18.754858016967773,78.35846710205078,14.552431106567383
15.870367050170898,80.46001434326172,14.812259674072266
12.863003730773926,82.5575180053711,15.091002464294434
9.725034713745117,84.65115356445312,15.389810562133789
5.875237941741943,79.03511810302734,14.314306259155273
2.639679193496704,77.56501007080078,14.017507553100586
-0.4020819664001465,65.23915100097656,11.783388137817383
-2.9696271419525146,64.03147888183594,11.57747745513916
-5.456323623657227,62.902496337890625,11.403793334960938
-8.16799545288086,64.11788177490234,11.674233436584473
-12.455467224121094,73.93871307373047,13.542594909667969
-15.706502914428711,74.76349639892578,13.798171043395996
-18.45957374572754,73.13088989257812,13.622828483581543
-64.3475341796875,71.98526000976562,17.438915252685547
-63.47467803955078,65.51049041748047,16.475269317626953
-39.82841873168945,-83.89134979248047,16.77294921875
54.47899627685547,-79.3810043334961,17.389108657836914
53.14055252075195,-71.12763214111328,16.036184310913086
58.16336441040039,-71.65628051757812,16.669103622436523
70.2239761352539,-53.14908218383789,15.906661033630371
73.73578643798828,-51.28217315673828,16.222021102905273
70.75284576416016,-45.10200881958008,15.15461540222168
67.3171157836914,-39.2008056640625,14.06977367401123
70.169921875,-37.170799255371094,14.342106819152832
73.9565658569336,-35.44845199584961,14.812813758850098
79.78158569335938,-34.37067413330078,15.690070152282715
79.59368896484375,-30.560453414916992,15.3990478515625
79.3343505859375,-26.8568115234375,15.127752304077148
70.93189239501953,-20.87651824951172,13.354711532592773
55.40632247924805,-13.914946556091309,10.317976951599121
54.174659729003906,-11.31336784362793,9.995833396911621
53.01910400390625,-8.866079330444336,9.70901107788086
52.820899963378906,-6.664559364318848,9.615882873535156
55.69212341308594,-4.7636399269104,10.095561027526855
60.18020248413086,-2.71872878074646,10.880529403686523
62.58853530883789,2.2051331996917725,11.311437606811523
64.84918212890625,4.898879051208496,11.74609661102295
71.96360778808594,8.354878425598145,13.085000991821289
70.69718170166016,11.101932525634766,12.925448417663574
69.46299743652344,13.787820816040039,12.790817260742188
68.25592041015625,16.42340850830078,12.679886817932129
67.07121276855469,19.018823623657227,12.5916748046875
65.12041473388672,21.32683563232422,12.376409530639648
66.01184844970703,24.596511840820312,12.72348690032959
65.0785903930664,27.273712158203125,12.744665145874023
63.8181266784668,29.813499450683594,12.722272872924805
62.50846862792969,32.321781158447266,12.709959030151367
60.84300231933594,34.626529693603516,12.644160270690918
47.702945709228516,29.746810913085938,10.153780937194824
58.27484130859375,39.67684555053711,12.733293533325195
56.758262634277344,42.07795333862305,12.761235237121582
55.186676025390625,44.45645523071289,12.799402236938477
53.55836486816406,46.81412124633789,12.847881317138672
45.137630462646484,42.771453857421875,11.231293678283691
50.124088287353516,51.47257614135742,12.976461410522461
48.31382751464844,53.77616882324219,13.056975364685059
46.438350677490234,56.06441879272461,13.148633003234863
44.49489974975586,58.33856201171875,13.251749038696289
39.24907684326172,55.989864349365234,12.349833488464355
39.557228088378906,61.54973602294922,13.214726448059082
38.22671890258789,65.08797454833984,13.633399963378906
35.979896545410156,67.31695556640625,13.786157608032227
33.64788818359375,69.53715515136719,13.952528953552246
30.09551429748535,69.15104675292969,13.621292114257812
28.576364517211914,73.60913848876953,14.26160717010498
25.408004760742188,74.14804077148438,14.156670570373535
22.337425231933594,74.86925506591797,14.111507415771484
19.78652572631836,77.56706237792969,14.458382606506348
16.949275970458984,79.68456268310547,14.714184761047363
13.988134384155273,81.78352355957031,14.985818862915039
10.899313926696777,83.87861633300781,15.27707576751709
7.105526447296143,79.59419250488281,14.433073043823242
3.8185653686523438,78.10060119628906,14.122987747192383
0.5696160793304443,65.68050384521484,11.863329887390137
-2.0316874980926514,64.4573974609375,11.647748947143555
-4.546875,63.315364837646484,11.46514892578125
-7.141652584075928,63.571231842041016,11.554142951965332
-10.537403106689453,68.765625,12.565071105957031
-14.64555835723877,75.24476623535156,13.845361709594727
1.2663626670837402,66.00575256347656,12.49126148223877
-1.3611605167388916,64.8121566772461,12.265828132629395
-3.899547576904297,63.65935516357422,12.067575454711914
-6.357118606567383,62.501914978027344,11.887016296386719
-9.435287475585938,66.21408081054688,12.654937744140625
-13.442024230957031,73.15275573730469,14.072980880737305
-16.762561798095703,74.2945785522461,14.410650253295898
-26.250120162963867,84.18202209472656,16.684526443481445
-60.86317443847656,71.66263580322266,17.789640426635742
-62.56454849243164,67.93485260009766,17.474529266357422
-61.70454406738281,61.82148742675781,16.526777267456055
52.327762603759766,-73.87295532226562,17.12891387939453
51.04424285888672,-66.24876403808594,15.824148178100586
56.05316162109375,-67.00020599365234,16.52855682373047
76.20988464355469,-60.7776985168457,18.44375228881836
76.07514953613281,-55.82203674316406,17.853593826293945
72.80323028564453,-49.04735565185547,16.60955238342285
69.94497680664062,-43.14126205444336,15.549202919006348
67.89019775390625,-38.197269439697266,14.739109992980957
71.52877044677734,-36.54218673706055,15.197822570800781
75.4071044921875,-34.77762985229492,15.712102890014648
77.4126968383789,-31.997127532958984,15.849161148071289
77.24492645263672,-28.351110458374023,15.568854331970215
77.006103515625,-24.801597595214844,15.307384490966797
71.4073257446289,-19.870283126831055,14.024333953857422
55.09798049926758,-12.971672058105469,10.710123062133789
53.841102600097656,-10.412616729736328,10.376046180725098
52.706085205078125,-8.011859893798828,10.087087631225586
52.13056564331055,-5.793155193328857,9.92435073852539
57.25746536254883,-4.042868137359619,10.86067008972168
61.33891677856445,-1.859750509262085,11.611284255981445
60.98709487915039,0.6020755767822266,11.53994083404541
61.452754974365234,3.0785024166107178,11.642069816589355
67.47635650634766,6.105334281921387,12.819367408752441
70.45145416259766,9.240524291992188,13.444302558898926
69.08711242675781,11.90187931060791,13.264549255371094
68.5855712890625,14.674448013305664,13.270797729492188
67.58063507080078,17.3254337310791,13.200458526611328
66.45632934570312,19.91421890258789,13.12663459777832
65.15223693847656,22.412765502929688,13.036492347717285
64.27862548828125,25.04281234741211,13.052608489990234
63.081573486328125,27.543960571289062,13.023871421813965
61.83842086791992,30.014156341552734,13.00583553314209
60.543643951416016,32.45303726196289,12.997421264648438
58.9136962890625,34.6955680847168,12.936511993408203
57.79690170288086,37.24333572387695,13.009542465209961
56.34722137451172,39.600440979003906,13.031064987182617
54.84385681152344,41.93357849121094,13.06272029876709
53.285335540771484,44.24420166015625,13.104598045349121
51.67006301879883,46.5337028503418,13.156819343566895
49.996299743652344,48.8033561706543,13.219547271728516
43.74260711669922,46.27345657348633,12.048173904418945
46.46521759033203,53.28795623779297,13.377334594726562
41.42769241333008,51.55321502685547,12.513627052307129
41.81694412231445,56.54789733886719,13.307170867919922
40.674461364746094,59.8944091796875,13.698801040649414
38.601505279541016,62.06835174560547,13.829894065856934
36.45194625854492,64.22956848144531,13.973631858825684
30.91390037536621,59.961849212646484,12.764455795288086
31.90856170654297,68.51686096191406,14.30097484588623
28.569711685180664,68.4008560180664,14.025712966918945
26.864423751831055,72.36347961425781,14.604969024658203
23.803016662597656,72.97698974609375,14.523920059204102
20.85297393798828,73.87691497802734,14.524435997009277
18.227928161621094,76.15690612792969,14.816643714904785
15.416728019714355,78.16019439697266,15.073633193969727
12.488618850708008,80.15460968017578,15.349038124084473
9.428756713867188,82.0722885131836,15.6310396194458
5.87603759765625,79.04598236083984,14.997570037841797
2.640026092529297,77.57545471191406,14.686555862426758
-0.4021172523498535,65.24777221679688,12.345782279968262
-2.9718992710113525,64.08060455322266,12.137737274169922
-5.4570159912109375,62.91054153442383,11.948016166687012
-8.205890655517578,64.41532897949219,12.286538124084473
-12.539024353027344,74.434814453125,14.282259941101074
-15.708431243896484,74.77274322509766,14.456596374511719
-18.694011688232422,74.05965423583984,14.452364921569824
-59.432186126708984,72.11942291259766,17.68219757080078
-62.854129791259766,70.31458282470703,17.844825744628906
-62.081153869628906,64.072265625,16.88039779663086
-39.8288688659668,-83.89225769042969,17.571353912353516
52.77521896362305,-76.89845275878906,17.646926879882812
51.445045471191406,-68.85821533203125,16.263328552246094
54.01219177246094,-66.5420913696289,16.216066360473633
70.15493774414062,-53.096839904785156,16.647262573242188
73.96239471435547,-51.43977355957031,17.046249389648438
70.9559326171875,-45.23145294189453,15.921372413635254
68.32423400878906,-39.78728103637695,14.95985221862793
70.15927124023438,-37.1651725769043,15.022360801696777
73.94499969482422,-35.442901611328125,15.515308380126953
77.45596313476562,-33.368778228759766,15.957609176635742
77.31533813476562,-29.685665130615234,15.67009162902832
77.10232543945312,-26.1011962890625,15.401792526245117
71.04362487792969,-20.909400939941406,14.012292861938477
55.564945220947266,-13.954795837402344,10.839946746826172
54.27799606323242,-11.334944725036621,10.491497039794922
53.11732864379883,-8.882501602172852,10.189895629882812
52.38330841064453,-6.609342575073242,9.990041732788086
55.67850112915039,-4.762465476989746,10.573407173156738
60.1643180847168,-2.7180142402648926,11.395312309265137
61.2851448059082,2.1592142581939697,11.602967262268066
64.82659149169922,4.897168159484863,12.300799369812012
70.77476501464844,8.2168607711792,13.48124885559082
69.8837890625,10.97420597076416,13.384766578674316
68.94451904296875,13.684917449951172,13.299494743347168
67.95723724365234,16.351551055908203,13.225177764892578
66.88800048828125,18.966869354248047,13.154868125915527
63.45745849609375,20.78221893310547,12.634298324584961
64.4363021850586,24.009449005126953,13.01085376739502
63.52919006347656,26.62437629699707,13.033304214477539
62.30134963989258,29.104915618896484,13.01094913482666
61.027503967285156,31.556011199951172,12.999361991882324
59.41416549682617,33.81336212158203,12.934821128845215
47.74736022949219,29.774507522583008,10.646888732910156
56.888641357421875,38.73304748535156,13.021949768066406
55.40522384643555,41.07487106323242,13.049847602844238
53.867279052734375,43.39358901977539,13.087943077087402
52.27316665649414,45.69074630737305,13.136323928833008
45.21092987060547,42.840911865234375,11.784879684448242
48.90955352783203,50.22536087036133,13.264605522155762
47.13609313964844,52.46525955200195,13.344897270202637
43.69055938720703,52.747039794921875,12.959328651428223
42.33295440673828,55.50395584106445,13.207858085632324
39.326847076416016,56.10081481933594,12.963184356689453
39.375614166259766,61.26720428466797,13.780044555664062
37.2547492980957,63.43302536010742,13.919059753417969
35.0550651550293,65.5866470336914,14.07101058959961
32.772857666015625,67.72877502441406,14.236397743225098
29.935203552246094,68.78271484375,14.193509101867676
27.92477798461914,71.93071746826172,14.599639892578125
24.937808990478516,72.77584838867188,14.555915832519531
21.937946319580078,73.5302963256836,14.518682479858398
19.237579345703125,75.41503143310547,14.726221084594727
16.46794891357422,77.42156982421875,14.976655960083008
13.583772659301758,79.41929626464844,15.245142936706543
10.578277587890625,81.40806579589844,15.53271770477295
7.1065216064453125,79.60523223876953,15.122023582458496
3.8190665245056152,78.11119079589844,14.797090530395508
0.5696954727172852,65.68924713134766,12.42954158782959
-2.033247709274292,64.50689697265625,12.211427688598633
-4.547466278076172,63.32350540161133,12.012309074401855
-7.031416893005371,62.58988571166992,11.917141914367676
-10.762038230895996,70.23150634765625,13.44363021850586
-14.647378921508789,75.25408935546875,14.506051063537598
1.266528844833374,66.01460266113281,13.062244415283203
-1.361344575881958,64.82068634033203,12.826475143432617
-3.900054454803467,63.6676025390625,12.619139671325684
-6.357926368713379,62.50989532470703,12.430299758911133
-9.623796463012695,67.53697204589844,13.49598503112793
-13.330744743347168,72.54715728759766,14.592485427856445
-16.764636993408203,74.30375671386719,15.069211959838867
-26.233684539794922,84.12934112548828,17.433927536010742
-60.33409118652344,71.03971862792969,18.43863296508789
-61.16995620727539,66.42057037353516,17.863588333129883
-60.39836883544922,60.5128173828125,16.914127349853516
-61.954383850097656,57.274112701416016,16.691574096679688
-38.58970642089844,-84.49525451660156,18.37673568725586
51.86997604370117,-79.84373474121094,18.83623504638672
50.78135681152344,-71.68983459472656,17.38022232055664
49.53874206542969,-64.29483032226562,16.05727195739746
52.52590560913086,-62.784088134765625,16.194276809692383
73.0908203125,-63.256935119628906,19.12306022644043
73.7183837890625,-58.79069137573242,18.653779983520508
74.22895050048828,-54.46735382080078,18.21416473388672
73.0225830078125,-49.19514465332031,17.418779373168945
70.1422348022461,-43.26293182373047,16.303634643554688
67.88006591796875,-38.19157028198242,15.40848159790039
71.51775360107422,-36.536556243896484,15.887950897216797
75.27788543701172,-34.71803665161133,16.399953842163086
75.2278823852539,-31.09406852722168,16.103696823120117
75.10227966308594,-27.56471824645996,15.82680892944336
72.81058502197266,-23.450336456298828,15.132966041564941
71.43948364257812,-19.879228591918945,14.670034408569336
55.205726623535156,-12.99704647064209,11.220090866088867
53.99130630493164,-10.44166374206543,10.87915325164795
52.85033416748047,-8.033793449401855,10.575632095336914
53.15211868286133,-5.906676292419434,10.579951286315918
57.24302291870117,-4.041849136352539,11.352729797363281
60.44794464111328,-1.8327360153198242,11.964071273803711
60.29145431518555,0.5952088832855225,11.928194046020508
60.74187469482422,3.0428898334503174,12.03178596496582
67.4518051147461,6.103117942810059,13.398673057556152
68.75753021240234,9.018348693847656,13.718976020812988
67.8817138671875,11.694217681884766,13.627032279968262
66.95728302001953,14.326066017150879,13.54612922668457
65.9844970703125,16.916236877441406,13.476032257080078
64.96355438232422,19.46690559387207,13.416518211364746
63.62584686279297,21.887680053710938,13.311236381530762
62.77803039550781,24.45818328857422,13.328817367553711
61.6129150390625,26.902681350708008,13.300334930419922
60.39875793457031,29.315385818481445,13.281923294067383
59.13500213623047,31.697967529296875,13.27353286743164
57.54309844970703,33.888397216796875,13.211355209350586
56.45111846923828,36.37613296508789,13.285665512084961
55.033077239990234,38.67686462402344,13.30713939666748
53.561737060546875,40.953269958496094,13.338699340820312
52.035736083984375,43.206642150878906,13.380467414855957
50.45365524291992,45.438209533691406,13.432527542114258
48.81379699707031,47.649078369140625,13.495058059692383
43.80196762084961,46.33625411987305,12.614311218261719
44.38591384887695,50.90333938598633,13.361039161682129
41.499481201171875,51.642555236816406,13.106555938720703
41.63793182373047,56.30580520629883,13.85401439666748
39.678428649902344,58.42771530151367,13.972317695617676
37.64739990234375,60.53422927856445,14.1027250289917
35.541847229003906,62.62594985961914,14.245635032653809
30.938377380371094,60.009315490722656,13.35670280456543
31.093711853027344,66.76714324951172,14.570829391479492
28.41964340209961,68.04158020019531,14.587843894958496
26.279359817504883,70.78752899169922,14.937960624694824
23.347795486450195,71.58140563964844,14.895367622375488
20.463008880615234,72.49536895751953,14.902336120605469
17.728260040283203,74.06927490234375,15.067185401916504
14.987001419067383,75.9815444946289,15.321233749389648
12.13432502746582,77.88072967529297,15.593219757080078
8.807474136352539,76.66434478759766,15.266465187072754
5.876844882965088,79.05686950683594,15.683183670043945
2.6403863430023193,77.5859375,15.357915878295898
-0.4021933078765869,65.25641632080078,12.9100923538208
-2.972270965576172,64.08895874023438,12.692508697509766
-5.46119499206543,62.95867919921875,12.502049446105957
-8.068880081176758,63.33979034423828,12.63194465637207
-12.259376525878906,72.77467346191406,14.60004997253418
-15.710381507873535,74.78201293945312,15.117266654968262
-18.69631004333496,74.06876373291016,15.112823486328125
-59.07149124145508,71.6817626953125,18.375774383544922
-61.42406463623047,68.71478271484375,18.233509063720703
-60.64188766479492,62.58681869506836,17.24046516418457
-59.98844909667969,57.13028335571289,16.38847541809082
-64.24656677246094,56.44151306152344,16.91817855834961
-39.82926559448242,-83.89314270019531,18.372278213500977
51.169864654541016,-74.5593032836914,17.889850616455078
49.995059967041016,-66.9174575805664,16.525188446044922
50.67365264892578,-62.42906188964844,15.907029151916504
55.80921936035156,-63.373409271240234,16.705856323242188
38.46430969238281,-40.29179000854492,11.020063400268555
68.50910186767578,-66.2209701538086,18.849945068359375
72.8278579711914,-64.94380187988281,19.304227828979492
73.500732421875,-60.42264938354492,18.82349395751953
70.11410522460938,-53.065948486328125,17.395761489868164
74.08454895019531,-51.52473831176758,17.852481842041016
71.16085815429688,-45.36208724975586,16.694995880126953
68.50959777832031,-39.89523696899414,15.684015274047852
70.14862060546875,-37.15951156616211,15.704546928405762
73.93338012695312,-35.43733215332031,16.219802856445312
75.2553939819336,-32.42072677612305,16.21075439453125
75.15719604492188,-28.857036590576172,15.926849365234375
71.95396423339844,-24.358341217041016,15.028379440307617
71.16452026367188,-20.94498062133789,14.675765991210938
55.674922943115234,-13.982419967651367,11.356359481811523
54.43057632446289,-11.366823196411133,11.000442504882812
53.26371383666992,-8.906999588012695,10.68362045288086
51.681758880615234,-6.52082633972168,10.305398941040039
55.66482162475586,-4.761300563812256,11.052529335021973
60.14839172363281,-2.7172927856445312,11.911453247070312
60.03105163574219,2.115023612976074,11.883468627929688
64.803955078125,4.895463466644287,12.856858253479004
69.06848907470703,8.018758773803711,13.755769729614258
68.21076965332031,10.711483001708984,13.65967845916748
67.30424499511719,13.359339714050293,13.574727058410645
66.34927368164062,15.964654922485352,13.500665664672852
65.34609985351562,18.529651641845703,13.43726921081543
63.55559539794922,20.814359664916992,13.230478286743164
62.92959213256836,23.448034286499023,13.285672187805176
62.04875183105469,26.003938674926758,13.309675216674805
60.852783203125,28.428197860717773,13.287551879882812
59.60741424560547,30.82171058654785,13.275464057922363
58.03208541870117,33.02680587768555,13.209671020507812
47.81712341308594,29.818016052246094,11.148338317871094
55.56278610229492,37.83032989501953,13.298033714294434
54.11125946044922,40.115577697753906,13.32586669921875
52.605628967285156,42.37725067138672,13.363855361938477
51.044437408447266,44.61673355102539,13.412094116210938
45.28470993041992,42.910823822021484,12.342033386230469
46.117958068847656,47.35866928100586,13.077485084533691
44.86130905151367,49.93330001831055,13.279678344726562
43.55820846557617,52.58726119995117,13.5088472366333
42.34391403198242,55.51832962036133,13.813315391540527
39.40516662597656,56.21255874633789,13.58092212677002
38.40581512451172,59.75821304321289,14.053141593933105
36.32815170288086,61.85532760620117,14.191384315490723
34.17390823364258,63.93801498413086,14.342411994934082
31.93962860107422,66.00678253173828,14.506710052490234
29.62152671813965,68.06198120117188,14.684812545776367
27.215604782104492,70.1040267944336,14.877287864685059
24.473094940185547,71.41968536376953,14.935633659362793
21.532337188720703,72.17076873779297,14.899641036987305
18.713359832763672,73.36003112792969,14.977739334106445
16.01177215576172,75.27702331542969,15.225395202636719
13.200935363769531,77.1810531616211,15.490650177001953
10.229589462280273,78.72449493408203,15.705194473266602
7.107499122619629,79.61630249023438,15.813338279724121
3.8196029663085938,78.12183380126953,15.47350788116455
0.5697646141052246,65.69800567626953,12.997699737548828
-2.033519983291626,64.51535034179688,12.76957893371582
-4.550933837890625,63.372013092041016,12.56933307647705
-6.9318013191223145,61.7032585144043,12.28370475769043
-10.830506324768066,70.67829132080078,14.145682334899902
-14.088797569274902,72.38428497314453,14.588702201843262
1.2666964530944824,66.02348327636719,13.635265350341797
-1.3615260124206543,64.82925415039062,13.389120101928711
-3.900557041168213,63.67587661743164,13.172657012939453
-6.362789154052734,62.557708740234375,12.983772277832031
-9.683040618896484,67.95269775390625,14.172843933105469
-13.220928192138672,71.94956970214844,15.105123519897461
-16.766704559326172,74.31298828125,15.730108261108398
-25.10064125061035,93.56854248046875,20.003440856933594
-26.252056121826172,84.18830871582031,18.209026336669922
-59.81245422363281,70.42552185058594,19.07853889465332
-59.83188247680664,64.96764373779297,18.236879348754883
-59.14232635498047,59.25438690185547,17.286617279052734
-58.567962646484375,54.14350128173828,16.469205856323242
-65.14971923828125,55.544437408447266,17.677764892578125
-68.96855163574219,54.17066192626953,18.108396530151367
-72.9561767578125,52.70537567138672,18.584033966064453
-38.49406051635742,-84.28582000732422,19.132768630981445
50.2551155090332,-77.35797882080078,19.047836303710938
46.523075103759766,-65.67826843261719,16.61907386779785
48.313026428222656,-62.70399856567383,16.344751358032227
49.406593322753906,-59.05559539794922,15.898656845092773
54.20726776123047,-59.74352264404297,16.657102584838867
37.26530838012695,-37.89399337768555,10.974079132080078
66.73544311523438,-62.618377685546875,18.895971298217773
70.71305084228516,-61.19906997680664,19.309961318969727
71.37715148925781,-56.923561096191406,18.851146697998047
71.92534637451172,-52.77700424194336,18.4206600189209
72.36511993408203,-48.7522087097168,18.016773223876953
70.34125518798828,-43.38568878173828,17.064844131469727
67.90070343017578,-38.20317459106445,16.087142944335938
71.5067138671875,-36.53092956542969,16.58013916015625
73.16791534423828,-33.74492645263672,16.637310028076172
73.15633392333984,-30.237834930419922,16.345043182373047
70.29637145996094,-25.800804138183594,15.461822509765625
