-64.01860809326172,-36.38325119018555,8.917032241821289
-60.47285842895508,-37.65979766845703,8.62707233428955
-57.47856140136719,-39.08453369140625,8.417274475097656
-51.878814697265625,-38.41255569458008,7.81707239151001
-51.10500717163086,-41.118194580078125,7.943143844604492
-50.537445068359375,-44.12052536010742,8.124067306518555
-49.97531509399414,-47.29901123046875,8.332651138305664
-24.212148666381836,-24.83390235900879,4.200100898742676
-22.009140014648438,-24.468103408813477,3.985363006591797
-20.01205825805664,-24.130996704101562,3.7963438034057617
-18.188425064086914,-23.81792449951172,3.629117727279663
-17.670886993408203,-25.17603874206543,3.7247965335845947
-17.334333419799805,-26.936330795288086,3.8789920806884766
-16.96771812438965,-28.851194381713867,4.0532355308532715
-17.121694564819336,-31.988100051879883,4.393677234649658
-16.264080047607422,-33.56048583984375,4.5161895751953125
-15.443422317504883,-35.4268798828125,4.680016040802002
-15.068133354187012,-38.745094299316406,5.034272193908691
-14.231121063232422,-41.44988250732422,5.307085990905762
-13.005388259887695,-43.495887756347656,5.497664451599121
-12.902131080627441,-50.45306396484375,6.306360721588135
-10.609519958496094,-49.733299255371094,6.158102512359619
-8.411014556884766,-49.00016784667969,6.02059268951416
-6.299540042877197,-48.25428009033203,5.893064498901367
-3.9206762313842773,-43.624359130859375,5.304100036621094
-2.2867348194122314,-46.204261779785156,5.60207462310791
-0.42112118005752563,-45.430931091308594,5.501812934875488
1.3962148427963257,-45.15217971801758,5.470435619354248
3.158055305480957,-44.345985412597656,5.383791923522949
4.863685607910156,-43.5282096862793,5.303966045379639
6.516932487487793,-42.69873046875,5.230594158172607
8.121166229248047,-41.8574104309082,5.163357257843018
9.679587364196777,-41.00400161743164,5.101964950561523
11.195150375366211,-40.138179779052734,5.046161651611328
12.666058540344238,-39.24566650390625,4.99393892288208
14.10352897644043,-38.35482406616211,4.948734760284424
15.505772590637207,-37.45030975341797,4.9084954261779785
16.874988555908203,-36.53156280517578,4.8730645179748535
10.983589172363281,-21.46767807006836,2.92018723487854
19.522233963012695,-34.64912033081055,4.816093444824219
18.700807571411133,-30.27880859375,4.3096604347229
9.531580924987793,-14.129790306091309,2.0640032291412354
19.015398025512695,-25.881771087646484,3.8891987800598145
16.450960159301758,-20.60257339477539,3.1927123069763184
16.446075439453125,-18.97964096069336,3.0412158966064453
15.995686531066895,-17.026796340942383,2.82906174659729
13.722784996032715,-13.47886848449707,2.3293423652648926
17.73689842224121,-16.07381820678711,2.8986799716949463
18.816673278808594,-15.722991943359375,2.9694390296936035
19.94828224182129,-15.350879669189453,3.0481607913970947
18.099454879760742,-12.804346084594727,2.6848244667053223
22.397565841674805,-14.531257629394531,3.233124256134033
24.421308517456055,-14.484631538391113,3.4384164810180664
26.26690101623535,-14.185019493103027,3.61505389213562
24.36868667602539,-11.921393394470215,3.285191059112549
37.69089889526367,-16.596986770629883,4.987196445465088
38.706748962402344,-15.218751907348633,5.0365891456604
39.713565826416016,-13.799867630004883,5.091291904449463
40.71194839477539,-12.337652206420898,5.151534557342529
41.70247268676758,-10.82930850982666,5.217558860778809
40.04873275756836,-8.698966026306152,4.962897300720215
42.15312576293945,-7.396772861480713,5.182639122009277
44.21122741699219,-5.938582420349121,5.4019575119018555
45.166263580322266,-4.228200435638428,5.493444442749023
46.554866790771484,-2.4772088527679443,5.645660877227783
48.4567985534668,1.3185125589370728,5.870173931121826
49.40061569213867,3.3338887691497803,5.995903015136719
45.105098724365234,4.870607376098633,5.4938764572143555
50.79132843017578,7.559413433074951,6.2184600830078125
51.622806549072266,9.817320823669434,6.363439559936523
53.13169860839844,12.334685325622559,6.605222702026367
53.56462097167969,14.726097106933594,6.727221488952637
54.970279693603516,17.516155242919922,6.986544132232666
55.88200759887695,20.313533782958984,7.200410842895508
55.71698760986328,22.827163696289062,7.291508197784424
57.68772888183594,26.388469696044922,7.682045936584473
56.82710647583008,28.80925941467285,7.715442180633545
56.453834533691406,31.532299041748047,7.830559253692627
29.190038681030273,17.879121780395508,4.145223140716553
27.009479522705078,18.07447624206543,3.935580015182495
25.02533721923828,18.243629455566406,3.7503104209899902
23.20750617980957,18.390432357788086,3.58579158782959
21.531579971313477,18.517972946166992,3.4390976428985596
20.00058937072754,18.650217056274414,3.3116493225097656
18.550336837768555,18.7464599609375,3.1937313079833984
17.19178009033203,18.829723358154297,3.087672233581543
53.130104064941406,63.10689926147461,9.989837646484375
50.302459716796875,64.86825561523438,9.940500259399414
47.66593933105469,66.85050201416016,9.942560195922852
45.272239685058594,69.21614837646484,10.015618324279785
43.583953857421875,72.86595916748047,10.28188705444336
5.0212836265563965,9.216180801391602,1.2709546089172363
27.803409576416016,69.9511489868164,9.115520477294922
23.743642807006836,67.52134704589844,8.667491912841797
17.291746139526367,56.306243896484375,7.132844924926758
14.721004486083984,55.83687210083008,6.992763042449951
12.253499031066895,55.42161560058594,6.873511791229248
9.928144454956055,55.37198257446289,6.812348365783691
8.48846435546875,61.46614074707031,7.514050006866455
6.806214809417725,69.91031646728516,8.506004333496094
4.007434368133545,70.39197540283203,8.53811264038086
1.1724978685379028,70.25625610351562,8.509056091308594
-19.55031967163086,32.18587875366211,4.560329437255859
-31.926790237426758,48.09453201293945,6.990602970123291
-33.43559265136719,46.223758697509766,6.908487796783447
-36.03840255737305,45.826175689697266,7.059908866882324
-38.753662109375,45.39991760253906,7.228423595428467
-38.290504455566406,41.36945724487305,6.826293468475342
-44.563472747802734,44.42557144165039,7.620048999786377
-47.69990921020508,43.87614822387695,7.8483967781066895
-51.01837158203125,43.277076721191406,8.101584434509277
-27.156330108642578,21.22026824951172,4.173509120941162
-26.810096740722656,19.26658821105957,3.9980287551879883
-27.476537704467773,18.117441177368164,3.9855716228485107
-29.3958797454834,17.73114585876465,4.1572184562683105
-31.47801399230957,17.301958084106445,4.349790573120117
-33.75111389160156,16.822721481323242,4.566750526428223
-36.24998474121094,16.2845401763916,4.812392234802246
-38.95310592651367,15.650203704833984,5.083611488342285
-38.49882125854492,13.698619842529297,4.948453426361084
-35.49358367919922,11.044337272644043,4.501466751098633
-35.20127487182617,9.420331001281738,4.412797927856445
-34.91923522949219,7.856439113616943,4.334343910217285
-34.64606857299805,6.34470272064209,4.265328884124756
-36.148983001708984,5.128873825073242,4.421399116516113
-40.424556732177734,4.086971282958984,4.9202752113342285
-13.337284088134766,0.8089245557785034,1.6180822849273682
-70.77230072021484,1.443618655204773,8.57214069366455
-18.893108367919922,-0.3738803267478943,2.2883565425872803
-24.282705307006836,-1.4579405784606934,2.945873260498047
-35.116214752197266,-3.5286896228790283,4.27390718460083
-67.47599792480469,-9.531688690185547,8.252307891845703
-90.98487854003906,-36.49053955078125,11.8711576461792
-89.7227554321289,-40.24034118652344,11.907943725585938
-66.66110229492188,-36.58754348754883,9.208478927612305
-61.29248809814453,-36.91974639892578,8.664904594421387
-59.074581146240234,-38.900848388671875,8.565535545349121
-53.85582733154297,-38.652748107910156,8.027671813964844
-51.30813217163086,-40.04233169555664,7.881505966186523
-50.7501106262207,-42.99618911743164,8.0548095703125
-50.19902801513672,-46.118309020996094,8.254953384399414
-25.085494995117188,-24.97734832763672,4.286839485168457
-22.79659652709961,-24.59954071044922,4.061418056488037
-20.72765350341797,-24.252439498901367,3.863406181335449
-18.84333610534668,-23.93097496032715,3.688537120819092
-17.78846549987793,-24.560440063476562,3.672363758087158
-17.461841583251953,-26.26970672607422,3.819883108139038
-17.106903076171875,-28.12453842163086,3.9863688945770264
-16.35313606262207,-29.492053985595703,4.083714962005615
-16.435184478759766,-32.669471740722656,4.428614616394043
-15.77118968963623,-34.761680603027344,4.622543811798096
-15.28218936920166,-37.63298416137695,4.918692111968994
-14.677881240844727,-40.77149963378906,5.247533321380615
-13.273428916931152,-42.10612487792969,5.346305847167969
-13.773896217346191,-50.71531295776367,6.363978385925293
-11.444624900817871,-50.00062561035156,6.211548328399658
-9.212267875671387,-49.27238082885742,6.070163249969482
-7.069403648376465,-48.53110885620117,5.939032554626465
-4.670337200164795,-44.54304504394531,5.423625946044922
-2.992610216140747,-46.486839294433594,5.641098499298096
-1.1022298336029053,-45.717796325683594,5.537924766540527
0.7307208776473999,-45.44692611694336,5.5042266845703125
2.5143158435821533,-44.64497756958008,5.414969444274902
4.240283012390137,-43.83147430419922,5.332668304443359
5.912460803985596,-43.00633239746094,5.256950855255127
7.534394264221191,-42.16941452026367,5.1874847412109375
9.109375953674316,-41.32049560546875,5.123968124389648
10.640376091003418,-40.45933532714844,5.066129684448242
12.125935554504395,-39.57121658325195,5.011921405792236
13.57700252532959,-38.685306549072266,4.96483850479126
14.99199390411377,-37.78589630126953,4.922784805297852
16.373159408569336,-36.872467041015625,4.88559627532959
10.648953437805176,-21.597938537597656,2.9160945415496826
19.04216957092285,-35.00132369995117,4.825248718261719
20.33378791809082,-34.04231262207031,4.801856994628906
9.563186645507812,-14.640531539916992,2.1176512241363525
18.73320198059082,-26.306884765625,3.9108810424804688
18.663864135742188,-24.098609924316406,3.691159248352051
16.590837478637695,-19.73070526123047,3.121777296066284
15.630433082580566,-17.140615463256836,2.8091330528259277
13.503664016723633,-13.663095474243164,2.326301097869873
17.350046157836914,-16.198450088500977,2.8744168281555176
18.412336349487305,-15.854865074157715,2.9424281120300293
19.524003982543945,-15.490912437438965,3.0181171894073486
17.81344985961914,-13.002782821655273,2.670722484588623
21.924455642700195,-14.690997123718262,3.1959400177001953
23.784530639648438,-14.588180541992188,3.37886118888855
25.563705444335938,-14.299091339111328,3.547081232070923
36.2840690612793,-18.42251968383789,4.927826881408691
37.31341552734375,-17.096031188964844,4.970262050628662
38.33275604248047,-15.73222541809082,5.0177459716796875
39.34284210205078,-14.328636169433594,5.070460319519043
40.344268798828125,-12.882753372192383,5.128625392913818
41.337642669677734,-11.391789436340332,5.192489147186279
39.51350784301758,-9.198616981506348,4.9129414558410645
40.3097038269043,-7.691401481628418,4.969476699829102
43.85713195800781,-6.554807662963867,5.369985580444336
44.814300537109375,-4.866920471191406,5.458817005157471
46.20156478881836,-3.1463825702667236,5.607858180999756
47.156864166259766,-1.3119854927062988,5.712791442871094
48.10713195800781,0.5949881672859192,5.826106548309326
49.05266571044922,2.580050468444824,5.948372840881348
49.99364471435547,4.6492919921875,6.080235004425049
45.435157775878906,6.074741363525391,5.551050186157227
51.373313903808594,8.982330322265625,6.315563678741455
52.79024887084961,11.432815551757812,6.54096794128418
53.713623046875,13.913412094116211,6.719258785247803
54.632320404052734,16.519811630249023,6.911684989929199
54.914546966552734,19.044416427612305,7.038576126098633
56.4542236328125,22.156949996948242,7.344162464141846
57.356361389160156,25.21479606628418,7.587265968322754
54.834815979003906,26.784221649169922,7.390190601348877
56.59352111816406,30.51781463623047,7.7862772941589355
54.05125427246094,32.013912200927734,7.607429504394531
27.789897918701172,18.005626678466797,4.009925842285156
25.737096786499023,18.183961868286133,3.8161227703094482
23.86096954345703,18.338621139526367,3.644317865371704
22.135183334350586,18.47295570373535,3.4913461208343506
20.561901092529297,18.611066818237305,3.3584985733032227
19.074438095092773,18.7125186920166,3.235806941986084
17.683494567871094,18.80039405822754,3.125542163848877
16.4396915435791,18.948890686035156,3.0378966331481934
51.311737060546875,64.18052673339844,9.950675964355469
48.60283660888672,66.06857299804688,9.932427406311035
46.07390594482422,68.21099090576172,9.967981338500977
44.162506103515625,71.40679168701172,10.167330741882324
5.218381404876709,9.248661041259766,1.2859694957733154
41.648502349853516,81.28055572509766,11.059823989868164
24.99110221862793,67.83597564697266,8.754511833190918
18.262645721435547,56.46874237060547,7.1869635581970215
15.66549015045166,56.03361511230469,7.045732498168945
13.154747009277344,55.57344436645508,6.915783405303955
10.738218307495117,55.165897369384766,6.805847644805908
8.985077857971191,58.629974365234375,7.182844638824463
7.355531692504883,65.4671630859375,7.9778032302856445
5.059399604797363,70.43782043457031,8.55182933807373
2.2170817852020264,70.3083267211914,8.51840877532959
9.260994911193848,56.46047592163086,7.411585807800293
7.905846118927002,64.26912689208984,8.388130187988281
5.743570804595947,69.7026596069336,9.059835433959961
2.926500082015991,69.58216094970703,9.02159595489502
0.12932926416397095,69.8565673828125,9.049185752868652
-44.13465881347656,76.99154663085938,11.495885848999023
-20.16303825378418,32.11107635498047,4.911692142486572
-31.456649780273438,45.89384460449219,7.207519054412842
-33.956058502197266,45.506141662597656,7.355079650878906
-36.562374114990234,45.099159240722656,7.520805358886719
-38.131221771240234,43.35149002075195,7.478963375091553
-38.97277069091797,40.873191833496094,7.315812587738037
-45.072452545166016,43.61912536621094,8.125070571899414
-48.208831787109375,43.041603088378906,8.371757507324219
-27.281938552856445,22.45488166809082,4.577208042144775
-26.9992618560791,20.459758758544922,4.3882341384887695
-26.664836883544922,18.568603515625,4.209146022796631
-27.691566467285156,17.675447463989258,4.255608081817627
-29.612503051757812,17.267927169799805,4.4405388832092285
-31.697019577026367,16.81494140625,4.647995471954346
-33.97339630126953,16.308870315551758,4.881711006164551
-36.39406967163086,15.70465087890625,5.134668827056885
-38.34659957885742,14.74968433380127,5.322182655334473
-37.82216262817383,12.828980445861816,5.17363166809082
-35.35871887207031,10.429609298706055,4.775445938110352
-35.071067810058594,8.830095291137695,4.6848673820495605
-34.79308319091797,7.287524223327637,4.604875087738037
-34.52342224121094,5.794295787811279,4.534691333770752
-36.34798812866211,4.608138561248779,4.746182441711426
-13.391090393066406,1.1534546613693237,1.7410956621170044
-13.292020797729492,0.608431339263916,1.7236425876617432
-71.15264129638672,0.39564090967178345,9.217206001281738
-79.49021911621094,-2.7531261444091797,10.303281784057617
-10.463094711303711,-0.7841353416442871,1.359183669090271
-40.832176208496094,-4.715874671936035,5.324531078338623
-95.72796630859375,-14.974129676818848,12.551326751708984
-90.13025665283203,-37.709434509277344,12.656103134155273
-75.48329162597656,-35.20817184448242,10.789421081542969
-35.36320495605469,-18.258827209472656,5.155502796173096
-60.65434646606445,-34.47126770019531,9.037367820739746
-58.59230041503906,-36.488670349121094,8.941478729248047
-56.546714782714844,-38.45085906982422,8.858062744140625
-54.16659164428711,-40.106468200683594,8.730742454528809
-51.06745529174805,-41.08798599243164,8.49061393737793
-50.49946975708008,-44.087379455566406,8.683860778808594
-49.93682098388672,-47.262596130371094,8.90665054321289
-23.910362243652344,-24.524362564086914,4.436886787414551
-21.748668670654297,-24.178529739379883,4.212728023529053
-19.786333084106445,-23.85880470275879,4.015177249908447
-18.001209259033203,-23.572757720947266,3.842141628265381
-17.65491485595703,-25.153274536132812,3.980848789215088
-17.318016052246094,-26.91098403930664,4.14548921585083
-16.951030731201172,-28.822824478149414,4.3315205574035645
-16.17817497253418,-30.22531509399414,4.4409565925598145
-16.107818603515625,-33.23802947998047,4.784595012664795
-15.58519458770752,-35.75210952758789,5.052217483520508
-15.04973316192627,-38.69778060913086,5.3786301612854
-14.248451232910156,-41.500343322753906,5.683951377868652
-12.987120628356934,-43.43478012084961,5.8726396560668945
-12.384294509887695,-48.428043365478516,6.47521448135376
-10.193323135375977,-47.78226852416992,6.3289570808410645
-8.088138580322266,-47.11919021606445,6.19305419921875
-6.06265115737915,-46.43968963623047,6.066807270050049
-3.8921358585357666,-43.30670166015625,5.6325297355651855
-2.2039475440979004,-44.531471252441406,5.775633811950684
-0.4061499536037445,-43.81452560424805,5.675945281982422
1.3473533391952515,-43.57209396362305,5.646996974945068
3.049220561981201,-42.817848205566406,5.560638904571533
4.698491096496582,-42.049739837646484,5.480990886688232
6.298537254333496,-41.26782989501953,5.407711505889893
7.85239315032959,-40.472145080566406,5.3404974937438965
9.362923622131348,-39.66256332397461,5.279077053070068
10.832784652709961,-38.83898162841797,5.223203659057617
12.25992202758789,-37.98725891113281,5.170771598815918
13.655264854431152,-37.13577651977539,5.125452518463135
15.016824722290039,-36.26937484741211,5.085092067718506
16.346588134765625,-35.387657165527344,5.049535751342773
10.995335578918457,-21.49063491821289,3.127092123031616
18.91787338256836,-33.57645034790039,4.99232816696167
18.735490798950195,-30.33496856689453,4.618636608123779
9.542706489562988,-14.146284103393555,2.210460662841797
19.041446685791016,-25.91722297668457,4.166012287139893
16.792879104614258,-21.030771255493164,3.4862546920776367
16.467710494995117,-19.004606246948242,3.257497787475586
15.87051010131836,-16.8935489654541,3.0025932788848877
13.740189552307129,-13.495962142944336,2.4948811531066895
17.58968162536621,-15.940404891967773,3.0750086307525635
18.65671730041504,-15.589336395263672,3.1494343280792236
19.774250030517578,-15.216954231262207,3.2321996688842773
18.123563766479492,-12.821407318115234,2.875809669494629
22.78178596496582,-14.780536651611328,3.5178306102752686
24.461606979370117,-14.508537292480469,3.684176206588745
26.31247901916504,-14.209634780883789,3.8737685680389404
24.402372360229492,-11.937871932983398,3.519059181213379
36.48442077636719,-16.06572723388672,5.16408109664917
37.45588302612305,-14.72694206237793,5.213574409484863
38.41667175292969,-13.349213600158691,5.268351078033447
39.36726379394531,-11.93014907836914,5.3286261558532715
40.3079948425293,-10.467191696166992,5.394644737243652
37.87761306762695,-8.227376937866211,5.021053314208984
41.763755798339844,-7.328466415405273,5.492708206176758
42.668373107910156,-5.7313385009765625,5.576870918273926
43.56434631347656,-4.078235626220703,5.667967796325684
44.875022888183594,-2.387824058532715,5.821300506591797
46.64137268066406,1.2691112756729126,6.044127464294434
47.511714935302734,3.2064101696014404,6.168631553649902
45.00639343261719,4.859950065612793,5.8639912605285645
48.76164245605469,7.257327079772949,6.3861260414123535
49.59688186645508,9.432042121887207,6.539890766143799
50.902347564697266,11.81713581085205,6.769200325012207
51.72511672973633,14.220385551452637,6.949031829833984
52.53652572631836,16.74064064025879,7.142690658569336
53.33559036254883,19.387897491455078,7.351372241973877
54.12112808227539,22.17334747314453,7.576398849487305
54.891727447509766,25.109479904174805,7.819270610809326
55.64558029174805,28.210268020629883,8.081686019897461
56.3806037902832,31.491392135620117,8.365553855895996
28.6168155670166,17.52802276611328,4.347107887268066
26.505414962768555,17.73715591430664,4.1313581466674805
24.579898834228516,17.918895721435547,3.940333604812622
22.81222152709961,18.07720184326172,3.7704238891601562
21.179603576660156,18.215261459350586,3.618696928024292
19.685928344726562,18.356800079345703,3.4867682456970215
18.268726348876953,18.461872100830078,3.3645009994506836
16.939332962036133,18.553226470947266,3.254411220550537
15.768721580505371,18.729782104492188,3.1716179847717285
15.685762405395508,20.22780990600586,3.3158204555511475
15.473260879516602,21.700937271118164,3.4525387287139893
15.23900032043457,23.2987060546875,3.6063551902770996
42.178958892822266,70.51701354980469,10.64408016204834
5.014706611633301,9.204106330871582,1.3577711582183838
39.762630462646484,80.52155303955078,11.633164405822754
27.47474479675293,69.12428283691406,9.63569450378418
23.940980911254883,68.08251190185547,9.3487548828125
17.27178955078125,56.24128341674805,7.621269702911377
14.714851379394531,55.813541412353516,7.47709846496582
12.248600959777832,55.399497985839844,7.349723815917969
9.853899955749512,54.95796203613281,7.232746124267578
8.446520805358887,61.162391662597656,7.998126983642578
6.789909839630127,69.74267578125,9.07713508605957
3.964000701904297,69.62871551513672,9.034259796142578
1.1598395109176636,69.49703216552734,9.003852844238281
-19.523351669311523,32.141475677490234,4.87149715423584
-31.874988555908203,48.016502380371094,7.46578311920166
-33.02201461791992,45.652000427246094,7.298663139343262
-35.582984924316406,45.24706268310547,7.456613540649414
-38.2783317565918,44.84305953979492,7.6374711990356445
-38.49844741821289,41.5941162109375,7.341805934906006
-43.95625305175781,43.82024002075195,8.040165901184082
-47.03076171875,43.260623931884766,8.277729988098145
-50.27989196777344,42.650657653808594,8.540901184082031
-27.129962921142578,21.199674606323242,4.460107326507568
-26.785160064697266,19.248672485351562,4.272748947143555
-27.018909454345703,17.815685272216797,4.19239616394043
-28.885555267333984,17.423324584960938,4.369813442230225
-30.90668487548828,16.987930297851562,4.568559169769287
-33.108551025390625,16.5024471282959,4.792092800140381
-35.523475646972656,15.958169937133789,5.04469108581543
-38.15178298950195,15.328256607055664,5.326120853424072
-38.03819274902344,13.534723281860352,5.230074405670166
-35.4676628112793,11.036273956298828,4.8117451667785645
-35.17606735229492,9.413585662841797,4.717031478881836
-34.89468002319336,7.850910663604736,4.633227825164795
-34.622093200683594,6.340315818786621,4.559506416320801
-34.96523666381836,4.96092414855957,4.574735641479492
-38.956878662109375,3.9385852813720703,5.072173118591309
-13.328392028808594,0.8083864450454712,1.7297232151031494
-70.03761291503906,1.428631067276001,9.07451057434082
-18.860374450683594,-0.37323060631752014,2.4436349868774414
-24.24628257751465,-1.455754280090332,3.1465015411376953
-35.09341049194336,-3.526397228240967,4.568868637084961
-62.24028396606445,-8.792086601257324,8.142607688903809
-90.9248046875,-36.46644592285156,12.690303802490234
-89.68812561035156,-40.224815368652344,12.733121871948242
-70.25384521484375,-34.9635009765625,10.165367126464844
-63.02391052246094,-34.591224670410156,9.312933921813965
-59.34934997558594,-35.74930191040039,8.975080490112305
-57.25020980834961,-37.69948959350586,8.879669189453125
-56.49600601196289,-40.5475959777832,9.00825023651123
-51.27072525024414,-40.01314163208008,8.424773216247559
-50.71229934692383,-42.964149475097656,8.609885215759277
-50.160728454589844,-46.08311462402344,8.823660850524902
-24.766448974609375,-24.6596736907959,4.527349472045898
-22.521718978881836,-24.30292320251465,4.29215145111084
-20.489765167236328,-23.97410011291504,4.085292816162109
-18.63675880432129,-23.668621063232422,3.9024064540863037
-17.772615432739258,-24.53854751586914,3.924860954284668
-17.44565773010254,-26.24535369873047,4.082377910614014
-17.090354919433594,-28.097341537475586,4.260131359100342
-16.694665908813477,-30.107988357543945,4.45961856842041
-16.399742126464844,-32.59901428222656,4.727114200592041
-15.69651985168457,-34.597103118896484,4.921369552612305
-15.263954162597656,-37.588096618652344,5.255293846130371
-14.659202575683594,-40.71959686279297,5.606189727783203
-13.255298614501953,-42.048583984375,5.711180686950684
-13.216215133666992,-48.66193389892578,6.531977653503418
-10.991910934448242,-48.02275848388672,6.381711483001709
-8.85583782196045,-47.365962982177734,6.242074012756348
-6.801575660705566,-46.692420959472656,6.112338542938232
-4.430221080780029,-42.252960205078125,5.50342321395874
-2.883556604385376,-44.79253005981445,5.814400672912598
-1.0627710819244385,-44.08088302612305,5.7118659019470215
0.7049925327301025,-43.8470573425293,5.680648326873779
2.4271843433380127,-43.09794616699219,5.59172248840332
4.0955047607421875,-42.334922790527344,5.509637355804443
5.713362693786621,-41.558101654052734,5.434042453765869
7.283909320831299,-40.767513275146484,5.364623546600342
8.810123443603516,-39.963069915771484,5.301094055175781
10.294646263122559,-39.14471435546875,5.243203163146973
11.735770225524902,-38.29795455932617,5.188790798187256
13.144118309020996,-37.451866149902344,5.141601085662842
14.517921447753906,-36.59101867675781,5.099426746368408
15.859193801879883,-35.71501922607422,5.062112331390381
10.662839889526367,-21.626100540161133,3.1234419345855713
18.451583862304688,-33.915748596191406,5.001523971557617
19.706100463867188,-32.9914436340332,4.978026866912842
9.579814910888672,-14.665996551513672,2.2692105770111084
18.75533103942871,-26.337961196899414,4.188448905944824
16.378707885742188,-21.148042678833008,3.4650299549102783
16.707998275756836,-19.870023727416992,3.36297345161438
15.554988861083984,-17.05788230895996,2.990450143814087
13.520767211914062,-13.680401802062988,2.491619110107422
17.16637420654297,-16.026975631713867,3.042240619659424
18.257230758666992,-15.721301078796387,3.1210272312164307
19.3553409576416,-15.357086181640625,3.2006163597106934
17.83706283569336,-13.020014762878418,2.860684871673584
22.199140548706055,-14.875059127807617,3.461559534072876
23.82309913635254,-14.61184024810791,3.6202619075775146
25.607234954833984,-14.32343578338623,3.8008062839508057
35.1359977722168,-17.839614868164062,5.104553699493408
36.12297058105469,-16.55059242248535,5.1471076011657715
37.098487854003906,-15.225662231445312,5.194693565368652
38.06316375732422,-13.862580299377441,5.247495651245117
39.01744079589844,-12.459074974060059,5.305719375610352
39.961769104003906,-11.012629508972168,5.369585037231445
38.51469802856445,-8.966093063354492,5.122574329376221
40.43479919433594,-7.71526575088501,5.332393646240234
42.33537292480469,-6.327370643615723,5.545008659362793
43.234527587890625,-4.695350646972656,5.633500576019287
44.54521560668945,-3.0335850715637207,5.78372049331665
45.43577194213867,-1.264103651046753,5.887996196746826
46.31785202026367,0.5728582143783569,6.00044059753418
47.19137954711914,2.4821507930755615,6.12158727645874
48.05622100830078,4.4691162109375,6.252030849456787
45.17445755004883,6.0398850440979,5.903940200805664
49.289608001708984,8.61800479888916,6.481802940368652
50.595882415771484,10.957576751708984,6.706092357635498
51.422607421875,13.319962501525879,6.8810834884643555
52.23833084106445,15.795913696289062,7.069502830505371
53.04210662841797,18.395057678222656,7.272492408752441
53.832767486572266,21.12808609008789,7.491322040557861
54.609073638916016,24.007049560546875,7.727418899536133
54.831233978271484,26.782470703125,7.904841423034668
56.11159133911133,30.2579345703125,8.258119583129883
29.450088500976562,17.442934036254883,4.433885097503662
27.261653900146484,17.663366317749023,4.207919597625732
25.271085739135742,17.854713439941406,4.008229732513428
23.448041915893555,18.021263122558594,3.830897569656372
21.76793670654297,18.16646957397461,3.6727631092071533
20.233903884887695,18.314189910888672,3.5353081226348877
18.78112030029297,18.424760818481445,3.4081454277038574
17.420682907104492,18.5209903717041,3.2937328815460205
16.14087677001953,18.604473114013672,3.190598964691162
15.65283203125,19.57849884033203,3.2470955848693848
15.554083824157715,21.143537521362305,3.400200366973877
15.328248023986816,22.692981719970703,3.547407627105713
42.86913299560547,69.3155288696289,10.557561874389648
5.21146297454834,9.236400604248047,1.3737905025482178
4.7648844718933105,9.29907512664795,1.353525996208191
24.961429595947266,67.75537872314453,9.353655815124512
18.241422653198242,56.403099060058594,7.679024696350098
15.647632598876953,55.969764709472656,7.528298377990723
13.14940071105957,55.5509033203125,7.394878387451172
10.72638988494873,55.10512924194336,7.2722578048706055
8.950860023498535,58.406654357910156,7.654287338256836
7.272820472717285,64.73077392578125,8.43793773651123
5.004458427429199,69.6728515625,9.048623085021973
2.193089485168457,69.54772186279297,9.013642311096191
9.268016815185547,56.50332260131836,7.901609420776367
7.911007404327393,64.31118774414062,8.941783905029297
5.681647777557373,68.95128631591797,9.547473907470703
2.895066976547241,68.8352279663086,9.507600784301758
0.13424739241600037,72.50700378417969,10.005922317504883
-42.688194274902344,74.46827697753906,11.845288276672363
-20.144351959228516,32.08133316040039,5.227612018585205
-31.06406593322754,45.32107162475586,7.582396030426025
-33.53713607788086,44.94469451904297,7.738746643066406
-36.09351348876953,44.520843505859375,7.909231185913086
-37.43947982788086,42.565040588378906,7.822857856750488
-39.38392639160156,41.30439758300781,7.875810623168945
-44.45893478393555,43.02539825439453,8.53787612915039
-47.53298568725586,42.43817901611328,8.793466567993164
-27.335962295532227,22.499345779418945,4.8857879638671875
-26.973438262939453,20.440196990966797,4.670348167419434
-26.64037322998047,18.551570892333984,4.479919910430908
-27.23019790649414,17.380952835083008,4.4579973220825195
-29.098060607910156,16.967947006225586,4.648358345031738
-31.121105194091797,16.50942611694336,4.861578464508057
-33.32567596435547,15.99793529510498,5.101370811462402
-35.7442741394043,15.424241065979004,5.372336387634277
-37.884342193603516,14.57187557220459,5.601411819458008
-35.145957946777344,11.921218872070312,5.121525287628174
-35.33304977416992,10.422037124633789,5.083624362945557
-35.04609298706055,8.823807716369629,4.987270355224609
-34.76873016357422,7.282425403594971,4.902174472808838
-34.4996223449707,5.790301322937012,4.827509880065918
-35.151206970214844,4.456413745880127,4.88966703414917
-13.382091522216797,1.1526801586151123,1.8535561561584473
-13.283178329467773,0.6080272197723389,1.8349868059158325
-69.80188751220703,0.3881288766860962,9.632752418518066
-19.106679916381836,-0.6617580056190491,2.6382839679718018
-10.456273078918457,-0.7836237549781799,1.4470041990280151
-40.7535514831543,-4.706794261932373,5.661339282989502
-90.2871322631836,-14.12304973602295,12.61106014251709
-90.0957260131836,-37.69499206542969,13.477474212646484
-70.98495483398438,-33.10997772216797,10.809072494506836
-35.357784271240234,-18.25602912902832,5.491353511810303
-58.86790466308594,-33.45600128173828,9.344016075134277
-57.05224609375,-35.52959442138672,9.275053977966309
-61.00294876098633,-41.48103332519531,10.180219650268555
-54.29841613769531,-40.204071044921875,9.32356071472168
-51.029884338378906,-41.05775451660156,9.038456916809082
-50.46147155761719,-44.054195404052734,9.244020462036133
-49.8983039855957,-47.22614669799805,9.481006622314453
-23.61537742614746,-24.2218017578125,4.668334007263184
-21.493745803833008,-23.895126342773438,4.43524694442749
-19.565168380737305,-23.592119216918945,4.229588031768799
-17.806257247924805,-23.317462921142578,4.048734188079834
-17.63893699645996,-25.130517959594727,4.236990451812744
-17.30169677734375,-26.8856258392334,4.412057876586914
-16.934343338012695,-28.794437408447266,4.609857082366943
-16.387699127197266,-30.616777420043945,4.7922539710998535
-15.90136432647705,-32.8120231628418,5.031736373901367
-15.567275047302246,-35.71099090576172,5.375975608825684
-15.03133773803711,-38.650482177734375,5.722891330718994
-14.265846252441406,-41.551029205322266,6.062551498413086
-12.968862533569336,-43.373714447021484,6.247371673583984
-11.905410766601562,-46.55543899536133,6.631356716156006
-9.807734489440918,-45.97477722167969,6.487241268157959
-7.788503170013428,-45.37363052368164,6.353099822998047
-5.364523887634277,-41.092159271240234,5.718801021575928
-3.8829996585845947,-43.20509719848633,5.986297130584717
-2.1267800331115723,-42.972328186035156,5.93740177154541
-0.39662274718284607,-42.78697967529297,5.904821395874023
1.3016940355300903,-42.095787048339844,5.811960220336914
2.9474375247955322,-41.38853454589844,5.726047039031982
4.543820381164551,-40.66551971435547,5.646728515625
6.093882083892822,-39.92692184448242,5.573686122894287
7.600317478179932,-39.17289733886719,5.5066351890563965
9.065696716308594,-38.403499603271484,5.445314407348633
10.492424964904785,-37.618690490722656,5.389492034912109
11.878228187561035,-36.80458068847656,5.336962699890137
13.233734130859375,-35.98941421508789,5.291633605957031
14.556808471679688,-35.15829849243164,5.251240253448486
15.849233627319336,-34.31094741821289,5.215638160705566
11.007198333740234,-21.513824462890625,3.3349108695983887
18.348600387573242,-32.56608581542969,5.158327102661133
18.77037239074707,-30.391435623168945,4.929423809051514
9.553885459899902,-14.162851333618164,2.3575782775878906
19.070768356323242,-25.95714569091797,4.44491720199585
18.53194236755371,-23.20870590209961,4.098544120788574
16.58350372314453,-19.138240814208984,3.4946365356445312
15.747014045715332,-16.7620906829834,3.173790693283081
13.75767707824707,-13.513140678405762,2.661196708679199
17.444581985473633,-15.808911323547363,3.2488057613372803
18.499122619628906,-15.457648277282715,3.3267719745635986
19.602863311767578,-15.085062026977539,3.4134416580200195
18.147798538208008,-12.838549613952637,3.0677192211151123
22.817819595336914,-14.803915977478027,3.7534987926483154
24.502140045166016,-14.532570838928223,3.9312820434570312
26.358318328857422,-14.23438835144043,4.1339430809021
24.43622398376465,-11.954432487487793,3.754077911376953
35.35041046142578,-15.566366195678711,5.330347061157227
36.28089904785156,-14.264955520629883,5.379825592041016
37.199283599853516,-12.926189422607422,5.434557914733887
38.10591125488281,-11.54789924621582,5.494746208190918
36.29353713989258,-9.424721717834473,5.174591541290283
37.70614242553711,-8.190133094787598,5.324750900268555
40.37311935424805,-7.084442138671875,5.656581878662109
41.22657012939453,-5.537672996520996,5.740325927734375
42.204803466796875,-3.950965642929077,5.849693298339844
43.30891036987305,-2.3044893741607666,5.985049247741699
44.95357894897461,1.223188877105713,6.2058515548706055
45.75830841064453,3.0880794525146484,6.328970432281494
45.211891174316406,4.882139682769775,6.27547550201416
46.88404846191406,6.977880954742432,6.541226863861084
47.6429557800293,9.060458183288574,6.692521572113037
48.84832000732422,11.340287208557129,6.920284271240234
49.584693908691406,13.631941795349121,7.096524238586426
50.30453872680664,16.0294246673584,7.285885334014893
51.0063362121582,18.54119110107422,7.489459037780762
51.688480377197266,21.176694869995117,7.708406925201416
52.34901809692383,23.946353912353516,7.944064140319824
52.98558044433594,26.86174201965332,8.197922706604004
30.318687438964844,16.934507369995117,4.792369842529297
28.06451416015625,17.189735412597656,4.541627407073975
26.018783569335938,17.41150665283203,4.320362091064453
24.149112701416016,17.604856491088867,4.124101638793945
22.429380416870117,17.773820877075195,3.9492502212524414
20.862211227416992,17.942296981811523,3.797255754470825
19.3803653717041,18.071866989135742,3.656825065612793
17.994962692260742,18.18520736694336,3.5305161476135254
16.693675994873047,18.284156799316406,3.4166688919067383
15.602129936218262,18.531902313232422,3.343050956726074
15.410699844360352,19.873092651367188,3.4704248905181885
15.199189186096191,21.31655502319336,3.6128673553466797
14.964483261108398,22.878999710083008,3.772667646408081
14.599516868591309,24.408262252807617,3.924882411956787
5.008129119873047,9.192036628723145,1.4445470571517944
13.984328269958496,28.319080352783203,4.358530044555664
38.172969818115234,85.82440185546875,12.962387084960938
27.148317337036133,68.30303192138672,10.143021583557129
23.973217010498047,68.1742172241211,9.9727144241333
17.25185203552246,56.17634201049805,8.109618186950684
14.698188781738281,55.750308990478516,7.956383228302002
12.234975814819336,55.33780288696289,7.8209943771362305
9.850122451782227,54.936885833740234,7.702141284942627
8.451672554016113,61.19963836669922,8.525653839111328
6.723690986633301,69.06256103515625,9.575634002685547
3.921372413635254,68.88023376464844,9.520805358886719
1.154213309288025,69.16100311279297,9.545482635498047
-43.310977935791016,78.22177124023438,12.338767051696777
-19.496402740478516,32.09709548950195,5.18247652053833
-31.82324981689453,47.938602447509766,7.940445423126221
-32.6176872253418,45.093021392822266,7.680113792419434
-35.13796615600586,44.68121337890625,7.844243049621582
-37.73685073852539,44.20872497558594,8.021161079406738
-38.4513053894043,41.543190002441406,7.811705112457275
-43.36408615112305,43.22990417480469,8.449867248535156
-46.37871551513672,42.660858154296875,8.696069717407227
-26.94470977783203,22.856243133544922,4.8759355545043945
-27.10359001159668,21.179061889648438,4.746767520904541
-26.760211944580078,19.23074722290039,4.547553062438965
-26.575326919555664,17.5231990814209,4.3928656578063965
-28.3916072845459,17.125377655029297,4.575589179992676
-30.35455894470215,16.684452056884766,4.779974937438965
-32.48869323730469,16.193492889404297,5.009474277496338
-34.82404327392578,15.643962860107422,5.268331527709961
-37.38114547729492,15.018636703491211,5.55934476852417
-37.58749771118164,13.374353408813477,5.505619525909424
-35.44172668457031,11.028203964233398,5.122237205505371
-35.150848388671875,9.40683650970459,5.021485328674316
-34.8701057434082,7.845390319824219,4.932336807250977
-34.59809875488281,6.335918426513672,4.853907585144043
-33.820003509521484,4.798424243927002,4.713874816894531
-37.58918762207031,3.8003122806549072,5.21372127532959
-13.319493293762207,0.8078466653823853,1.8414570093154907
-69.99127197265625,1.4276865720748901,9.660746574401855
-18.82768440246582,-0.3725845217704773,2.5987110137939453
-24.209888458251953,-1.453566551208496,3.346961259841919
-35.07058334350586,-3.5241029262542725,4.864083290100098
-62.14040756225586,-8.77797794342041,8.660459518432617
-88.9383316040039,-16.231130599975586,12.476129531860352
-89.6282958984375,-40.197967529296875,13.555639266967773
-66.2968521118164,-32.99421310424805,10.219294548034668
-59.7271842956543,-32.781795501708984,9.40217399597168
-57.6130485534668,-34.70342254638672,9.281498908996582
-61.27381896972656,-40.34906768798828,10.124406814575195
-56.637882232666016,-40.649417877197266,9.620655059814453
-51.233299255371094,-39.983924865722656,8.968421936035156
-50.674461364746094,-42.932098388671875,9.16533088684082
-50.122398376464844,-46.04792022705078,9.392731666564941
-24.454736709594727,-24.349315643310547,4.7623186111450195
-22.252819061279297,-24.01275634765625,4.517866134643555
-20.25678825378418,-23.70149803161621,4.302606105804443
-18.434228897094727,-23.411409378051758,4.112085819244385
-17.756755828857422,-24.516658782958984,4.177453994750977
-17.42946434020996,-26.221012115478516,4.34495210647583
-17.07380485534668,-28.07012939453125,4.533952236175537
-16.6846981048584,-30.090002059936523,4.748027801513672
-16.187583923339844,-32.17729568481445,4.970684051513672
-15.75692081451416,-34.73023986816406,5.262942790985107
-15.245723724365234,-37.543209075927734,5.591817378997803
-14.64052677154541,-40.667724609375,5.96470832824707
-13.237171173095703,-41.99110412597656,6.075847148895264
-12.700872421264648,-46.764404296875,6.687226295471191
-10.57277774810791,-46.19161605834961,6.53925085067749
-8.52527904510498,-45.59790802001953,6.4015092849731445
-6.55275821685791,-44.98439407348633,6.273325443267822
-4.303720474243164,-41.04650115966797,5.695434093475342
-2.7819290161132812,-43.214073181152344,5.9758501052856445
-1.0259536504745483,-42.553977966308594,5.87411642074585
0.6809680461883545,-42.352882385253906,5.8454155921936035
2.345734119415283,-41.651512145996094,5.756980895996094
3.9599997997283936,-40.93426513671875,5.675265789031982
5.526841640472412,-40.201393127441406,5.599942207336426
7.0490570068359375,-39.453067779541016,5.5307087898254395
8.52932071685791,-38.68934631347656,5.467300891876221
9.969998359680176,-37.91026306152344,5.4094767570495605
11.369156837463379,-37.1015739440918,5.354981899261475
12.737133979797363,-36.292232513427734,5.30778694152832
14.0719575881958,-35.467044830322266,5.265588760375977
15.375493049621582,-34.625736236572266,5.228233337402344
10.676856994628906,-21.654529571533203,3.3317978382110596
17.895355224609375,-32.89336395263672,5.167540550231934
19.11475372314453,-32.00143814086914,5.143994331359863
9.596535682678223,-14.691596984863281,2.4216272830963135
18.777563095092773,-26.369178771972656,4.467273712158203
18.71837615966797,-24.168994903564453,4.2186174392700195
16.730640411376953,-19.896957397460938,3.587455987930298
15.574662208557129,-17.079452514648438,3.18977689743042
13.537956237792969,-13.697787284851074,2.6577134132385254
17.024324417114258,-15.894350051879883,3.214101791381836
18.104387283325195,-15.589689254760742,3.29701828956604
19.189199447631836,-15.225274085998535,3.3803746700286865
17.86078453063965,-13.037331581115723,3.051560401916504
22.233688354492188,-14.898210525512695,3.6933627128601074
23.86188316345215,-14.635624885559082,3.8629696369171143
25.65099334716797,-14.347919464111328,4.055946350097656
34.05613327026367,-17.291324615478516,5.270786285400391
35.00377655029297,-16.03781509399414,5.313366413116455
35.93877410888672,-14.749701499938965,5.360955238342285
36.8615837097168,-13.424970626831055,5.413725852966309
37.77251434326172,-12.06154727935791,5.4718732833862305
38.6718635559082,-10.657154083251953,5.535616874694824
36.3350830078125,-8.458685874938965,5.148288726806641
40.05524444580078,-7.642858505249023,5.627312660217285
40.9127311706543,-6.114742755889893,5.708631992340088
41.75925827026367,-4.5351362228393555,5.796627521514893
43.00030517578125,-2.928373098373413,5.947751045227051
43.83258056640625,-1.2194995880126953,6.051198959350586
44.6534423828125,0.5522732138633728,6.162607669830322
45.46259689331055,2.3912224769592285,6.282471656799316
46.259639739990234,4.30203914642334,6.4113383293151855
46.60044860839844,6.230525970458984,6.4880452156066895
47.36436462402344,8.281386375427246,6.635398864746094
48.57247543334961,10.519373893737793,6.858349323272705
49.31467819213867,12.773941993713379,7.029979228973389
50.0407829284668,15.13142204284668,7.214375972747803
50.749446868896484,17.599971771240234,7.412567138671875
51.43905258178711,20.188610076904297,7.625697135925293
52.107791900634766,22.907440185546875,7.85502290725708
52.753517150878906,25.767595291137695,8.101974487304688
53.37359619140625,28.781482696533203,8.36816120147705
28.870567321777344,17.09969711303711,4.6305036544799805
26.75203514099121,17.333173751831055,4.398930549621582
24.820701599121094,17.5365047454834,4.19389533996582
23.048320770263672,17.714052200317383,4.011512756347656
21.411924362182617,17.869354248046875,3.8486294746398926
19.9155330657959,18.026025772094727,3.706932783126831
18.49607276916504,18.145126342773438,3.575617790222168
17.1650333404541,18.249195098876953,3.457345962524414
15.911325454711914,18.339879989624023,3.35062837600708
15.48357105255127,19.36678695678711,3.4217495918273926
15.279805183410645,20.77069664001465,3.558384418487549
15.054061889648438,22.287065505981445,3.7114808559417725
14.693438529968262,23.757978439331055,3.8549468517303467
5.204549312591553,9.224146842956543,1.4615674018859863
4.772716045379639,9.31435489654541,1.444290280342102
38.752403259277344,83.75823211669922,12.735749244689941
28.311084747314453,68.26034545898438,10.197936058044434
24.931739807128906,67.67481231689453,9.952670097351074
18.220190048217773,56.33747100830078,8.171004295349121
15.629788398742676,55.905914306640625,8.01080322265625
13.134658813476562,55.48865509033203,7.868993759155273
10.722233772277832,55.08367919921875,7.744172096252441
8.94442081451416,58.36464309692383,8.148303031921387
7.479074954986572,66.56657409667969,9.24393081665039
4.950582981109619,68.92272186279297,9.535782814025879
2.1695706844329834,68.80181121826172,9.499310493469238
-0.41557225584983826,47.995365142822266,6.623569488525391
9.286649703979492,56.61689376831055,8.403977394104004
7.929012775421143,64.45751190185547,9.512803077697754
5.702601432800293,69.20561981201172,10.171489715576172
2.881277561187744,68.50717163085938,10.04368782043457
0.1356208175420761,73.2442626953125,10.728718757629395
-40.061824798583984,76.88980102539062,12.6997652053833
-41.33052444458008,72.0998306274414,12.173230171203613
-20.12567138671875,32.051578521728516,5.543675422668457
-30.748077392578125,44.86008071899414,7.966426849365234
-33.12746810913086,44.395694732666016,8.113912582397461
-33.199012756347656,40.95050048828125,7.721957683563232
-36.85737228393555,41.90324783325195,8.174428939819336
-39.39397048950195,41.314937591552734,8.36186695098877
-43.86054611206055,42.4463005065918,8.940505027770996
-46.87432861328125,41.85012435913086,9.204440116882324
-27.308576583862305,22.476810455322266,5.180797576904297
-26.947607040405273,20.420623779296875,4.9525675773620605
-26.615896224975586,18.534521102905273,4.750816822052002
-26.782949447631836,17.095476150512695,4.654196262359619
-28.600074768066406,16.67755126953125,4.8495330810546875
-30.564496994018555,16.214149475097656,5.068002223968506
-32.7008056640625,15.697957038879395,5.313290596008301
-35.03914260864258,15.119962692260742,5.589942932128906
-37.432071685791016,14.397910118103027,5.874607563018799
-35.60466384887695,12.076809883117676,5.50716495513916
-35.30736541748047,10.414459228515625,5.392061710357666
-35.02109909057617,8.817509651184082,5.2899346351623535
-34.74435806274414,7.27731990814209,5.199738025665283
-34.47580337524414,5.78630256652832,5.120595932006836
-33.865203857421875,4.293364524841309,5.000229835510254
-37.78235626220703,3.2544240951538086,5.5547943115234375
-13.274325370788574,0.6076210737228394,1.9464386701583862
-69.8331298828125,0.38831883668899536,10.229206085205078
-19.073040008544922,-0.6605924367904663,2.7954626083374023
-10.449444770812988,-0.7831125855445862,1.5349117517471313
-40.675048828125,-4.697730541229248,5.997622013092041
-90.21244812011719,-14.111371994018555,13.37486743927002
-90.03587341308594,-37.66994094848633,14.296087265014648
-89.29185485839844,-41.648990631103516,14.432161331176758
-60.53636932373047,-31.25630760192871,9.97948169708252
-65.42647552490234,-37.18338394165039,11.023150444030762
-61.600242614746094,-38.36188507080078,10.629759788513184
-61.010498046875,-41.48616027832031,10.807075500488281
-54.43117904663086,-40.30237579345703,9.920642852783203
-50.992279052734375,-41.027488708496094,9.586750030517578
-50.42344284057617,-44.02098083496094,9.804619789123535
