48.02598571777344,30.714086532592773,8.350366592407227
47.331146240234375,33.0216178894043,8.453553199768066
29.464256286621094,22.368356704711914,5.418686866760254
27.128131866455078,22.368194580078125,5.150280952453613
25.00006103515625,22.359821319580078,4.912960052490234
23.048357009887695,22.344303131103516,4.702152252197266
21.265647888183594,22.341781616210938,4.518055438995361
24.149106979370117,27.50371551513672,5.361260414123535
23.545879364013672,29.09556770324707,5.482603073120117
35.40411376953125,47.533546447753906,8.681715965270996
33.81760787963867,49.43118667602539,8.772907257080078
32.166786193847656,51.327667236328125,8.872808456420898
30.44835662841797,53.22418212890625,8.98178482055664
15.078910827636719,29.002582550048828,4.788131237030029
14.34869384765625,30.53620719909668,4.9420905113220215
24.406879425048828,57.874488830566406,9.200370788574219
16.23604965209961,43.27801513671875,6.770722389221191
14.23914909362793,43.151973724365234,6.656067848205566
12.302608489990234,43.019195556640625,6.553998947143555
10.418985366821289,42.879634857177734,6.463696479797363
11.74377727508545,58.47997283935547,8.73707389831543
9.190086364746094,57.6805534362793,8.555522918701172
6.899911880493164,58.292938232421875,8.598264694213867
5.0497145652771,64.9124755859375,9.537008285522461
2.4761440753936768,66.07965850830078,9.68603801727295
-0.1922609806060791,70.50098419189453,10.326911926269531
-2.0780348777770996,48.39957046508789,7.09602165222168
-6.573000431060791,78.92423248291016,11.60071849822998
-10.100759506225586,81.52308654785156,12.032676696777344
-13.270395278930664,80.46290588378906,11.945294380187988
-18.169002532958984,87.98612213134766,13.159987449645996
-22.56764030456543,90.71810913085938,13.693243980407715
-27.095983505249023,92.8296127319336,14.164953231811523
-32.26227569580078,67.69725799560547,10.984688758850098
-19.250808715820312,30.348876953125,5.2643632888793945
-33.99330139160156,49.110984802246094,8.748870849609375
-32.990352630615234,43.7921028137207,8.031128883361816
-33.78437805175781,41.28468322753906,7.814057350158691
-36.19095993041992,40.76762771606445,7.985136032104492
-38.594398498535156,40.1070671081543,8.153080940246582
-39.14386749267578,37.53615188598633,7.9439496994018555
-44.075775146484375,38.9903450012207,8.619758605957031
-46.97862243652344,38.30714797973633,8.87909984588623
-50.051395416259766,37.56894302368164,9.166990280151367
-3.001755475997925,-66.85050964355469,9.802029609680176
-0.33551621437072754,-71.53694915771484,10.478737831115723
12.025298118591309,-76.44058990478516,11.334601402282715
35.160518646240234,-67.95295715332031,11.207149505615234
43.91743850708008,-77.11929321289062,12.999604225158691
44.590206146240234,-71.46292114257812,12.338354110717773
39.546165466308594,-58.04888916015625,10.28856086730957
31.57016944885254,-42.560245513916016,7.762042045593262
33.45624542236328,-41.50814437866211,7.809164047241211
35.69025802612305,-40.80940628051758,7.941245079040527
38.00474548339844,-40.085205078125,8.091104507446289
31.310897827148438,-30.473922729492188,6.400008201599121
32.92289733886719,-29.562490463256836,6.48133659362793
32.36310577392578,-26.79153060913086,6.15411376953125
32.084800720214844,-24.457239151000977,5.909441947937012
61.480899810791016,-43.073219299316406,10.995831489562988
61.715206146240234,-39.6396598815918,10.744034767150879
36.10372543334961,-21.19074249267578,6.132056713104248
61.966880798339844,-33.098575592041016,10.290480613708496
61.99330520629883,-29.97665023803711,10.086583137512207
60.62336349487305,-26.36449432373047,9.68341064453125
59.57029342651367,-23.107563018798828,9.3592529296875
58.58649444580078,-20.05777359008789,9.070663452148438
59.26699447631836,-17.664878845214844,9.058748245239258
29.678314208984375,-7.562001705169678,4.486135482788086
60.958106994628906,-12.948700904846191,9.128281593322754
60.61608123779297,-10.350680351257324,9.007467269897461
60.229896545410156,-7.809656143188477,8.896238327026367
59.81732940673828,-5.323556900024414,8.796575546264648
59.34672546386719,-2.885409355163574,8.703278541564941
55.25376892089844,1.7566739320755005,8.097578048706055
57.34764099121094,4.134083271026611,8.421993255615234
57.066226959228516,6.4266791343688965,8.41181755065918
56.3995361328125,8.65825366973877,8.358102798461914
55.69488525390625,10.856207847595215,8.31164264678955
51.671993255615234,12.2454252243042,7.778469562530518
51.10337829589844,14.301462173461914,7.773146152496338
53.032325744628906,17.166486740112305,8.164929389953613
52.49630355834961,19.355430603027344,8.195572853088379
51.60044860839844,21.417097091674805,8.183531761169434
50.64610290527344,23.44840431213379,8.175094604492188
49.65276336669922,25.458589553833008,8.173360824584961
48.98612976074219,27.65629005432129,8.239998817443848
48.27888870239258,29.87602424621582,8.316349983215332
47.58949279785156,32.16284942626953,8.413537979125977
30.386978149414062,22.366085052490234,5.526742458343506
27.96454620361328,22.369279861450195,5.245482444763184
48.534767150878906,24.244524002075195,8.408096313476562
49.068172454833984,27.02645492553711,8.681716918945312
48.52096176147461,29.32512092590332,8.786396980285645
36.555511474609375,24.14988899230957,6.789968490600586
30.600608825683594,22.03125762939453,5.843679904937744
28.172216415405273,22.053869247436523,5.544778823852539
25.96650505065918,22.065584182739258,5.280990123748779
23.948984146118164,22.067909240722656,5.047034740447998
22.11088752746582,22.081119537353516,4.842838764190674
20.38971710205078,22.068021774291992,4.656421661376953
23.7410945892334,27.862062454223633,5.673003196716309
35.300960540771484,44.96946334838867,8.860115051269531
33.78914260864258,46.798789978027344,8.945666313171387
16.68146514892578,25.176809310913086,4.680614471435547
15.95435905456543,26.31773567199707,4.769625663757324
15.350068092346191,27.78038215637207,4.918887138366699
14.701807022094727,29.332462310791016,5.084940433502197
13.655596733093262,30.217941284179688,5.139118671417236
12.178879737854004,30.11937713623047,5.035017013549805
15.349639892578125,42.83711624145508,7.052165985107422
13.39598274230957,42.71614074707031,6.937985420227051
11.498571395874023,42.587738037109375,6.836519241333008
9.650439262390137,42.45189666748047,6.746983528137207
10.7905912399292,58.19283676147461,9.172369003295898
8.274978637695312,57.40522766113281,8.98852825164795
6.277923583984375,60.74538803100586,9.464361190795898
4.189793586730957,66.62812805175781,10.346317291259766
1.5369558334350586,67.93865203857422,10.531722068786621
-1.232854962348938,70.18926239013672,10.879497528076172
-4.256031036376953,73.62213134765625,11.42888069152832
-7.554963111877441,76.9026870727539,11.975634574890137
-11.122833251953125,80.02444458007812,12.521284103393555
-14.49002742767334,80.40928649902344,12.662412643432617
-18.296056747436523,82.40912628173828,13.082611083984375
-23.081912994384766,87.2397689819336,13.985506057739258
-27.452577590942383,89.11437225341797,14.451281547546387
-31.88365936279297,90.4164810180664,14.85830307006836
-43.6778564453125,72.87799835205078,13.167654037475586
-19.769678115844727,30.167905807495117,5.5898518562316895
-34.004512786865234,47.602333068847656,9.066293716430664
-31.98781967163086,41.17580032348633,8.080710411071777
-34.33913803100586,40.71493911743164,8.254518508911133
-36.75115966796875,40.181888580322266,8.439184188842773
-37.80002212524414,38.132808685302734,8.321279525756836
-40.038272857666016,37.26951599121094,8.477307319641113
-44.66475296020508,38.345340728759766,9.123096466064453
-47.582035064697266,37.63788604736328,9.402298927307129
-50.67240524291992,36.87257385253906,9.712193489074707
-83.17391204833984,50.844573974609375,15.107866287231445
-42.82754135131836,-83.8884048461914,14.597177505493164
-29.034774780273438,-90.2342529296875,14.690481185913086
-2.0004045963287354,-66.57843780517578,10.322879791259766
0.7265211343765259,-71.60870361328125,11.098373413085938
8.822484970092773,-97.21121215820312,15.127558708190918
12.753782272338867,-97.03201293945312,15.167208671569824
44.025211334228516,-82.07852935791016,14.434728622436523
42.521705627441406,-72.1574935913086,12.980123519897461
38.70403289794922,-60.02768325805664,11.069109916687012
32.6668701171875,-46.45451354980469,8.80128288269043
31.983041763305664,-41.80611038208008,8.157612800598145
34.265689849853516,-41.244834899902344,8.310190200805664
36.52751541137695,-40.537113189697266,8.456650733947754
30.039249420166016,-30.756702423095703,6.662866592407227
31.614200592041016,-29.868770599365234,6.7404046058654785
32.38486862182617,-28.222883224487305,6.657420635223389
31.78448486328125,-25.527421951293945,6.317919731140137
31.326805114746094,-23.152816772460938,6.03704309463501
31.041494369506836,-21.06798553466797,5.8141374588012695
34.75651550292969,-21.602582931518555,6.342172145843506
36.38864517211914,-20.638370513916016,6.483355522155762
59.83283996582031,-30.82671356201172,10.431158065795898
59.8765754699707,-27.864871978759766,10.235210418701172
23.187889099121094,-9.677693367004395,3.8940467834472656
59.29560089111328,-21.994661331176758,9.801371574401855
58.330528259277344,-19.008140563964844,9.507850646972656
59.4600715637207,-16.766048431396484,9.574356079101562
57.08313751220703,-13.646200180053711,9.095932960510254
58.95176315307617,-11.61125373840332,9.311782836914062
58.627803802490234,-9.118220329284668,9.195280075073242
58.27537155151367,-6.67874813079834,9.090537071228027
57.86381149291992,-4.28551721572876,8.992197036743164
57.41033172607422,-1.9380759000778198,8.902427673339844
56.915897369384766,0.36633217334747314,8.820916175842285
56.0421257019043,2.6144256591796875,8.694770812988281
55.471519470214844,4.827001571655273,8.629376411437988
55.194190979003906,7.0465192794799805,8.62334156036377
54.542510986328125,9.203351974487305,8.572408676147461
53.852447509765625,11.328816413879395,8.528643608093262
49.16044616699219,12.423276901245117,7.858319282531738
52.042354583740234,15.400285720825195,8.411169052124023
48.97588348388672,16.660079956054688,8.017333984375
50.7081298828125,19.555418014526367,8.42279052734375
49.82493209838867,21.55211067199707,8.4132080078125
48.88557815551758,23.520158767700195,8.407489776611328
48.73114776611328,25.9061222076416,8.553135871887207
48.771026611328125,28.497108459472656,8.754151344299316
36.8747444152832,23.582523345947266,6.7835259437561035
31.561800003051758,22.019784927368164,5.9641900062561035
29.040788650512695,22.04688262939453,5.650726795196533
26.757293701171875,22.062421798706055,5.374656677246094
24.673860549926758,22.06806755065918,5.130227565765381
22.78002166748047,22.08416748046875,4.9170942306518555
21.010425567626953,22.07364273071289,4.722862243652344
19.43010139465332,22.129188537597656,4.563923358917236
23.359146118164062,28.864822387695312,5.754748344421387
34.35420227050781,46.123939514160156,8.913119316101074
32.80454635620117,47.95038986206055,9.003933906555176
16.34102439880371,26.074926376342773,4.769033908843994
15.577994346618652,27.230588912963867,4.861927509307861
14.946646690368652,28.748193740844727,5.021543502807617
14.215753555297852,30.253314971923828,5.18043327331543
12.717501640319824,30.156240463256836,5.072163105010986
16.086698532104492,42.87989044189453,7.097720623016357
14.110369682312012,42.761680603027344,6.97861385345459
12.193025588989258,42.63601303100586,6.872554779052734
10.327449798583984,42.50291442871094,6.778696060180664
11.746213912963867,58.49211502075195,9.245991706848145
9.191949844360352,57.69227981567383,9.053832054138184
6.922509670257568,58.48395919799805,9.12702465057373
5.060750484466553,65.05427551269531,10.112471580505371
2.4766159057617188,66.09241485595703,10.250083923339844
-0.19230329990386963,70.5144271850586,10.928252220153809
-2.080467700958252,48.4559440612793,7.516543865203857
-6.329370021820068,75.99893951416016,11.81897258758545
-9.748834609985352,78.68262481689453,12.287351608276367
-13.342052459716797,80.89739990234375,12.706718444824219
-17.359066009521484,84.06396484375,13.302967071533203
-21.530216217041016,86.54782104492188,13.821840286254883
-25.809513092041016,88.42224884033203,14.275373458862305
-30.34294891357422,90.29656982421875,14.762994766235352
-34.78843688964844,91.21443176269531,15.129504203796387
-32.26820755004883,67.709716796875,11.624253273010254
-19.224803924560547,30.3078670501709,5.562320709228516
-34.35786437988281,49.63765335083008,9.355826377868652
-32.876564025878906,43.64104080200195,8.467853546142578
-33.472206115722656,40.903202056884766,8.191102981567383
-35.84929656982422,40.38275909423828,8.368744850158691
-37.953433990478516,39.440975189208984,8.48293399810791
-39.15201950073242,37.54396438598633,8.406676292419434
-43.62694549560547,38.59329605102539,9.027081489562988
-46.48598098754883,37.90544128417969,9.295830726623535
-49.50971221923828,37.1623420715332,9.593968391418457
-80.58012390136719,42.27530288696289,14.102486610412598
-2.9130940437316895,-64.87601470947266,10.064516067504883
-0.3266105651855469,-69.63996124267578,10.79280948638916
7.428790092468262,-97.98187255859375,15.228656768798828
11.160730361938477,-95.90261840820312,14.96314525604248
12.012298583984375,-76.35801696777344,11.979381561279297
42.685752868652344,-82.49658966064453,14.39528751373291
44.20015335083008,-77.61571502685547,13.842493057250977
44.58185958862305,-71.44956970214844,13.05189037322998
38.39021682739258,-56.352073669433594,10.567395210266113
31.29332733154297,-42.18702697753906,8.14045238494873
33.449729919433594,-41.50007629394531,8.260714530944824
35.68320846557617,-40.801334381103516,8.40040397644043
29.464574813842773,-31.077529907226562,6.636937618255615
31.029399871826172,-30.1999454498291,6.710513114929199
32.620460510253906,-29.29091453552246,6.794445037841797
32.000125885009766,-26.491031646728516,6.438195705413818
31.518653869628906,-24.025686264038086,6.142034530639648
31.24750328063965,-21.8918514251709,5.912911415100098
34.16912078857422,-21.946828842163086,6.2937140464782715
35.77873611450195,-20.99999237060547,6.42949104309082
59.80069351196289,-31.941545486450195,10.507018089294434
59.86765670776367,-28.948789596557617,10.30596923828125
59.872798919677734,-26.03807258605957,10.118484497070312
59.66813278198242,-23.14551544189453,9.918624877929688
58.679744720458984,-20.089704513549805,9.612296104431152
59.24782943725586,-17.659156799316406,9.58131217956543
29.694116592407227,-7.566028594970703,4.7489848136901855
59.059844970703125,-12.545475006103516,9.357226371765137
58.75266647338867,-10.03249454498291,9.237194061279297
58.41648864746094,-7.574517250061035,9.129077911376953
58.02071762084961,-5.163658142089844,9.02749252319336
57.58259201049805,-2.7996468544006348,8.93459415435791
54.072364807128906,1.7191169261932373,8.384286880493164
55.686737060546875,4.0143513679504395,8.65263557434082
55.4250602722168,6.241853713989258,8.643990516662598
54.7876091003418,8.410799026489258,8.59036922454834
54.11167907714844,10.547607421875,8.543976783752441
53.39744567871094,12.65431022644043,8.504659652709961
52.32817459106445,14.644207000732422,8.4213228225708
51.54196548461914,16.684059143066406,8.395956039428711
51.0242805480957,18.812692642211914,8.428009033203125
50.155609130859375,20.817411422729492,8.415966033935547
49.23087692260742,22.79317855834961,8.40778923034668
48.28288650512695,24.756208419799805,8.40907096862793
49.05168914794922,27.693309783935547,8.729825019836426
37.18925094604492,23.01350975036621,6.777822494506836
36.32646942138672,24.550853729248047,6.794983863830566
29.94167709350586,22.038320541381836,5.7617645263671875
27.575307846069336,22.057918548583984,5.472624778747559
47.21025085449219,23.58289337158203,8.6283597946167
49.13373565673828,27.062562942504883,9.171340942382812
48.585289001464844,29.363990783691406,9.281827926635742
32.778018951416016,21.65434455871582,6.423110485076904
30.151325225830078,21.707788467407227,6.074493408203125
27.779447555541992,21.74639892578125,5.768116474151611
25.621482849121094,21.77239227294922,5.497350692749023
23.644695281982422,21.78751564025879,5.256903648376465
21.841400146484375,21.811994552612305,5.046866416931152
20.150671005249023,21.809297561645508,4.854870319366455
18.638574600219727,21.873851776123047,4.698642253875732
34.27611541748047,43.663917541503906,9.075947761535645
17.097583770751953,23.680583953857422,4.775491714477539
16.48123550415039,24.874608993530273,4.878719329833984
15.888595581054688,26.209253311157227,5.011153221130371
15.218968391418457,27.543119430541992,5.145044326782227
14.572044372558594,29.073556900024414,5.317197322845459
13.530933380126953,29.94206428527832,5.372207164764404
12.06992244720459,29.84991455078125,5.26435661315918
15.210256576538086,42.44813919067383,7.3723907470703125
13.276297569274902,42.3344841003418,7.254089832305908
11.397316932678223,42.21274185180664,7.148935317993164
9.566560745239258,42.082950592041016,7.056122779846191
7.777800559997559,41.94511032104492,6.97494649887085
8.276642799377441,57.416839599609375,9.484702110290527
6.302273273468018,60.9810905456543,10.023528099060059
4.113067626953125,65.40792846679688,10.715335845947266
1.5175567865371704,67.08052062988281,10.970479011535645
-1.2083916664123535,68.79723358154297,11.250089645385742
-4.109617710113525,71.09008026123047,11.642643928527832
-7.29124116897583,74.21824645996094,12.193120002746582
-10.763581275939941,77.439697265625,12.78313159942627
-14.412240982055664,79.97766876220703,13.286994934082031
-18.002363204956055,81.08619689941406,13.580423355102539
-22.053451538085938,83.35270690917969,14.097126007080078
-26.190528869628906,85.01761627197266,14.545037269592285
-30.561513900756836,86.66709899902344,15.025306701660156
-34.84136962890625,87.43484497070312,15.388822555541992
-38.74274826049805,86.90045166015625,15.556336402893066
-43.02889633178711,86.94400024414062,15.860993385314941
-46.12666702270508,84.48578643798828,15.738143920898438
-43.469444274902344,72.5302505493164,13.825425148010254
-19.79229736328125,30.20240592956543,5.903967380523682
-33.8765869140625,47.42327880859375,9.528841972351074
-31.689002990722656,40.791160583496094,8.44541072845459
-33.69535446166992,39.95161819458008,8.545151710510254
-36.40370559692383,39.801998138427734,8.819062232971191
-38.25333786010742,38.590118408203125,8.884125709533691
-40.05402374267578,37.2841796875,8.94697093963623
-44.20859146118164,37.953739166259766,9.52645206451416
-47.08137130737305,37.241859436035156,9.814937591552734
-50.121849060058594,36.471961975097656,10.134917259216309
-83.11216735839844,50.806827545166016,15.926778793334961
-42.82484817504883,-83.88311004638672,15.398870468139648
-29.029020309448242,-90.21641540527344,15.49521255493164
-4.480387210845947,-63.70124053955078,10.440901756286621
-1.9499237537384033,-64.89857482910156,10.61572265625
0.7071905136108398,-69.7031021118164,11.397061347961426
4.918235778808594,-97.64350128173828,15.984981536865234
8.677308082580566,-95.61160278320312,15.696770668029785
12.670205116271973,-96.39607238769531,15.896344184875488
42.90306091308594,-79.98636627197266,14.840286254882812
42.486812591552734,-72.09831237792969,13.682638168334961
37.55131149291992,-58.23993682861328,11.329984664916992
35.113433837890625,-49.93370819091797,9.980653762817383
32.41293716430664,-42.36806106567383,8.721867561340332
34.25897979736328,-41.23674392700195,8.765423774719238
28.533672332763672,-31.66579818725586,6.969207763671875
29.772783279418945,-30.483869552612305,6.966887950897217
31.33052635192871,-29.600767135620117,7.047238826751709
32.01262664794922,-27.898475646972656,6.942765235900879
31.50848388671875,-25.305742263793945,6.607440948486328
30.997867584228516,-22.909713745117188,6.302129745483398
30.522130966186523,-20.715492248535156,6.031214237213135
29.989120483398438,-18.63945198059082,5.773148536682129
36.060489654541016,-20.452239990234375,6.778171539306641
57.82098388671875,-29.790180206298828,10.634711265563965
57.89978790283203,-26.944942474365234,10.441539764404297
23.19719123840332,-9.681573867797852,4.1098198890686035
57.87773513793945,-21.46872329711914,10.093062400817871
57.78273010253906,-18.829620361328125,9.93645191192627
57.61940383911133,-16.24703025817871,9.788141250610352
57.16867446899414,-13.666641235351562,9.61047077178955
57.175376892089844,-11.261375427246094,9.527792930603027
56.882625579833984,-8.846786499023438,9.412135124206543
56.5602912902832,-6.4821906089782715,9.308155059814453
56.17874526977539,-4.160721302032471,9.210393905639648
55.75469207763672,-1.8821872472763062,9.121094703674316
55.28911590576172,0.3558679223060608,9.039965629577637
54.45329284667969,2.54030442237854,8.912811279296875
53.91034698486328,4.691154479980469,8.84766674041748
53.650962829589844,6.849495887756348,8.84315013885498
53.026275634765625,8.947508811950684,8.792369842529297
52.362815856933594,11.015448570251465,8.748723030090332
48.43669891357422,12.240382194519043,8.168375015258789
50.61370849609375,14.97752571105957,8.630083084106445
47.70134353637695,16.226518630981445,8.23807430267334
49.3223991394043,19.021018981933594,8.643106460571289
48.46483612060547,20.963788986206055,8.633548736572266
47.55157470703125,22.878339767456055,8.627756118774414
48.798545837402344,25.94195556640625,9.035935401916504
48.835445404052734,28.534748077392578,9.247718811035156
35.864864349365234,22.936674118041992,6.960540294647217
31.0889892578125,21.689916610717773,6.197887420654297
28.628293991088867,21.73371696472168,5.876769065856934
26.39554214477539,21.76414680480957,5.593533515930176
24.355249404907227,21.783103942871094,5.342437267303467
22.498188018798828,21.810935974121094,5.123290538787842
20.760623931884766,21.811203002929688,4.923320770263672
19.144319534301758,21.8037109375,4.74406623840332
23.174884796142578,28.637130737304688,6.0232954025268555
17.279199600219727,23.19904327392578,4.729560852050781
16.777929306030273,24.524282455444336,4.858297348022461
16.1191349029541,25.720869064331055,4.962955474853516
15.446478843688965,27.000690460205078,5.085968971252441
14.816352844238281,28.497594833374023,5.251486778259277
14.084938049316406,29.97490882873535,5.41500186920166
12.602903366088867,29.884479522705078,5.302846908569336
11.17569351196289,29.78941535949707,5.202049255371094
13.983552932739258,42.37739944458008,7.296189785003662
12.085090637207031,42.25862503051758,7.186283588409424
10.237274169921875,42.131805419921875,7.0889973640441895
8.433710098266602,41.99694061279297,7.003600120544434
9.193835258483887,57.704044342041016,9.553628921508789
6.945338726043701,58.67664337158203,9.660619735717773
5.041924476623535,64.8124008178711,10.628864288330078
2.477109432220459,66.105224609375,10.815807342529297
-0.18601274490356445,68.21096801757812,11.152543067932129
-3.0124094486236572,70.16222381591797,11.482099533081055
-6.098396301269531,73.22530364990234,12.013794898986816
-9.451201438903809,76.28056335449219,12.567248344421387
-13.075040817260742,79.27848815917969,13.13715934753418
-16.616456985473633,80.46768951416016,13.434070587158203
-20.58165740966797,82.73469543457031,13.93942642211914
-24.636795043945312,84.404541015625,14.376031875610352
-28.919363021850586,86.06009674072266,14.844056129455566
-33.40887451171875,87.59722900390625,15.328474044799805
-37.29875564575195,87.11402893066406,15.493795394897461
-41.588253021240234,87.2663345336914,15.80548095703125
-44.739688873291016,84.91675567626953,15.693045616149902
-48.515968322753906,83.74354553222656,15.823909759521484
-19.19879913330078,30.266857147216797,5.860240459442139
-39.6199836730957,57.240020751953125,11.381972312927246
-32.76329040527344,43.49070358276367,8.902702331542969
-33.16497039794922,40.527748107910156,8.562195777893066
-33.57661819458008,37.822669982910156,8.269206047058105
-37.9318733215332,39.418575286865234,8.944305419921875
-39.16453552246094,37.555973052978516,8.87177562713623
-43.18601989746094,38.20326232910156,9.42721176147461
-46.002349853515625,37.51107406616211,9.704950332641602
-48.978271484375,36.76344299316406,10.012868881225586
-80.44234466552734,42.2030029296875,14.852508544921875
-77.31245422363281,25.829654693603516,13.327414512634277
-2.8413610458374023,-63.278385162353516,10.356463432312012
-0.31815624237060547,-67.83644104003906,11.091400146484375
3.442218780517578,-96.9469223022461,15.860837936401367
7.305757522583008,-96.35896301269531,15.79993724822998
10.979042053222656,-94.34140014648438,15.528946876525879
11.999299049377441,-76.2754135131836,12.624428749084473
42.25870895385742,-81.6712646484375,15.034914016723633
41.27384567260742,-72.47711944580078,13.636811256408691
37.704689025878906,-60.427791595458984,11.645495414733887
37.29718780517578,-54.74765396118164,10.831060409545898
31.599782943725586,-42.600154876708984,8.672179222106934
33.44322204589844,-41.49198532104492,8.713249206542969
35.6761474609375,-40.79323959350586,8.86056137084961
29.204208374023438,-30.80292320251465,6.940018653869629
30.752199172973633,-29.93015480041504,7.016263484954834
32.237884521484375,-28.94737434387207,7.083981037139893
31.644283294677734,-26.196460723876953,6.716689109802246
31.182010650634766,-23.769079208374023,6.410561561584473
30.694072723388672,-21.504119873046875,6.127561569213867
30.142658233642578,-19.36063003540039,5.85736083984375
35.45872497558594,-20.812166213989258,6.7223615646362305
57.77580261230469,-30.859981536865234,10.709430694580078
57.877967834472656,-27.986690521240234,10.511323928833008
57.917991638183594,-25.18794059753418,10.326338768005371
57.8990364074707,-22.459257125854492,10.153772354125977
57.824031829833984,-19.79673957824707,9.992972373962402
57.69560623168945,-17.196508407592773,9.843341827392578
29.709970474243164,-7.570067882537842,5.012795448303223
57.27177810668945,-12.165647506713867,9.572883605957031
56.99604034423828,-9.73253059387207,9.453754425048828
56.69019317626953,-7.350681781768799,9.346452713012695
56.32463455200195,-5.01271390914917,9.24548625946045
55.91615676879883,-2.7186155319213867,9.153097152709961
54.03597640991211,1.7179601192474365,8.839365005493164
54.11539840698242,3.9010772705078125,8.870844841003418
53.87176513671875,6.066926956176758,8.863729476928711
53.261436462402344,8.176506042480469,8.810279846191406
52.61225509643555,10.255330085754395,8.764017105102539
51.92443084716797,12.305230140686035,8.724799156188965
50.8900032043457,14.241726875305176,8.640213012695312
50.129539489746094,16.22686004638672,8.614901542663574
49.629051208496094,18.298261642456055,8.648324966430664
48.78604507446289,20.24896812438965,8.636303901672363
47.88741683959961,22.171173095703125,8.62805461883545
46.965087890625,24.080533981323242,8.629334449768066
49.11759948730469,27.730510711669922,9.222227096557617
36.17158889770508,22.38376235961914,6.954848289489746
32.06370162963867,21.669902801513672,6.327411651611328
29.50814437866211,21.719219207763672,5.990573406219482
27.19578742980957,21.754337310791016,5.694089412689209
45.952789306640625,22.95475196838379,8.83747386932373
49.19965362548828,27.098873138427734,9.66361141204834
48.649959564208984,29.40308380126953,9.779926300048828
32.27560043334961,21.322420120239258,6.655198574066162
29.71385383605957,21.392833709716797,6.299228668212891
27.396438598632812,21.446578979492188,5.985897541046143
25.28459358215332,21.486120223999023,5.7086005210876465
23.34722900390625,21.513416290283203,5.462057113647461
21.57770347595215,21.54865264892578,5.246514320373535
19.916536331176758,21.555885314941406,5.049245357513428
18.36665916442871,21.55474090576172,4.872080326080322
17.484586715698242,22.27340316772461,4.871697425842285
16.891599655151367,23.395292282104492,4.964534282684326
16.34592628479004,24.670391082763672,5.091549873352051
15.76632022857666,26.00754165649414,5.23246955871582
15.08974552154541,27.309249877929688,5.3679704666137695
14.444207191467285,28.81851577758789,5.546008586883545
13.40817642211914,29.670440673828125,5.601695537567139
11.96261215209961,29.584514617919922,5.490238666534424
10.568243980407715,29.493446350097656,5.390134334564209
13.158411026000977,41.95857620239258,7.565431118011475
11.29757308959961,41.84330368041992,7.456728935241699
9.483915328979492,41.71937942504883,7.360753059387207
7.711380481719971,41.58687210083008,7.276793956756592
5.974412441253662,41.44575119018555,7.204253673553467
6.3050007820129395,61.00743103027344,10.551947593688965
3.969322681427002,63.12215042114258,10.881321907043457
1.4620277881622314,64.62576293945312,11.121408462524414
-1.1682313680648804,66.51005554199219,11.444496154785156
-4.007501602172852,69.32337951660156,11.946667671203613
-7.040040016174316,71.6613540649414,12.388344764709473
-10.379339218139648,74.6753921508789,12.971054077148438
-13.829663276672363,76.74481201171875,13.41625690460205
-17.273334503173828,77.8025131225586,13.71148681640625
-21.110307693481445,79.78797149658203,14.199491500854492
-25.036407470703125,81.27122497558594,14.630770683288574
-29.172351837158203,82.72767639160156,15.091915130615234
-33.27217102050781,83.4969711303711,15.463787078857422
-36.9797248840332,82.94593048095703,15.624460220336914
-40.710418701171875,82.2593002319336,15.790665626525879
-45.188575744628906,82.76763153076172,16.2238712310791
-43.26247787475586,72.18495178222656,14.478728294372559
-19.815021514892578,30.23708724975586,6.219664573669434
-33.75176239013672,47.24855041503906,9.989904403686523
-31.39493179321289,40.41262435913086,8.804328918457031
-33.027095794677734,39.159271240234375,8.813421249389648
-34.01746368408203,37.192989349365234,8.671674728393555
-38.154964447021484,38.490875244140625,9.324398040771484
-40.062496185302734,37.29204559326172,9.416561126708984
-43.76046371459961,37.56901931762695,9.922719955444336
-46.589820861816406,36.8530387878418,10.220071792602539
-49.581661224365234,36.07890701293945,10.549662590026855
-83.05036163330078,50.7690315246582,16.746706008911133
-29.026546478271484,-90.20865631103516,16.30364418029785
-4.479518890380859,-63.68880844116211,10.984436988830566
-1.90181303024292,-63.297119140625,10.894890785217285
0.6888030767440796,-67.89146423339844,11.681015014648438
4.7474260330200195,-94.25281524658203,16.2363224029541
8.536447525024414,-94.05963134765625,16.24903106689453
12.741120338439941,-96.93572235107422,16.82078742980957
39.156246185302734,-89.60945129394531,16.824480056762695
41.63856506347656,-85.72859954833984,16.396888732910156
39.2120475769043,-73.10505676269531,14.272441864013672
42.44183349609375,-72.02197265625,14.38249683380127
36.46240234375,-56.551082611083984,11.576408386230469
34.894874572753906,-49.62288284301758,10.436905860900879
32.40667724609375,-42.35985565185547,9.175925254821777
34.25225067138672,-41.2286376953125,9.221721649169922
28.98104476928711,-32.16225814819336,7.448418617248535
29.510299682617188,-30.215118408203125,7.266369819641113
31.051145553588867,-29.33681297302246,7.349426746368408
31.647869110107422,-27.580608367919922,7.222378730773926
31.164459228515625,-25.02945327758789,6.876859664916992
30.67489242553711,-22.6710147857666,6.562407493591309
30.117507934570312,-20.440872192382812,6.26229190826416
29.709257125854492,-18.46550941467285,6.018183708190918
29.322486877441406,-16.63068962097168,5.799713134765625
52.04973602294922,-26.816761016845703,10.073567390441895
56.04452896118164,-26.08155632019043,10.635183334350586
23.206527709960938,-9.685469627380371,4.326354026794434
56.08312225341797,-20.803037643432617,10.291254043579102
56.01802062988281,-18.254562377929688,10.136442184448242
55.89996337890625,-15.762191772460938,9.992342948913574
55.731201171875,-13.32300090789795,9.858463287353516
55.51362991333008,-10.934074401855469,9.734360694885254
55.23398208618164,-8.590385437011719,9.616995811462402
54.939029693603516,-6.29638147354126,9.513871192932129
54.58484649658203,-4.042667388916016,9.416783332824707
54.18773651123047,-1.8292902708053589,9.328048706054688
53.7486686706543,0.3459535837173462,9.247392654418945
52.94807434082031,2.4700820446014404,9.119379997253418
52.430728912353516,4.562401294708252,9.054553985595703
52.18782043457031,6.662699222564697,9.051551818847656
51.5882453918457,8.704858779907227,9.000983238220215
50.94963836669922,10.718158721923828,8.95750617980957
48.369171142578125,12.223316192626953,8.583300590515137
49.257816314697266,14.576292037963867,8.837845802307129
46.488243103027344,15.813861846923828,8.448172569274902
48.006900787353516,18.513710021972656,8.852251052856445
47.173606872558594,20.405254364013672,8.842728614807129
46.28511428833008,22.26900863647461,8.836868286132812
45.253944396972656,24.057594299316406,8.817532539367676
48.900211334228516,28.572589874267578,9.743942260742188
33.29256057739258,21.291608810424805,6.799009323120117
30.62889862060547,21.368927001953125,6.425292015075684
28.22625732421875,21.428508758544922,6.0970683097839355
26.042495727539062,21.473041534423828,5.807148456573486
24.04392433166504,21.504657745361328,5.5497941970825195
22.222484588623047,21.543663024902344,5.32498836517334
20.516048431396484,21.55423927307129,5.119595527648926
18.926902770996094,21.556081771850586,4.935311317443848
17.65614128112793,21.817630767822266,4.828773498535156
17.085262298583984,22.938661575317383,4.920886039733887
16.5511417388916,24.192794799804688,5.043107032775879
15.984539031982422,25.50609016418457,5.178726673126221
15.316821098327637,26.774028778076172,5.306851863861084
14.687962532043457,28.250654220581055,5.478065490722656
13.956157684326172,29.70083999633789,5.645907402038574
12.490034103393555,29.616846084594727,5.530020236968994
11.077507019042969,29.527666091918945,5.425827980041504
13.858668327331543,41.99894332885742,7.608947277069092
11.978791236877441,41.88685989379883,7.495337963104248
10.148429870605469,41.76612854003906,7.394750595092773
8.361384391784668,41.63679122924805,7.306432723999023
6.611900329589844,41.49885559082031,7.22974157333374
6.9683637619018555,58.87119674682617,10.199224472045898
4.867099761962891,62.56508255004883,10.796553611755371
2.400888442993164,64.0715103149414,11.030943870544434
-0.17947030067443848,65.811767578125,11.322643280029297
-2.941638469696045,68.51333618164062,11.798246383666992
-5.906808853149414,70.92507934570312,12.244549751281738
-9.155895233154297,73.89712524414062,12.810869216918945
-12.559247016906738,76.15103912353516,13.278426170349121
-15.950685501098633,77.24368286132812,13.569795608520508
-19.709224700927734,79.22769927978516,14.046195983886719
-23.563213348388672,80.72653198242188,14.468179702758789
-27.619977951049805,82.193359375,14.918038368225098
-31.896032333374023,83.63063049316406,15.399202346801758
-35.607940673828125,83.16500854492188,15.564489364624023
-39.33052062988281,82.5288314819336,15.728655815124512
-43.372772216796875,82.32234191894531,16.00869369506836
-48.381446838378906,83.51139068603516,16.604753494262695
-19.17279052734375,30.225854873657227,6.158162593841553
-39.627567291259766,57.25101852416992,11.979129791259766
-32.650474548339844,43.34093475341797,9.335729598999023
-32.86250686645508,40.158138275146484,8.927512168884277
-33.58960723876953,37.837310791015625,8.704753875732422
-37.561195373535156,39.03335952758789,9.31978988647461
-39.1727409362793,37.56383514404297,9.337398529052734
-42.752777099609375,37.820003509521484,9.820388793945312
-45.52738952636719,37.12378692626953,10.10672664642334
-48.456695556640625,36.37195587158203,10.423981666564941
-51.54384994506836,35.5443000793457,10.77197265625
-80.30467224121094,42.130775451660156,15.602005004882812
-77.06160736083984,25.745838165283203,13.978449821472168
-26.938339233398438,-91.62037658691406,16.430078506469727
-2.836914539337158,-63.17953872680664,10.88070011138916
-0.31000638008117676,-66.09784698486328,11.371954917907715
2.275751829147339,-64.09412384033203,11.034046173095703
7.186399936676025,-94.78474426269531,16.354080200195312
10.80270767211914,-92.82616424560547,16.078094482421875
11.986296653747559,-76.19276428222656,13.269828796386719
40.88394546508789,-87.45294189453125,16.608850479125977
38.01905822753906,-73.47748565673828,14.233457565307617
23.29368782043457,-40.903839111328125,8.098421096801758
44.531639099121094,-71.36907196044922,14.472906112670898
36.26194763183594,-53.22804260253906,11.08078384399414
31.59369659423828,-42.59196090698242,9.123655319213867
33.436683654785156,-41.4838752746582,9.166845321655273
35.66904830932617,-40.78513717651367,9.321794509887695
28.947723388671875,-30.532394409179688,7.238589286804199
30.479171752929688,-29.6644344329834,7.317409992218018
31.863178253173828,-28.61092758178711,7.367578029632568
31.295333862304688,-25.907583236694336,6.9897894859313965
30.851585388183594,-23.51719093322754,6.674117088317871
30.38303565979004,-21.286203384399414,6.382466793060303
29.857301712036133,-19.17734718322754,6.105137348175049
29.462993621826172,-17.293020248413086,5.877601623535156
29.233482360839844,-15.61457347869873,5.701977729797363
56.01140594482422,-27.08411407470703,10.70396900177002
56.081947326660156,-24.38947296142578,10.521570205688477
56.09331512451172,-21.758831024169922,10.351221084594727
56.048336029052734,-19.18880271911621,10.192328453063965
55.94955825805664,-16.676095962524414,10.044336318969727
29.725887298583984,-7.574121952056885,5.277604103088379
55.59954833984375,-11.810433387756348,9.779067039489746
55.35213088989258,-9.45181655883789,9.660914421081543
55.058712005615234,-7.139138698577881,9.551889419555664
54.72067642211914,-4.869962215423584,9.451641082763672
54.33927536010742,-2.6419591903686523,9.359859466552734
53.128990173339844,1.689103364944458,9.145214080810547
52.62636947631836,3.793734073638916,9.077621459960938
52.399269104003906,5.901094913482666,9.072042465209961
51.81415939331055,7.9543256759643555,9.018821716308594
51.1899299621582,9.97808837890625,8.97274398803711
50.52680969238281,11.974018096923828,8.933671951293945
49.525142669677734,13.85976791381836,8.847944259643555
48.788909912109375,15.792901039123535,8.822717666625977
48.304622650146484,17.809947967529297,8.857447624206543
47.48586654663086,19.709318161010742,8.84547233581543
46.627601623535156,21.587909698486328,8.840128898620605
45.71400833129883,23.43906593322754,8.838445663452148
49.183868408203125,27.76793098449707,9.717306137084961
48.47169876098633,29.995336532592773,9.806925773620605
31.57941246032715,21.342607498168945,6.5575408935546875
29.085845947265625,21.408395767211914,6.213447570800781
26.825584411621094,21.458209991455078,5.910120487213135
44.75724411010742,22.3575439453125,9.036290168762207
49.26594543457031,27.13538360595703,10.158626556396484
48.714988708496094,29.442386627197266,10.28078842163086
31.786949157714844,20.999603271484375,6.880917549133301
29.28771209716797,21.08602523803711,6.518152713775635
27.022809982299805,21.15409278869629,6.198351860046387
24.955543518066406,21.20649528503418,5.914949893951416
23.076271057128906,21.26374053955078,5.667572498321533
21.319568634033203,21.290864944458008,5.441949844360352
19.687124252319336,21.307588577270508,5.239689350128174
18.162452697753906,21.315082550048828,5.057887077331543
17.271650314331055,22.002147674560547,5.052069664001465
16.757076263427734,23.208974838256836,5.170309543609619
16.212446212768555,24.468929290771484,5.30150842666626
15.634037971496582,25.789331436157227,5.4470109939575195
14.962334632873535,27.07865333557129,5.587764739990234
14.318238258361816,28.56717300415039,5.771477699279785
13.287299156188965,29.4029483795166,5.82769775390625
11.856895446777344,29.323055267333984,5.7127685546875
10.47653579711914,29.23750114440918,5.609511375427246
13.042268753051758,41.58824157714844,7.872167587280273
11.199270248413086,41.4792366027832,7.760035037994385
9.402444839477539,41.361019134521484,7.661013126373291
7.645887851715088,41.233699798583984,7.574373722076416
5.955656051635742,41.31565856933594,7.539356231689453
6.156092643737793,59.56670379638672,10.815938949584961
3.834918737411499,60.98482131958008,11.036527633666992
1.4114686250686646,62.39093017578125,11.271615982055664
-1.1300702095031738,64.33698272705078,11.622013092041016
-3.8942525386810303,67.36447143554688,12.187318801879883
-6.800943374633789,69.2275619506836,12.563703536987305
-10.01781940460205,72.07427978515625,13.142810821533203
-8.245878219604492,45.75874328613281,8.39783000946045
-15.204595565795898,68.4845199584961,12.67050552368164
-20.24045181274414,76.50033569335938,14.292535781860352
-23.97564697265625,77.82782745361328,14.708758354187012
-27.900524139404297,79.1209716796875,15.152897834777832
-31.18800163269043,78.26666259765625,15.217129707336426
-35.365787506103516,79.32579040527344,15.686820983886719
-38.91558837890625,78.63261413574219,15.846333503723145
-41.485774993896484,75.9854965209961,15.636359214782715
-43.109344482421875,71.92942810058594,15.146108627319336
-19.837860107421875,30.271934509277344,6.536989212036133
-33.62748718261719,47.074562072753906,10.44888687133789
-31.153600692749023,40.10197067260742,9.171821594238281
-32.38302230834961,38.3956184387207,9.07198429107666
-34.38920593261719,37.59942626953125,9.203094482421875
-38.05681610107422,38.391868591308594,9.763665199279785
-40.62894058227539,37.8193359375,10.025370597839355
-43.32010269165039,37.19093322753906,10.312146186828613
-46.10706329345703,36.471168518066406,10.617959976196289
-49.05153274536133,35.69313430786133,10.956720352172852
-82.98845672607422,50.731197357177734,17.567752838134766
-29.028057098388672,-90.21334838867188,17.116615295410156
-4.478631019592285,-63.67634963989258,11.529311180114746
-1.8890933990478516,-62.87359619140625,11.36103630065918
0.6511085033416748,-64.17491912841797,11.591546058654785
3.5844836235046387,-71.16419219970703,12.869607925415039
8.805191040039062,-97.02066040039062,17.59539222717285
12.738773345947266,-96.91779327392578,17.65536117553711
35.08858108520508,-89.99088287353516,17.445545196533203
37.59773254394531,-86.04277038574219,16.959497451782227
38.482460021972656,-79.23062133789062,15.908875465393066
39.17056655883789,-73.0277099609375,14.96749496459961
39.89491653442383,-67.69996643066406,14.1928071975708
38.80238342285156,-60.180233001708984,12.932945251464844
34.199275970458984,-48.633697509765625,10.73835563659668
32.40039825439453,-42.35163116455078,9.63110637664795
34.245487213134766,-41.22051239013672,9.67914867401123
29.443984985351562,-32.676025390625,7.944328784942627
29.25166130065918,-29.95030975341797,7.561451435089111
30.77594566345215,-29.076791763305664,7.647112846374512
31.29031753540039,-27.268999099731445,7.496463298797607
30.826919555664062,-24.758359909057617,7.141198635101318
30.35768699645996,-22.436574935913086,6.818037033081055
29.827041625976562,-20.24373435974121,6.510815143585205
29.433788299560547,-18.294292449951172,6.259366512298584
28.241241455078125,-16.017438888549805,5.864079475402832
29.401111602783203,-15.147854804992676,5.973639965057373
51.09321594238281,-23.777341842651367,10.178537368774414
23.215898513793945,-9.68937873840332,4.543679714202881
50.38697052001953,-18.69015121459961,9.706549644470215
54.3532829284668,-17.712074279785156,10.325103759765625
54.26167297363281,-15.300247192382812,10.182622909545898
54.11907958984375,-12.937613487243652,10.050140380859375
53.92749786376953,-10.621658325195312,9.927231788635254
53.68856430053711,-8.350024223327637,9.81352710723877
53.403839111328125,-6.120434284210205,9.708663940429688
53.074703216552734,-3.9308247566223145,9.61232852935791
52.702293395996094,-1.7791393995285034,9.524236679077148
49.5686149597168,0.31904542446136475,8.95301628112793
51.519874572753906,2.4034557342529297,9.315378189086914
51.22087860107422,4.457120895385742,9.286218643188477
50.79848861694336,6.485327243804932,9.249438285827637
50.22233963012695,8.474380493164062,9.199134826660156
49.60698318481445,10.435709953308105,9.15587043762207
48.95264434814453,12.370748519897461,9.119529724121094
47.969093322753906,14.19493579864502,9.035318374633789
45.33210754394531,15.420578002929688,8.648406982421875
46.756290435791016,18.031410217285156,9.051090240478516
45.94599151611328,19.87425422668457,9.041595458984375
45.080989837646484,21.689668655395508,9.035689353942871
44.0761604309082,23.431467056274414,9.01582145690918
48.965335845947266,28.61064338684082,10.24290943145752
32.777801513671875,20.96240234375,7.027307510375977
30.180973052978516,21.056421279907227,6.646689414978027
27.83426284790039,21.130916595458984,6.3118696212768555
25.697790145874023,21.188825607299805,6.0157060623168945
23.739608764648438,21.23247718811035,5.7524847984313965
21.952714920043945,21.282129287719727,5.5223612785339355
20.276472091674805,21.302549362182617,5.311842441558838
18.713756561279297,21.31332778930664,5.122791767120361
17.454692840576172,21.56871223449707,5.0114569664001465
16.950380325317383,22.7575740814209,5.125210285186768
16.417259216308594,23.99709701538086,5.25147819519043
15.851787567138672,25.29427146911621,5.391528606414795
15.188953399658203,26.550512313842773,5.5246758460998535
14.561427116394043,28.007265090942383,5.70137882232666
13.829352378845215,29.43098258972168,5.873275279998779
12.378849983215332,29.353219985961914,5.7537922859191895
10.98073673248291,29.26974105834961,5.64633321762085
9.674263000488281,29.318010330200195,5.576109886169434
11.8740234375,41.52055358886719,7.799866199493408
10.060853958129883,41.40573501586914,7.6960954666137695
8.290082931518555,41.28176498413086,7.604963302612305
6.5561089515686035,41.1486930847168,7.525811195373535
6.988365173339844,59.0402717590332,10.737998962402344
4.703542709350586,60.462589263916016,10.953436851501465
2.318521022796631,61.87324142456055,11.183073997497559
-0.17325735092163086,63.53400802612305,11.475232124328613
-2.8453807830810547,66.27147674560547,11.980635643005371
-5.701816558837891,68.46350860595703,12.408324241638184
-8.835296630859375,71.30945587158203,12.978022575378418
-12.071000099182129,73.19050598144531,13.397876739501953
-15.318792343139648,74.18360137939453,13.681350708007812
-18.906808853149414,76.0020751953125,14.145483016967773
-22.5751953125,77.34162139892578,14.55196475982666
-26.42910385131836,78.64942932128906,14.985849380493164
-30.4783935546875,79.91361236572266,15.447712898254395
-34.05955123901367,79.54861450195312,15.629231452941895
-37.603004455566406,78.9039535522461,15.786837577819824
-41.24663543701172,78.2868881225586,15.982254028320312
-45.926002502441406,79.27299499511719,16.54713249206543
-19.146774291992188,30.184865951538086,6.456130504608154
-39.63520050048828,57.26203918457031,12.578227996826172
-32.55616760253906,43.21578598022461,9.772432327270508
-32.42422866821289,39.62253952026367,9.24719524383545
-33.59638595581055,37.84493637084961,9.140180587768555
-37.1966552734375,38.6545295715332,9.68905258178711
-39.18095779418945,37.571720123291016,9.804550170898438
-42.32695388793945,37.44328308105469,10.20685863494873
-45.06082534790039,36.74333572387695,10.501408576965332
-47.94469451904297,35.98764419555664,10.827564239501953
-50.99967956542969,35.169044494628906,11.18913459777832
-80.16706848144531,42.05857467651367,16.351072311401367
-76.88438415527344,25.68661880493164,14.640968322753906
