12.048713684082031,-78.07939910888672,7.574045181274414
15.636919021606445,-79.88964080810547,7.804323196411133
19.356760025024414,-81.39707946777344,8.02113151550293
23.49909210205078,-83.718017578125,8.336201667785645
4.264219284057617,-68.43186950683594,7.148827075958252
7.591714859008789,-73.86800384521484,7.742342472076416
10.839414596557617,-75.49885559082031,7.952526092529297
14.266012191772461,-77.18009948730469,8.183418273925781
17.81529426574707,-78.57521057128906,8.400500297546387
20.6495361328125,-76.65349578857422,8.277116775512695
25.848522186279297,-82.58807373046875,9.022869110107422
28.401844024658203,-79.40467834472656,8.792719841003418
31.610307693481445,-78.30276489257812,8.80430793762207
24.47987174987793,-54.25261688232422,6.205777168273926
24.87387466430664,-49.697784423828125,5.79447078704834
27.2694091796875,-49.4181022644043,5.884936332702637
56.52947998046875,-72.09638214111328,9.552240371704102
-72.08052825927734,48.45018005371094,9.05539608001709
-60.13119888305664,33.748531341552734,7.189472675323486
-62.37030029296875,31.780567169189453,7.298527717590332
-93.83055114746094,26.003509521484375,10.15188980102539
-43.35204315185547,10.158182144165039,4.642483711242676
-44.740264892578125,8.60372543334961,4.750272274017334
-46.47730255126953,7.014964580535889,4.900794982910156
-46.10795593261719,5.074740409851074,4.836432933807373
-45.24504089355469,3.1468377113342285,4.728830337524414
-41.83152389526367,1.2242069244384766,4.363387107849121
-41.3178825378418,-0.4513877034187317,4.30822229385376
-40.74168395996094,-2.0839781761169434,4.253440856933594
-42.562339782714844,-3.8962693214416504,4.45628023147583
-44.496826171875,-5.883910179138184,4.679803848266602
-67.97964477539062,-11.784786224365234,7.193552017211914
-66.99118041992188,-14.407090187072754,7.144454002380371
-66.5831069946289,-17.144432067871094,7.168661117553711
-40.26808547973633,-12.112878799438477,4.384347915649414
-62.9511833190918,-21.72969627380371,6.943572521209717
-60.947200775146484,-23.818782806396484,6.822644233703613
-59.239463806152344,-25.94060516357422,6.742771148681641
-57.29806137084961,-27.884920120239258,6.644028663635254
-55.3846435546875,-29.76273536682129,6.5556135177612305
-53.26163864135742,-31.442453384399414,6.448732376098633
-51.39894104003906,-33.19712448120117,6.379643440246582
-48.735389709472656,-34.32754135131836,6.215320587158203
-47.904640197753906,-36.707794189453125,6.2924933433532715
-46.06782913208008,-38.33330154418945,6.248617172241211
-44.234642028808594,-39.92182922363281,6.212641716003418
-45.51692199707031,-44.52452087402344,6.63878059387207
-43.92495346069336,-46.56441879272461,6.674238681793213
-42.2928466796875,-48.60612869262695,6.7177414894104
-26.06172752380371,-32.50157928466797,4.343650817871094
-23.929119110107422,-32.43002700805664,4.202123641967773
-21.924407958984375,-32.357608795166016,4.075233459472656
-22.391216278076172,-36.08800506591797,4.428102493286133
-21.444631576538086,-37.878963470458984,4.5384039878845215
-20.070072174072266,-39.02954864501953,4.575888156890869
-18.050323486328125,-38.8661003112793,4.468038558959961
-18.22854232788086,-43.77186965942383,4.943758487701416
-16.51171875,-44.620849609375,4.960662841796875
-15.546043395996094,-47.83296585083008,5.244046688079834
-13.89279556274414,-49.417686462402344,5.352229118347168
-14.098054885864258,-59.17745590209961,6.342755317687988
-11.78080940246582,-60.05966567993164,6.381391525268555
-9.3553466796875,-60.463157653808594,6.379150867462158
-7.4745683670043945,-65.67170715332031,6.8914031982421875
-4.9233808517456055,-67.18756103515625,7.02401876449585
-2.264406204223633,-68.66503143310547,7.163177013397217
0.48978757858276367,-67.87580871582031,7.077185153961182
3.3864097595214844,-71.39282989501953,7.452071189880371
6.10573673248291,-69.53791046142578,7.278201103210449
9.620528221130371,-74.89118957519531,7.872622489929199
12.978713035583496,-76.55304718017578,8.095623970031738
16.52912139892578,-78.26976776123047,8.340705871582031
20.202674865722656,-79.68303680419922,8.57093620300293
24.300519943237305,-81.88445281982422,8.905621528625488
27.207489013671875,-79.77839660644531,8.78843879699707
30.42691421508789,-78.71568298339844,8.799020767211914
33.643611907958984,-77.61253356933594,8.819767951965332
24.006593704223633,-49.797279357910156,5.763910293579102
26.37666130065918,-49.52315902709961,5.850196838378906
27.84615707397461,-47.571773529052734,5.74728536605835
-71.0818099975586,49.325462341308594,9.020877838134766
-61.537384033203125,32.51504135131836,7.256716728210449
-94.24048614501953,27.628917694091797,10.239462852478027
-92.95822143554688,23.24176597595215,9.990541458129883
-44.39642333984375,9.222562789916992,4.7277727127075195
-45.82477569580078,7.6134514808654785,4.843369483947754
-46.427330017089844,5.8082122802734375,4.878435134887695
-45.53981018066406,3.84698486328125,4.765078067779541
-41.47091293334961,1.8297686576843262,4.328127861022949
-41.50580596923828,0.1623348593711853,4.3275957107543945
-41.0010986328125,-1.4877893924713135,4.27774715423584
-41.88970947265625,-3.2088043689727783,4.380385875701904
-43.76231384277344,-5.127449989318848,4.5940470695495605
-48.178062438964844,-7.617600440979004,5.085634231567383
-67.332763671875,-13.438673973083496,7.158846378326416
-66.35547637939453,-16.040023803710938,7.117747783660889
-65.89644622802734,-18.76062774658203,7.143636703491211
-63.98060607910156,-21.02814483642578,7.021917343139648
-61.682315826416016,-23.05727195739746,6.8658857345581055
-59.964324951171875,-25.204612731933594,6.781964302062988
-58.01127243041992,-27.175188064575195,6.679248809814453
-56.08810043334961,-29.076824188232422,6.587087631225586
-54.19001388549805,-30.915782928466797,6.504891395568848
-52.084651947021484,-32.55537033081055,6.404108047485352
-49.23378372192383,-33.59706497192383,6.214625835418701
-48.603214263916016,-36.111488342285156,6.313192367553711
-46.745338439941406,-37.73770523071289,6.263879299163818
-44.91126251220703,-39.339412689208984,6.225017070770264
-46.09526824951172,-43.77107620239258,6.627682685852051
-44.5172233581543,-45.811241149902344,6.660220623016357
-42.900360107421875,-47.851837158203125,6.700728893280029
-26.885208129882812,-32.527801513671875,4.399980545043945
-24.700674057006836,-32.45653533935547,4.252579212188721
-22.650806427001953,-32.38445281982422,4.120487689971924
-20.784378051757812,-32.41477966308594,4.014784812927246
-21.799917221069336,-37.207950592041016,4.496270179748535
-20.840492248535156,-39.09062957763672,4.618793964385986
-18.785175323486328,-38.9261360168457,4.5064826011657715
-17.334238052368164,-39.94403839111328,4.539976119995117
-16.906408309936523,-43.684993743896484,4.883972644805908
-15.942044258117676,-46.6837043762207,5.1434149742126465
-14.191118240356445,-47.7483024597168,5.193654537200928
-15.151820182800293,-59.66020202636719,6.41788387298584
-12.806112289428711,-60.51915740966797,6.4496917724609375
-10.146800994873047,-59.70267868041992,6.314099311828613
-8.394706726074219,-65.1401596069336,6.847938060760498
-5.873651504516602,-66.5859375,6.969475746154785
-3.2585930824279785,-68.11662292480469,7.110221862792969
-0.530426025390625,-69.61058044433594,7.258082866668701
2.3069911003112793,-70.82429504394531,7.388344764709473
4.98378849029541,-68.39090728759766,7.149622440338135
8.425092697143555,-74.29011535644531,7.795436859130859
11.717574119567871,-75.93342590332031,8.010841369628906
15.194443702697754,-77.62905883789062,8.247498512268066
18.795886993408203,-79.03853607177734,8.47069263458252
22.794551849365234,-81.20807647705078,8.79430866241455
4.205206871032715,-67.48487854003906,7.618472576141357
7.394924163818359,-71.953369140625,8.149903297424316
10.551043510437012,-73.490234375,8.365269660949707
13.875749588012695,-75.06877136230469,8.601497650146484
17.313257217407227,-76.36092376708984,8.822181701660156
20.67804527282715,-76.75923156738281,8.957014083862305
23.700923919677734,-75.72635650634766,8.940446853637695
28.416156768798828,-79.44471740722656,9.506640434265137
31.653898239135742,-78.41072082519531,9.527505874633789
24.172733306884766,-53.571937561035156,6.622133255004883
24.710063934326172,-49.37050247192383,6.220558166503906
26.903751373291016,-48.7554817199707,6.274281978607178
56.516178131103516,-72.07946014404297,10.320207595825195
-68.5809555053711,50.21197509765625,9.57692813873291
-71.23472595214844,47.88163375854492,9.670884132385254
-59.42528533935547,33.35234451293945,7.678104877471924
-61.627159118652344,31.40188980102539,7.793171405792236
-94.47415161132812,30.317882537841797,11.17937183380127
-94.02103424072266,26.056318283081055,10.992905616760254
-42.755733489990234,10.018453598022461,4.9478960037231445
-44.274845123291016,8.514223098754883,5.079983234405518
-45.80828094482422,6.913987636566162,5.219812393188477
-45.81297302246094,5.042267799377441,5.19305419921875
-44.96271514892578,3.127204179763794,5.078324794769287
-41.92286682128906,1.2268812656402588,4.725593566894531
-41.40696716308594,-0.4523622393608093,4.6657209396362305
-40.90504837036133,-2.0923357009887695,4.614913463592529
-41.79240798950195,-3.825788974761963,4.728565692901611
-43.65230178833008,-5.772238731384277,4.961245059967041
-66.42577362060547,-11.515410423278809,7.596016883850098
-65.47392272949219,-14.08078384399414,7.545804500579834
-64.98188781738281,-16.73213005065918,7.560510158538818
-40.35145568847656,-12.137956619262695,4.7477593421936035
-61.4776611328125,-21.221057891845703,7.3279337882995605
-59.54485321044922,-23.270734786987305,7.203248023986816
-57.897743225097656,-25.353076934814453,7.121545314788818
-56.01888656616211,-27.26239585876465,7.019583702087402
-54.16429138183594,-29.10694122314453,6.928226470947266
-52.32984161376953,-30.892370223999023,6.846904754638672
-50.29143142700195,-32.48181915283203,6.745613098144531
-46.87127685546875,-33.014522552490234,6.459680080413818
-46.90834045410156,-35.94435501098633,6.658563613891602
-45.098941802978516,-37.527076721191406,6.610546112060547
-43.309539794921875,-39.0869255065918,6.573288440704346
-44.45799255371094,-43.48868942260742,7.007294654846191
-42.897727966308594,-45.475460052490234,7.043846130371094
-28.089275360107422,-32.282318115234375,4.821498870849609
-25.83771514892578,-32.22221374511719,4.653623104095459
-23.730091094970703,-32.160282135009766,4.503255367279053
-21.747512817382812,-32.09653091430664,4.3683695793151855
-20.078039169311523,-32.359859466552734,4.290884017944336
-21.303192138671875,-37.6291389465332,4.8720831871032715
-19.93798828125,-38.77269744873047,4.912396430969238
-17.934322357177734,-38.61632537841797,4.797353744506836
-18.101375579833984,-43.46649932861328,5.305201053619385
-16.569700241088867,-44.77754211425781,5.379571914672852
-15.440254211425781,-47.50749588012695,5.628420829772949
-13.94793701171875,-49.61382293701172,5.806842803955078
-14.12106704711914,-59.27405548095703,6.865484237670898
-11.78692626953125,-60.09079360961914,6.899627685546875
-9.23288345336914,-59.67169952392578,6.803391456604004
-7.301469802856445,-64.15089416503906,7.274736404418945
-4.802860260009766,-65.54273986816406,7.404695510864258
-2.2099907398223877,-67.01520538330078,7.554897785186768
0.491666316986084,-68.13508605957031,7.677182674407959
3.301496744155884,-69.6023941040039,7.851125717163086
6.119053363800049,-69.6894760131836,7.882336139678955
9.367090225219727,-72.91826629638672,8.283425331115723
12.627391815185547,-74.48072814941406,8.511717796325684
14.363177299499512,-68.0134506225586,7.832292556762695
19.626291275024414,-77.40975189208984,8.997956275939941
22.586000442504883,-76.10701751708984,8.944845199584961
27.231313705444336,-79.8482666015625,9.505541801452637
30.468826293945312,-78.82413482666016,9.521763801574707
24.40919303894043,-56.30961608886719,6.915018558502197
23.849315643310547,-49.47106170654297,6.187964916229248
26.20131492614746,-49.19391632080078,6.279987335205078
27.20937156677246,-46.4838981628418,6.068777084350586
-70.2508316040039,48.748836517333984,9.634456634521484
-58.624473571777344,34.05624771118164,7.639068603515625
-60.80830001831055,32.12980270385742,7.7490668296813965
-94.4571304321289,27.692424774169922,11.090718269348145
-91.8027114868164,22.952884674072266,10.662074089050293
-43.7117805480957,9.080320358276367,5.030274391174316
-45.172767639160156,7.505126953125,5.159519672393799
-46.12773132324219,5.7707319259643555,5.237862586975098
-45.253475189208984,3.822789192199707,5.11700439453125
-42.11735534667969,1.8582935333251953,4.750104904174805
-41.595699310302734,0.1626831293106079,4.68674373626709
-41.088871002197266,-1.4909729957580566,4.632648944854736
-41.14461898803711,-3.1517326831817627,4.649468421936035
-42.9466552734375,-5.0318803787231445,4.872028350830078
-47.83329391479492,-7.563088417053223,5.45646858215332
-65.8092269897461,-13.134599685668945,7.561163425445557
-64.9026870727539,-15.688833236694336,7.523376941680908
-64.3304672241211,-18.31478500366211,7.536312103271484
-62.47290802001953,-20.53261947631836,7.409422874450684
-60.2542724609375,-22.52345848083496,7.247847557067871
-58.598472595214844,-24.630512237548828,7.161997318267822
-56.709476470947266,-26.56536865234375,7.055959224700928
-54.846435546875,-28.433130264282227,6.960756301879883
-53.00501251220703,-30.239730834960938,6.875796318054199
-50.95816421508789,-31.851261138916016,6.770918846130371
-49.155967712402344,-33.5439567565918,6.705228805541992
-47.57105255126953,-35.34459686279297,6.677467346191406
-45.75983428955078,-36.94210433959961,6.626358509063721
-43.970184326171875,-38.515079498291016,6.58610725402832
-42.1067008972168,-39.983612060546875,6.542469501495361
-43.47827911376953,-44.74209213256836,7.029398441314697
-38.59364700317383,-43.04804992675781,6.514213562011719
-26.651142120361328,-32.2446174621582,4.713449954986572
-24.492794036865234,-32.18336486816406,4.556870937347412
-22.466032028198242,-32.12028121948242,4.416485786437988
-20.553936004638672,-32.055381774902344,4.290473937988281
-21.657472610473633,-36.964805603027344,4.827139854431152
-20.694557189941406,-38.81688690185547,4.956349849700928
-18.663423538208008,-38.673831939697266,4.838365077972412
-17.776426315307617,-40.96300506591797,5.031283855438232
-16.78620147705078,-43.37437438964844,5.240335464477539
-16.000093460083008,-46.85371398925781,5.578474521636963
-14.095487594604492,-47.426513671875,5.574702739715576
-12.986976623535156,-51.13608932495117,5.944561004638672
-12.888256072998047,-60.907371520996094,7.0145721435546875
-10.119810104370117,-59.54384994506836,6.805179595947266
-8.201505661010742,-63.64093017578125,7.22991418838501
-5.73611307144165,-65.02688598632812,7.355227947235107
-3.1778831481933594,-66.42984008789062,7.49340295791626
-0.49987101554870605,-65.60195922851562,7.391781330108643
2.249600410461426,-69.06294250488281,7.785648822784424
4.928167819976807,-67.62757110595703,7.640007972717285
8.20524787902832,-72.35167694091797,8.20433521270752
11.40362548828125,-73.89884948730469,8.42496109008789
14.775630950927734,-75.4892807006836,8.666996955871582
18.26190757751465,-76.79310607910156,8.893804550170898
21.469799041748047,-76.48845672607422,8.951252937316895
4.184550762176514,-67.15345001220703,8.147904396057129
7.207763671875,-70.13215637207031,8.537578582763672
10.277106285095215,-71.5822525024414,8.757328033447266
13.505609512329102,-73.06624603271484,8.998032569885254
16.837862014770508,-74.26419067382812,9.221476554870605
20.5157470703125,-76.15672302246094,9.551167488098145
23.733665466308594,-75.83096313476562,9.622215270996094
28.418834686279297,-79.45223999023438,10.218432426452637
31.67388916015625,-78.46022033691406,10.246354103088379
23.872634887695312,-52.90682601928711,7.028914451599121
24.548107147216797,-49.046905517578125,6.641857147216797
26.281232833862305,-47.62732696533203,6.587381362915039
27.02215576171875,-44.631919860839844,6.318236351013184
56.502872467041016,-72.06246948242188,11.089251518249512
-67.79169464111328,49.63412094116211,10.174554824829102
-70.40696716308594,47.32526397705078,10.273208618164062
-56.6127815246582,34.83588409423828,8.0496187210083
-58.73450469970703,32.964637756347656,8.15627384185791
-60.90015411376953,31.031452178955078,8.277070999145508
-92.86347961425781,33.97256851196289,11.974443435668945
-89.16732788085938,28.614856719970703,11.340339660644531
-87.87605285644531,24.353328704833984,11.042678833007812
-42.174522399902344,9.882268905639648,5.245565891265869
-43.66597366333008,8.397124290466309,5.384731769561768
-45.157047271728516,6.8156962394714355,5.530348300933838
-45.521183013916016,5.010158061981201,5.545796871185303
-44.6833610534668,3.1077725887298584,5.424122333526611
-42.01478576660156,1.2295693159103394,5.0900654792785645
-41.49660110473633,-0.45333969593048096,5.0254387855529785
-40.99263381958008,-2.096811294555664,4.970598220825195
-41.04848098754883,-3.757690906524658,4.991658687591553
-42.83772659301758,-5.66452693939209,5.232703685760498
-64.8985824584961,-11.250661849975586,7.976289749145508
-64.01348876953125,-13.766702651977539,7.929102897644043
-63.47428512573242,-16.343936920166016,7.93730354309082
-40.435333251953125,-12.163185119628906,5.113361358642578
-60.0689811706543,-20.73480987548828,7.695382118225098
-58.203147888183594,-22.746379852294922,7.567397117614746
-56.61311340332031,-24.790546417236328,7.484202861785889
-54.793357849121094,-26.665971755981445,7.379393577575684
-52.99442672729492,-28.478269577026367,7.285426616668701
-51.212547302246094,-30.232799530029297,7.20174503326416
-49.228694915771484,-31.795425415039062,7.09678840637207
-46.579158782958984,-32.80876922607422,6.89940881729126
-45.93379592895508,-35.19758987426758,7.00775146484375
-44.16824722290039,-36.75265121459961,6.9582061767578125
-42.42070388793945,-38.284751892089844,6.919795989990234
-43.445343017578125,-42.498130798339844,7.359703540802002
-38.921302795410156,-41.260093688964844,6.868773460388184
-27.840885162353516,-31.996845245361328,5.13618278503418
-25.617109298706055,-31.947105407714844,4.958874702453613
-23.53397560119629,-31.894502639770508,4.799968719482422
-21.573122024536133,-31.839160919189453,4.6573486328125
-19.740570068359375,-31.81595802307129,4.534205436706543
-21.163349151611328,-37.38213348388672,5.202004909515381
-19.807403564453125,-38.51874542236328,5.245116710662842
-17.902484893798828,-38.54776382446289,5.1469011306762695
-17.975740432739258,-43.1648063659668,5.662302017211914
-16.62820053100586,-44.93562698364258,5.802218437194824
-15.335733413696289,-47.18583297729492,6.008308410644531
-14.042753219604492,-49.95109558105469,6.283450126647949
-13.553033828735352,-56.88965606689453,7.082004070281982
-11.78056526184082,-60.058372497558594,7.411520004272461
-9.18356704711914,-59.3528938293457,7.273024082183838
-7.135907173156738,-62.696266174316406,7.641389846801758
-4.692049026489258,-64.03060913085938,7.774749755859375
-2.1560263633728027,-65.37895965576172,7.921546459197998
0.47984933853149414,-66.50086212158203,8.053305625915527
3.220554828643799,-67.89645385742188,8.231341361999512
6.111573219299316,-69.6044692993164,8.461365699768066
9.126197814941406,-71.04318237304688,8.673848152160645
12.293956756591797,-72.51406860351562,8.906591415405273
15.563974380493164,-73.6994857788086,9.121676445007324
19.076961517333984,-75.24308776855469,9.40005874633789
22.61720085144043,-76.21220397949219,9.626943588256836
25.639589309692383,-75.18098449707031,9.619119644165039
30.484373092651367,-78.86431884765625,10.238931655883789
21.55606460571289,-49.727725982666016,6.563348770141602
23.693822860717773,-49.14849090576172,6.60728645324707
26.027942657470703,-48.868404388427734,6.70488977432251
26.599945068359375,-45.44276428222656,6.376457214355469
-66.83364868164062,50.472572326660156,10.14203929901123
-69.43758392333984,48.18449401855469,10.23495864868164
-57.946414947509766,33.66234588623047,8.1152925491333
-60.09498977661133,31.75289535522461,8.230767250061035
-62.2741584777832,29.768295288085938,8.358560562133789
-92.0671615600586,31.059175491333008,11.766453742980957
-88.36665344238281,25.906856536865234,11.151398658752441
-41.639556884765625,10.410869598388672,5.197667121887207
-43.10781478881836,8.95485782623291,5.331695079803467
-44.53789520263672,7.399643898010254,5.46736478805542
-45.831417083740234,5.7336602210998535,5.593342304229736
-44.97018814086914,3.7988662719726562,5.46518611907959
-42.210174560546875,1.8623892068862915,5.116523742675781
-41.686153411865234,0.16303491592407227,5.048130989074707
-41.177188873291016,-1.4941761493682861,4.989739418029785
-40.35807800292969,-3.0914924144744873,4.901581764221191
-42.15940475463867,-4.939643859863281,5.140326499938965
-47.49278259277344,-7.50924825668335,5.8227105140686035
-64.30435943603516,-12.834250450134277,7.940697193145752
-63.449073791503906,-15.337455749511719,7.904818058013916
-62.83210754394531,-17.888219833374023,7.911164283752441
-61.03200912475586,-20.05904197692871,7.779767990112305
-58.888362884521484,-22.01287078857422,7.613189697265625
-57.291038513183594,-24.080968856811523,7.525774002075195
-55.462554931640625,-25.98124885559082,7.41679048538208
-53.65639114379883,-27.816192626953125,7.318891525268555
-51.86864471435547,-29.5914306640625,7.231478691101074
-49.87738037109375,-31.175716400146484,7.122851371765137
-48.12331008911133,-32.83926773071289,7.055193901062012
-44.83354949951172,-33.3106803894043,6.7637619972229
-44.81329345703125,-36.17795944213867,6.974503517150879
-43.06607437133789,-37.72314453125,6.933007717132568
-41.31712341308594,-39.23386001586914,6.89980411529541
-39.47174072265625,-40.61908721923828,6.858797073364258
-28.70174217224121,-32.01443862915039,5.206795692443848
-26.420696258544922,-31.965808868408203,5.022073745727539
-24.287988662719727,-31.91425323486328,4.856639385223389
-22.28391456604004,-31.85990333557129,4.70823335647583
-20.39202308654785,-31.802886962890625,4.574955940246582
-21.516611099243164,-36.72438430786133,5.15432596206665
-20.55002212524414,-38.54579162597656,5.289738655090332
-18.54300880432129,-38.42430877685547,5.166584491729736
-18.405189514160156,-42.411888122558594,5.598745346069336
-16.66676902770996,-43.06578826904297,5.592089653015137
-16.058670043945312,-47.02531051635742,6.017545700073242
-14.385934829711914,-48.403785705566406,6.114988327026367
-14.536272048950195,-57.236454010009766,7.151238918304443
-12.606233596801758,-59.5745849609375,7.374095439910889
-10.135804176330566,-59.63800048828125,7.325580596923828
-8.016641616821289,-62.20656967163086,7.595368385314941
-5.6046600341796875,-63.53645706176758,7.723993301391602
-3.1037168502807617,-64.87930297851562,7.865715980529785
-0.5006165504455566,-65.69804382324219,7.95610237121582
2.19443416595459,-67.36919403076172,8.162572860717773
4.886240005493164,-67.052001953125,8.141375541687012
7.996227264404297,-70.50849151611328,8.593143463134766
11.105489730834961,-71.96695709228516,8.818180084228516
14.378547668457031,-73.46060180664062,9.06471061706543
17.756500244140625,-74.66790771484375,9.294258117675781
21.49405288696289,-76.5748291015625,9.631413459777832
4.178182601928711,-67.05091094970703,8.70257568359375
7.029482841491699,-68.39749145507812,8.906829833984375
10.016548156738281,-69.7673110961914,9.130273818969727
13.15400505065918,-71.1640396118164,9.374700546264648
16.38701629638672,-72.27567291259766,9.600166320800781
19.949708938598633,-74.0555191040039,9.935096740722656
23.648889541625977,-75.5600814819336,10.256207466125488
26.792247772216797,-74.90469360351562,10.305118560791016
26.542741775512695,-65.7497329711914,9.185009002685547
22.282133102416992,-49.3819465637207,7.01795768737793
24.3879451751709,-48.72687911987305,7.0585036277771
25.68570899963379,-46.5481071472168,6.886910438537598
27.332799911499023,-45.14497756958008,6.836373329162598
56.829769134521484,-72.47938537597656,11.930900573730469
64.23003387451172,-75.4658203125,12.83720588684082
66.88687896728516,-72.47501373291016,12.775546073913574
-64.46749877929688,51.30218505859375,10.672636032104492
-67.01889038085938,49.06829833984375,10.759739875793457
-69.59663391113281,46.780582427978516,10.862874031066895
-55.96938705444336,34.43997573852539,8.51288890838623
-58.0582275390625,32.585086822509766,8.624393463134766
-60.188690185546875,30.668930053710938,8.750632286071777
-62.31866455078125,28.661684036254883,8.885588645935059
-88.30194091796875,32.30381393432617,12.179977416992188
-88.93707275390625,28.540966033935547,12.099542617797852
-87.16224670410156,24.155508041381836,11.716501235961914
-41.60779571533203,9.749469757080078,5.535825729370117
-43.0638427734375,8.281330108642578,5.680670738220215
-44.5228157043457,6.719967842102051,5.832777976989746
-45.232521057128906,4.978384494781494,5.89477014541626
-44.40691375732422,3.0885443687438965,5.766338348388672
-42.10729217529297,1.2322804927825928,5.456880569458008
-41.58680725097656,-0.4543258547782898,5.387444496154785
-41.08076858520508,-2.101325511932373,5.328527927398682
-40.251346588134766,-3.684725761413574,5.235934734344482
-42.05145263671875,-5.560555458068848,5.494732856750488
-50.71022415161133,-8.791007995605469,6.666936874389648
-62.583282470703125,-13.459125518798828,8.292337417602539
-62.07850646972656,-15.984542846679688,8.303899765014648
-40.51972198486328,-12.188570976257324,5.48122501373291
-58.720741271972656,-20.269418716430664,8.047065734863281
-56.91805648803711,-22.24415397644043,7.916179656982422
-55.38182830810547,-24.251375198364258,7.83180046081543
-53.61796569824219,-26.093955993652344,7.724478721618652
-51.871795654296875,-27.874990463256836,7.628203392028809
-50.139869689941406,-29.599559783935547,7.542416572570801
-48.20792770385742,-31.13614845275879,7.43409538269043
-46.502132415771484,-32.75450897216797,7.368163585662842
-43.69925308227539,-33.485355377197266,7.131597518920898
-43.27342987060547,-36.00807189941406,7.292466163635254
-41.565948486328125,-37.513328552246094,7.253018856048584
-39.86186981201172,-38.99278259277344,7.223376274108887
-38.14287567138672,-40.43489456176758,7.200632095336914
-27.59634780883789,-31.715808868408203,5.445967197418213
-25.399816513061523,-31.676115036010742,5.259562015533447
-23.3406925201416,-31.632553100585938,5.092402458190918
-21.40116310119629,-31.58537483215332,4.942303657531738
-20.137470245361328,-32.45562744140625,4.947800159454346
-21.025060653686523,-37.13785171508789,5.528265476226807
-20.03382110595703,-38.95903778076172,5.674883842468262
-18.39328384399414,-39.604549407958984,5.656630516052246
-17.851573944091797,-42.86667251586914,6.015186309814453
-16.687240600585938,-45.095149993896484,6.228720188140869
-15.232381820678711,-46.86785888671875,6.383829593658447
-14.09915542602539,-50.1517219543457,6.7484660148620605
-13.575319290161133,-56.983192443847656,7.588139533996582
-11.526554107666016,-58.763389587402344,7.757223606109619
-9.288430213928223,-60.030704498291016,7.868872165679932
-6.977387428283691,-61.303409576416016,7.992467403411865
-4.586028575897217,-62.58385467529297,8.128805160522461
-2.1064047813415527,-63.874481201171875,8.278755187988281
0.4707612991333008,-65.23866271972656,8.451192855834961
3.142669677734375,-66.25438690185547,8.592191696166992
5.961724281311035,-67.8978271484375,8.82927417755127
8.896956443786621,-69.25859832763672,9.045432090759277
11.977059364318848,-70.64495849609375,9.281883239746094
15.151601791381836,-71.7468490600586,9.499024391174316
18.55653190612793,-73.19039916992188,9.781010627746582
22.257301330566406,-74.99946594238281,10.134161949157715
25.67512321472168,-75.28515625,10.303926467895508
28.702665328979492,-74.25495910644531,10.312540054321289
21.45085906982422,-49.48502731323242,6.986606597900391
23.540021896362305,-48.82946014404297,7.02199649810791
25.479463577270508,-47.838645935058594,7.021148681640625
26.574674606323242,-45.39959716796875,6.814477920532227
52.902244567871094,-82.57867431640625,12.704026222229004
56.99467849731445,-74.95384979248047,12.197674751281738
65.91387176513672,-73.58158874511719,12.796810150146484
-66.07415771484375,49.89900207519531,10.725750923156738
-68.641357421875,47.631961822509766,10.822883605957031
-55.20733642578125,35.11069107055664,8.475288391113281
-57.282527923583984,33.27669143676758,8.581554412841797
-59.39680862426758,31.38400650024414,8.702241897583008
-61.55701446533203,29.425498962402344,8.838266372680664
-91.86935424804688,30.992467880249023,12.559638023376465
-88.26663208007812,25.877534866333008,11.915250778198242
-41.085052490234375,10.272226333618164,5.485952377319336
-42.519161224365234,8.832575798034668,5.625481605529785
-44.01524353027344,7.312795639038086,5.7798566818237305
-45.5383186340332,5.696993350982666,5.944985866546631
-44.68986892700195,3.7751827239990234,5.8097147941589355
-42.3036003112793,1.8665083646774292,5.4853081703186035
-41.77717208862305,0.16339224576950073,5.4118242263793945
-41.26606369018555,-1.497401237487793,5.349092960357666
-40.76802444458008,-3.122896671295166,5.296529769897461
-41.39899444580078,-4.85054874420166,5.399482250213623
-47.156410217285156,-7.4560627937316895,6.184493064880371
-62.87929153442383,-12.549820899963379,8.305986404418945
-62.09495544433594,-15.010127067565918,8.275396347045898
-61.365257263183594,-17.470603942871094,8.265073776245117
-59.65340805053711,-19.605947494506836,8.134099960327148
-57.580448150634766,-21.52396011352539,7.963018894195557
-56.038265228271484,-23.55438995361328,7.874345779418945
-54.26691818237305,-25.42115592956543,7.762781143188477
-52.514625549316406,-27.224287033081055,7.6624956130981445
-50.77785110473633,-28.96912384033203,7.572898864746094
-48.8394660949707,-30.526973724365234,7.460820198059082
-47.131195068359375,-32.162261962890625,7.391420364379883
-44.55657196044922,-33.10489273071289,7.190566539764404
-43.903324127197266,-35.44334030151367,7.309200286865234
-42.19668197631836,-36.96160888671875,7.266591548919678
-40.48694610595703,-38.44554138183594,7.232490539550781
-38.778568267822266,-39.9057731628418,7.208076000213623
-28.44622039794922,-31.729427337646484,5.520172595977783
-26.19375991821289,-31.691234588623047,5.326012134552002
-24.086170196533203,-31.64907455444336,5.152027130126953
-22.104373931884766,-31.60320472717285,4.9958600997924805
-20.251466751098633,-31.583669662475586,4.860140800476074
-21.377281188964844,-36.48658752441406,5.477932453155518
-20.40720558166504,-38.277931213378906,5.619159698486328
-18.423912048339844,-38.1775016784668,5.491243839263916
-18.283000946044922,-42.130340576171875,5.949270248413086
-17.002355575561523,-43.932899475097656,6.102356433868408
-16.0194149017334,-46.910316467285156,6.421281337738037
-14.482675552368164,-48.72927474975586,6.585249423980713
-14.498065948486328,-57.08600997924805,7.629641532897949
-11.93533992767334,-56.404022216796875,7.46832275390625
-10.122942924499512,-59.562278747558594,7.826292991638184
-7.839601993560791,-60.83272933959961,7.94539737701416
-5.478819847106934,-62.11003112792969,8.076929092407227
-3.032778024673462,-63.39661407470703,8.221739768981934
-0.49342799186706543,-64.75531005859375,8.388603210449219
2.1422481536865234,-65.76715087890625,8.523944854736328
4.911661624908447,-67.40110778808594,8.754240989685059
7.797181606292725,-68.75341796875,8.963361740112305
10.822000503540039,-70.12986755371094,9.192100524902344
14.001522064208984,-71.53435516357422,9.442344665527344
17.27740478515625,-72.65319061279297,9.673900604248047
13.046388626098633,-46.47919845581055,6.253574371337891
4.079379558563232,-65.46537780761719,9.051691055297852
6.859445571899414,-66.7430648803711,9.259000778198242
9.768335342407227,-68.0384521484375,9.485527038574219
12.819555282592773,-69.35459899902344,9.733001708984375
15.95876407623291,-70.38687133789062,9.959863662719727
19.4129581451416,-72.06303405761719,10.299159049987793
22.992610931396484,-73.46322631835938,10.622797966003418
26.790632247924805,-74.90011596679688,10.977456092834473
25.80530548095703,-63.923011779785156,9.513006210327148
22.136526107788086,-49.05925750732422,7.427431583404541
24.229496002197266,-48.41033172607422,7.470617294311523
25.189916610717773,-45.649635314941406,7.195064544677734
27.37173843383789,-45.209285736083984,7.293216705322266
57.552093505859375,-73.40065002441406,12.871630668640137
62.57097244262695,-73.51655578613281,13.322322845458984
65.16729736328125,-70.61172485351562,13.259986877441406
-63.74513626098633,50.72734069824219,11.242241859436035
-66.26187896728516,48.51405334472656,11.33295726776123
-53.363006591796875,35.868839263916016,8.873014450073242
-55.33909225463867,34.052127838134766,8.966721534729004
-57.395965576171875,32.2133903503418,9.082818984985352
-59.4921760559082,30.314029693603516,9.2142333984375
-61.634342193603516,28.34695053100586,9.361942291259766
-88.12088012695312,32.237579345703125,12.948823928833008
-87.029296875,27.92872428894043,12.613234519958496
-39.687049865722656,10.998570442199707,5.683203220367432
-41.054908752441406,9.619919776916504,5.818994045257568
-42.47684097290039,8.16844654083252,5.969169616699219
-43.984561920166016,6.638729572296143,6.138585567474365
-44.94688034057617,4.946950912475586,6.240087985992432
-42.17670440673828,2.9334239959716797,5.834409236907959
-42.200416564941406,1.2350012063980103,5.826112747192383
-41.67760467529297,-0.4553176760673523,5.751814842224121
-41.16947555541992,-2.1058640480041504,5.688779354095459
-40.67386245727539,-3.723412275314331,5.636425971984863
-41.291900634765625,-5.460114479064941,5.7478532791137695
-50.365516662597656,-8.731245040893555,7.054059028625488
-61.22060012817383,-13.16607666015625,8.641544342041016
-60.611778259277344,-15.60685920715332,8.637186050415039
-40.604652404785156,-12.214118957519531,5.851429462432861
-57.68029022216797,-19.910280227661133,8.420696258544922
-55.68586349487305,-21.762598037719727,8.250605583190918
-54.20048522949219,-23.734067916870117,8.165300369262695
-52.489593505859375,-25.544815063476562,8.05576229095459
-50.79346466064453,-27.29551887512207,7.957450866699219
-49.109046936035156,-28.991018295288086,7.869799613952637
-47.226585388183594,-30.502321243286133,7.758375644683838
-45.56372833251953,-32.09352111816406,7.690962314605713
-42.555057525634766,-32.60859298706055,7.398420810699463
-42.41233444213867,-35.29154968261719,7.614126205444336
-40.750946044921875,-36.77778625488281,7.57519006729126
-39.07618713378906,-38.22422409057617,7.543438911437988
-29.6802921295166,-31.463773727416992,5.968982696533203
-27.355573654174805,-31.439083099365234,5.751007556915283
-25.18571662902832,-31.409114837646484,5.5558180809021
-23.150150299072266,-31.374324798583984,5.380690574645996
-21.23155975341797,-31.335065841674805,5.223347187042236
-20.194541931152344,-32.5476188659668,5.285867214202881
-20.888267517089844,-36.89622497558594,5.850987434387207
-19.893896102905273,-38.68693923950195,6.0032734870910645
-18.452468872070312,-39.73198699951172,6.045441627502441
-17.728862762451172,-42.571998596191406,6.363974571228027
-16.747478485107422,-45.25792694091797,6.659451484680176
-15.13018798828125,-46.55345916748047,6.755129814147949
-14.156134605407715,-50.354408264160156,7.218245029449463
-13.424689292907715,-56.35094451904297,7.994009017944336
-11.016685485839844,-56.16399383544922,7.898274898529053
-9.089205741882324,-58.743080139160156,8.202960014343262
-6.825403213500977,-59.96828842163086,8.329002380371094
-4.48448371887207,-61.1981086730957,8.46792984008789
-2.0589282512664795,-62.43466567993164,8.620612144470215
0.4599313735961914,-63.73952865600586,8.79622745513916
3.0830612182617188,-64.99754333496094,8.979695320129395
5.8187384605407715,-66.26945495605469,9.180313110351562
8.67849063873291,-67.55791473388672,9.39954662322998
11.675469398498535,-68.86601257324219,9.639070510864258
14.759708404541016,-69.89112854003906,9.85764217376709
18.141767501831055,-71.55438232421875,10.186874389648438
21.646793365478516,-72.94221496582031,10.499871253967285
25.361305236816406,-74.3650131225586,10.842681884765625
28.742597579956055,-74.35831451416016,11.00130558013916
21.311302185058594,-49.1630973815918,7.394462585449219
23.387876510620117,-48.513877868652344,7.432237148284912
24.902929306030273,-46.756160736083984,7.310432434082031
26.61240577697754,-45.46405792236328,7.269817352294922
51.653995513916016,-80.63021087646484,13.214356422424316
55.69182205200195,-73.24044036865234,12.697223663330078
61.59490966796875,-74.58385467529297,13.348653793334961
64.21653747558594,-71.68679809570312,13.281489372253418
68.21470642089844,-70.25460052490234,13.513319969177246
-62.82079315185547,51.53227996826172,11.212834358215332
-65.33014678955078,49.337127685546875,11.29755687713623
-67.86151885986328,47.090824127197266,11.398711204528809
-54.588340759277344,34.71703338623047,8.927556991577148
-56.63232421875,32.89896774291992,9.03821849822998
-58.71322250366211,31.022808074951172,9.163867950439453
-60.83761978149414,29.08161163330078,9.305435180664062
-86.13493347167969,32.968021392822266,12.72746753692627
-59.880619049072266,20.20094108581543,8.721030235290527
-85.2375717163086,24.989484786987305,12.257805824279785
-40.54397201538086,10.136945724487305,5.767258644104004
-41.94514465332031,8.713335990905762,5.91196346282959
-43.404945373535156,7.211402893066406,6.071951389312744
-44.93613815307617,5.621654987335205,6.249485492706299
-44.41242980957031,3.7517473697662354,6.150709629058838
-42.39764404296875,1.8706635236740112,5.856533050537109
-41.868797302246094,0.16375118494033813,5.7779011726379395
-41.35551452636719,-1.5006506443023682,5.710781097412109
-40.85552978515625,-3.1295974254608154,5.654544830322266
-40.663970947265625,-4.7644267082214355,5.649982929229736
-46.8240852355957,-7.403520107269287,6.54195499420166
-61.51976776123047,-12.278484344482422,8.657115936279297
-60.698516845703125,-14.672565460205078,8.617582321166992
-29.35367202758789,-8.356958389282227,4.211751461029053
-58.33287811279297,-19.17194175720215,8.4735107421875
-56.326717376708984,-21.055309295654297,8.298355102539062
-54.8365592956543,-23.049274444580078,8.208709716796875
-53.11933135986328,-24.883577346801758,8.094865798950195
-51.41813659667969,-26.655853271484375,7.9924774169921875
-49.729759216308594,-28.37118148803711,7.9009504318237305
-47.84175109863281,-29.903352737426758,7.785698890686035
-46.177162170410156,-31.51122283935547,7.714742183685303
-43.02744674682617,-31.968772888183594,7.3972697257995605
-43.04441833496094,-34.74992752075195,7.634200572967529
-41.359928131103516,-36.228675842285156,7.587648391723633
-39.695343017578125,-37.6938362121582,7.554168224334717
-30.58249855041504,-31.471452713012695,6.055850505828857
-28.19466781616211,-31.448837280273438,5.828678131103516
-25.970211029052734,-31.42076301574707,5.625415325164795
-23.887248992919922,-31.38770294189453,5.443170070648193
-21.927316665649414,-31.350059509277344,5.279498100280762
-20.092208862304688,-31.335294723510742,5.136830806732178
-19.83637046813965,-33.8565673828125,5.415040969848633
-20.266067504882812,-38.01318359375,5.944728374481201
-18.76955223083496,-38.89373016357422,5.959611415863037
-18.149179458618164,-41.821956634521484,6.291412353515625
-17.064472198486328,-44.093406677246094,6.52463960647583
-16.181133270263672,-47.38391876220703,6.90970516204834
-14.539789199829102,-48.92141342163086,7.042973518371582
-14.196605682373047,-55.89910125732422,7.95891809463501
-11.954730033874512,-56.495643615722656,7.9689860343933105
-9.906963348388672,-58.29145812988281,8.15952205657959
-7.669851303100586,-59.515480041503906,8.281007766723633
-5.358269214630127,-60.74335479736328,8.415077209472656
-2.964867115020752,-61.9771728515625,8.562576293945312
-0.48216867446899414,-63.27804946899414,8.73257064819336
2.1020092964172363,-64.53158569335938,8.910027503967285
4.794856548309326,-65.79806518554688,9.104150772094727
7.607430458068848,-67.08009338378906,9.316339492797852
10.552069664001465,-68.38056945800781,9.548155784606934
13.643007278442383,-69.70269012451172,9.801435470581055
16.822521209716797,-70.74034881591797,10.034342765808105
12.97193431854248,-46.21393585205078,6.623954772949219
3.9849321842193604,-63.9497184753418,9.385420799255371
6.697103977203369,-65.16326141357422,9.595293998718262
9.531586647033691,-66.38954162597656,9.82435131072998
12.500960350036621,-67.63102722167969,10.074296951293945
15.551433563232422,-68.59029388427734,10.302000045776367
18.903188705444336,-70.17071533203125,10.644920349121094
22.370380401611328,-71.47513580322266,10.970378875732422
26.042089462280273,-72.80738830566406,11.326399803161621
25.106185913085938,-62.19120788574219,9.823965072631836
21.826148986816406,-48.37140655517578,7.773261547088623
23.953962326049805,-47.85981750488281,7.839478492736816
25.361961364746094,-45.96139907836914,7.689323425292969
27.410865783691406,-45.27392578125,7.752407073974609
51.1647834777832,-77.31671142578125,13.580456733703613
57.66365432739258,-73.54292297363281,13.689003944396973
60.991943359375,-71.6612548828125,13.784053802490234
63.53022003173828,-68.83792114257812,13.721168518066406
69.1461181640625,-69.13158416748047,14.32223129272461
-60.446353912353516,52.20248031616211,11.698904991149902
-63.03715896606445,50.16396713256836,11.800491333007812
-65.52008056640625,47.97095489501953,11.894643783569336
-52.76234436035156,35.4650993347168,9.312199592590332
-54.721466064453125,33.67206954956055,9.411443710327148
-56.74716567993164,31.84925079345703,9.531925201416016
-58.810054779052734,29.96645736694336,9.668256759643555
-60.916473388671875,28.01679229736328,9.821435928344727
-90.11711883544922,37.137115478515625,14.277130126953125
-57.963340759277344,21.204925537109375,9.040696144104004
-84.05690002441406,26.974863052368164,12.930986404418945
-39.17744827270508,10.857339859008789,5.954943656921387
-40.515296936035156,9.493481636047363,6.095361232757568
-41.90434265136719,8.058354377746582,6.250546455383301
-43.35165023803711,6.54318904876709,6.422001361846924
-44.66417694091797,4.915829658508301,6.581847190856934
-42.8366813659668,2.9793217182159424,6.289803981781006
-42.294166564941406,1.2377442121505737,6.197829246520996
-41.769004821777344,-0.45631784200668335,6.118622779846191
-41.25877380371094,-2.110429286956787,6.051420211791992
-40.76127243041992,-3.73140811920166,5.995609760284424
-40.55766296386719,-5.3630266189575195,5.992541313171387
-50.16001892089844,-8.69561767578125,7.456948280334473
-59.91857147216797,-12.886052131652832,8.977431297302246
-59.3416748046875,-15.279839515686035,8.975797653198242
-35.120758056640625,-10.564529418945312,5.372139930725098
-56.435951232910156,-19.480745315551758,8.745274543762207
-54.50328063964844,-21.300432205200195,8.571566581726074
-53.06591796875,-23.23725128173828,8.485593795776367
-51.40526580810547,-25.017112731933594,8.374114036560059
-49.75675582885742,-26.738405227661133,8.273993492126465
-48.11751937866211,-28.405683517456055,8.184697151184082
-46.282257080078125,-29.892404556274414,8.070422172546387
-44.66043472290039,-31.457263946533203,8.001680374145508
-42.30152130126953,-32.4143180847168,7.80622673034668
-41.599090576171875,-34.61483383178711,7.927000999450684
-39.95822525024414,-36.062355041503906,7.88422966003418
-38.31916809082031,-37.483707427978516,7.851822853088379
-29.413301467895508,-31.180753707885742,6.278755187988281
-27.118408203125,-31.166521072387695,6.051454544067383
-24.97471809387207,-31.145977020263672,5.8477911949157715
-22.962270736694336,-31.11969566345215,5.664950847625732
-21.064254760742188,-31.0881404876709,5.5005998611450195
-20.252071380615234,-32.640350341796875,5.6266398429870605
-19.676273345947266,-34.75539779663086,5.850149631500244
-19.755596160888672,-38.41799545288086,6.327846527099609
-18.51217269897461,-39.86054992675781,6.437666893005371
-17.576984405517578,-42.207298278808594,6.697136402130127
-16.80762481689453,-45.420494079589844,7.094029903411865
-15.468711853027344,-47.59501647949219,7.330606460571289
-14.213705062866211,-50.559226989746094,7.692927360534668
-13.149454116821289,-55.19560623168945,8.311232566833496
-11.034481048583984,-56.254764556884766,8.397132873535156
-8.57080078125,-55.39265823364258,8.210380554199219
-6.6795973777771,-58.68719482421875,8.651911735534668
-4.387129783630371,-59.869422912597656,8.793087005615234
-2.013446807861328,-61.05521774291992,8.94813346862793
0.4495842456817627,-62.304534912109375,9.126504898071289
3.012251377105713,-63.50440979003906,9.31248664855957
5.682157516479492,-64.7138900756836,9.515654563903809
8.470041275024414,-65.93515014648438,9.73744010925293
11.388063430786133,-67.17072296142578,9.979461669921875
14.38674259185791,-68.12505340576172,10.198936462402344
17.67041778564453,-69.69535827636719,10.531880378723145
21.06758689880371,-70.99048614501953,10.846818923950195
24.66118049621582,-72.31201934814453,11.191187858581543
28.47420310974121,-73.6639404296875,11.568228721618652
21.173234939575195,-48.8446044921875,7.797967910766602
23.237354278564453,-48.20163345336914,7.838134765625
24.391263961791992,-45.795494079589844,7.6001877784729
26.650333404541016,-45.52885055541992,7.727507591247559
51.928035736083984,-81.05796813964844,14.100722312927246
55.678565979003906,-73.2229995727539,13.474189758300781
62.467708587646484,-75.64071655273438,14.369629859924316
62.600807189941406,-69.88310241699219,13.74285888671875
65.09762573242188,-67.04432678222656,13.688211441040039
-59.52848434448242,52.97182083129883,11.67209243774414
-62.01918029785156,50.87470245361328,11.749924659729004
-64.60104370117188,48.786521911621094,11.857902526855469
-52.053001403808594,36.120872497558594,9.280574798583984
-53.981712341308594,34.331214904785156,9.37079906463623
-55.99526596069336,32.528873443603516,9.485649108886719
-58.043678283691406,30.669034957885742,9.61601448059082
-60.13325881958008,28.744903564453125,9.762845993041992
-85.9613265991211,32.90156936645508,13.482271194458008
-59.20535659790039,19.97313117980957,9.152497291564941
-38.695167541503906,11.344429016113281,5.906571865081787
-40.01576232910156,10.004883766174316,6.041871070861816
-41.38513946533203,8.597007751464844,6.191441059112549
-42.80998992919922,7.112553119659424,6.356694221496582
-44.307456970214844,5.543010234832764,6.540678977966309
-44.137786865234375,3.7285444736480713,6.488264083862305
-42.49231719970703,1.8748326301574707,6.230259895324707
-41.961036682128906,0.1641116738319397,6.1464362144470215
-41.44556427001953,-1.5039148330688477,6.07487678527832
-40.94361114501953,-3.1363439559936523,6.014928817749023
-39.919918060302734,-4.6772637367248535,5.887401580810547
-46.495635986328125,-7.351585865020752,6.895215034484863
-60.25232696533203,-12.025518417358398,8.999737739562988
-59.39731979370117,-14.358030319213867,8.95100212097168
-29.37194061279297,-8.362159729003906,4.473322868347168
-57.066741943359375,-18.75580406188965,8.798934936523438
-55.123714447021484,-20.605619430541992,8.620123863220215
-53.68272018432617,-22.564289093017578,8.52975082397461
-52.01679992675781,-24.367097854614258,8.413911819458008
-50.364139556884766,-26.109445571899414,8.309669494628906
-48.7218132019043,-27.796140670776367,8.216437339782715
-47.08698654174805,-29.43158721923828,8.133710861206055
