36.91969680786133,48.19873046875,-10.445550918579102
33.13155746459961,47.05491638183594,-9.901006698608398
42.2320442199707,78.62139129638672,-15.354378700256348
45.0396614074707,42.5015983581543,-10.125093460083008
37.00735092163086,48.31315612792969,-9.950311660766602
33.19667434692383,47.14741134643555,-9.427743911743164
42.31186294555664,78.7699966430664,-14.619343757629395
45.127105712890625,42.5841064453125,-9.615988731384277
37.09518051147461,48.42781066894531,-9.454070091247559
33.26187515258789,47.240020751953125,-8.95390796661377
42.3919792175293,78.9191665649414,-13.8836030960083
45.214664459228516,42.6667366027832,-9.106224060058594
37.183197021484375,48.54274368286133,-8.956756591796875
33.327171325683594,47.3327522277832,-8.4794340133667
42.472434997558594,79.06889343261719,-13.147045135498047
45.30235290527344,42.74948501586914,-8.595727920532227
37.27142333984375,48.657920837402344,-8.458292007446289
33.39257049560547,47.425621032714844,-8.004254341125488
42.553192138671875,79.21926879882812,-12.409543991088867
29.542884826660156,85.63453674316406,-12.500969886779785
48.546363830566406,32.90583419799805,-7.597175598144531
45.390174865722656,42.83235549926758,-8.084415435791016
37.359859466552734,48.77336120605469,-7.958606719970703
33.45806121826172,47.51864242553711,-7.528298377990723
42.63429260253906,79.37025451660156,-11.67099380493164
29.591033935546875,85.77410125732422,-11.753739356994629
59.4072380065918,53.27883529663086,-9.66344928741455
48.373619079589844,32.78873825073242,-7.076820373535156
45.478153228759766,42.915382385253906,-7.572228908538818
37.44853210449219,48.889137268066406,-7.457627773284912
33.5236701965332,47.611839294433594,-7.051504611968994
42.71574783325195,79.5218734741211,-10.93127727508545
29.639244079589844,85.913818359375,-11.005681991577148
59.53182601928711,53.39058303833008,-9.010027885437012
48.474853515625,32.85736083984375,-6.598270416259766
45.5662841796875,42.9985466003418,-7.059089660644531
37.537445068359375,49.00520324707031,-6.955276966094971
33.589412689208984,47.7051887512207,-6.5738043785095215
42.79754638671875,79.67415618896484,-10.19027328491211
29.687496185302734,86.05375671386719,-10.256702423095703
59.66218948364258,53.50749969482422,-8.355854034423828
48.576324462890625,32.92613983154297,-6.1186137199401855
47.458370208740234,38.06867218017578,-6.343435287475586
45.654605865478516,43.08189010620117,-6.544919013977051
37.626609802246094,49.12162780761719,-6.451488494873047
33.6552848815918,47.798744201660156,-6.095120429992676
42.87969970703125,79.8271255493164,-9.447860717773438
29.735824584960938,86.1938247680664,-9.506680488586426
87.46296691894531,46.64911651611328,-9.503151893615723
50.13352584838867,29.38477325439453,-5.571038246154785
59.79330825805664,53.62508773803711,-7.700005531311035
87.36294555664062,-11.20706844329834,-8.444091796875
48.678043365478516,32.995079040527344,-5.637781143188477
47.58237075805664,38.16814422607422,-5.847962856292725
45.74311447143555,43.16541290283203,-6.0296502113342285
37.71604537963867,49.23836135864258,-5.946171760559082
33.7213020324707,47.89250183105469,-5.615393161773682
42.962249755859375,79.98079681396484,-8.703932762145996
29.784236907958984,86.3341064453125,-8.755518913269043
68.97840118408203,-5.01442289352417,-6.0507612228393555
89.85785675048828,39.01372528076172,-8.570544242858887
88.05325317382812,42.5123176574707,-8.55453109741211
84.68287658691406,45.16633224487305,-8.396719932556152
50.03535842895508,29.327234268188477,-5.07405948638916
59.92524719238281,53.7434196472168,-7.042367458343506
87.84732055664062,-11.269197463989258,-7.748630523681641
69.04951477050781,-6.0505266189575195,-6.064205169677734
88.71642303466797,41.22093200683594,-8.558599472045898
86.92753601074219,44.71990203857422,-8.552556991577148
81.9262924194336,46.400413513183594,-8.237382888793945
48.7800178527832,33.064208984375,-5.155699729919434
47.706825256347656,38.26797103881836,-5.350688457489014
45.831817626953125,43.24911880493164,-5.513204097747803
37.805755615234375,49.35548782348633,-5.439260482788086
33.787471771240234,47.98648452758789,-5.134546756744385
43.04520034790039,80.13519287109375,-7.958364486694336
29.832725524902344,86.47465515136719,-8.00311279296875
69.01583099365234,-5.0171356201171875,-5.474940299987793
88.65044403076172,38.489501953125,-7.646573066711426
86.87224578857422,41.942134857177734,-7.63247013092041
82.75446319580078,44.13780212402344,-7.420603275299072
50.12551498413086,29.380075454711914,-4.596963405609131
60.058082580566406,53.86254119873047,-6.382843971252441
73.69093322753906,30.703367233276367,-6.316244602203369
87.52597045898438,40.66780090332031,-7.636055946350098
84.75778198242188,43.60367202758789,-7.541396617889404
82.07337188720703,46.48371124267578,-7.4628005027771
81.45182037353516,50.55751419067383,-7.5849714279174805
48.88228225708008,33.133514404296875,-4.672298908233643
47.83173751831055,38.36817932128906,-4.851534843444824
45.920738220214844,43.33302307128906,-4.995506763458252
37.89577102661133,49.472999572753906,-4.930675506591797
33.85380554199219,48.0806884765625,-4.652509689331055
43.12853240966797,80.29035186767578,-7.211030006408691
29.881290435791016,86.6154556274414,-7.2493486404418945
88.21295166015625,-9.988370895385742,-6.282018184661865
69.05323791503906,-5.019853115081787,-4.899249076843262
87.47657775878906,37.97984313964844,-6.748274803161621
85.72401428222656,41.387752532958984,-6.735991954803467
82.90225982666016,44.21661376953125,-6.648581027984619
50.21587371826172,29.43303871154785,-4.118775367736816
71.82366943359375,50.25471878051758,-6.202958583831787
60.191864013671875,53.9825325012207,-5.721305847167969
73.54645538330078,30.643171310424805,-5.637956142425537
86.36856079101562,40.13002395629883,-6.739113807678223
83.29736328125,42.85235595703125,-6.628546237945557
82.22077941894531,46.56719970703125,-6.686455726623535
81.62250518798828,50.66347122192383,-6.797947883605957
48.98482894897461,33.203025817871094,-4.187510013580322
47.9571647644043,38.46878433227539,-4.350418567657471
46.009891510009766,43.417144775390625,-4.47648286819458
37.98610305786133,49.5909309387207,-4.42033576965332
33.92030715942383,48.17515563964844,-4.169219493865967
43.2122802734375,80.44628143310547,-6.461816787719727
29.929941177368164,86.75657653808594,-6.494124889373779
88.25987243652344,-9.993675231933594,-5.5438551902771
69.09063720703125,-5.022574424743652,-4.323611259460449
86.33470916748047,37.484073638916016,-5.874464988708496
84.11541748046875,40.611122131347656,-5.829842567443848
83.56338500976562,44.569244384765625,-5.910995960235596
50.30644989013672,29.486133575439453,-3.6394259929656982
73.75186920166016,47.308013916015625,-5.468756675720215
66.9334716796875,46.83306121826172,-5.098667621612549
72.45845031738281,55.163719177246094,-5.683877944946289
60.32668685913086,54.103450775146484,-5.057652473449707
2.416689395904541,66.9258041381836,-4.179828643798828
-0.2883286476135254,70.54208374023438,-4.402847766876221
73.60379791259766,30.667062759399414,-4.97670841217041
85.24267578125,39.60689926147461,-5.866595268249512
83.961181640625,43.1938591003418,-5.8931498527526855
82.87732696533203,46.939048767089844,-5.944727420806885
81.7707290649414,50.75548553466797,-6.006866931915283
49.087684631347656,33.27275466918945,-3.7012524604797363
70.26961517333984,51.868896484375,-5.451213836669922
48.08308792114258,38.569793701171875,-3.8472633361816406
46.099281311035156,43.50150680541992,-3.956047534942627
38.07675552368164,49.70928192138672,-3.90815806388855
33.986995697021484,48.269866943359375,-3.684591054916382
43.29648971557617,80.60301208496094,-5.710607528686523
29.978717803955078,86.89788818359375,-5.737326622009277
3.3084218502044678,64.90384674072266,-4.056169033050537
0.7593622207641602,70.64888763427734,-4.409731864929199
88.3067855834961,-9.998987197875977,-4.805680274963379
69.1280517578125,-5.025296211242676,-3.7479476928710938
88.70088195800781,42.82500457763672,-5.326246738433838
83.71282958984375,44.648948669433594,-5.130364418029785
50.39726257324219,29.53936004638672,-3.1588430404663086
71.04901885986328,45.574275970458984,-4.564422607421875
64.01769256591797,44.79287338256836,-4.224983215332031
67.35169219970703,51.27585983276367,-4.577373504638672
60.462669372558594,54.22538757324219,-4.39176082611084
44.84557342529297,78.63859558105469,-4.895237445831299
41.39635467529297,79.8864517211914,-4.865383148193359
38.505958557128906,82.23689270019531,-4.910292625427246
35.9603271484375,85.5953140258789,-5.020452976226807
15.028844833374023,75.36940002441406,-4.155808925628662
4.599266529083252,60.18029022216797,-3.263718605041504
2.3876919746398926,66.12235260009766,-3.577874183654785
-0.2860832214355469,69.99150085449219,-3.784795045852661
-3.088113307952881,69.71208953857422,-3.7733511924743652
73.67588806152344,30.697099685668945,-4.315974712371826
84.11088562011719,43.27088165283203,-5.114851951599121
83.02639770507812,47.023475646972656,-5.159695625305176
73.8261947631836,45.824256896972656,-4.698639869689941
49.190879821777344,33.34269332885742,-3.213459014892578
65.50609588623047,48.35274124145508,-4.402700424194336
48.20954895019531,38.67123031616211,-3.3419852256774902
46.18893051147461,43.58609390258789,-3.4341323375701904
38.16774368286133,49.82807159423828,-3.394070625305176
34.053890228271484,48.36484909057617,-3.1985647678375244
46.6881103515625,79.11844635009766,-4.967682361602783
42.64741897583008,79.39470672607422,-4.87343692779541
39.42008590698242,81.03649139404297,-4.87299919128418
36.924686431884766,84.36357116699219,-4.979778289794922
16.219636917114258,75.48394012451172,-4.174939155578613
5.322834014892578,58.25900650024414,-3.1634600162506104
3.2510268688201904,63.777587890625,-3.4532341957092285
0.7534360885620117,70.09661102294922,-3.7906665802001953
-2.055474281311035,69.81439971923828,-3.776824951171875
88.35371398925781,-10.004295349121094,-4.067381381988525
69.16546630859375,-5.028017997741699,-3.1721792221069336
89.27242279052734,43.10094451904297,-4.534607887268066
83.86267852783203,44.7288703918457,-4.347648620605469
50.48832321166992,29.592729568481445,-2.6769561767578125
68.53945922851562,43.964508056640625,-3.7247509956359863
61.17998504638672,42.80733871459961,-3.41557240486145
62.468685150146484,47.55832290649414,-3.5913665294647217
60.59986877441406,54.348445892333984,-3.7235071659088135
71.48625183105469,69.49137115478516,-4.560388088226318
63.256595611572266,72.24156188964844,-4.392324447631836
61.98029708862305,76.80205535888672,-4.514470100402832
53.515193939208984,78.45186614990234,-4.344031810760498
47.6483039855957,76.26138305664062,-4.113356590270996
43.41161346435547,76.12410736083984,-4.008571147918701
39.53248596191406,76.28953552246094,-3.93039870262146
37.2176399230957,79.4854965209961,-4.014744281768799
34.53649139404297,82.20620727539062,-4.0787353515625
31.852170944213867,85.25590515136719,-4.163150310516357
14.89893627166748,74.71782684326172,-3.4850945472717285
11.757416725158691,74.4453125,-3.4475457668304443
6.705672740936279,57.31939697265625,-2.639833450317383
4.525134086608887,59.21009826660156,-2.7163383960723877
2.307675361633301,63.90601348876953,-2.925149917602539
-0.283862829208374,69.44993591308594,-3.17686128616333
-3.069566488265991,69.29402923583984,-3.17281436920166
73.75878143310547,30.73163604736328,-3.6550769805908203
84.26097869873047,43.34809875488281,-4.334475517272949
83.17585754394531,47.108123779296875,-4.372550010681152
71.1446533203125,44.15980529785156,-3.8303072452545166
49.294410705566406,33.41286849975586,-2.7240495681762695
60.90979766845703,44.959999084472656,-3.4630115032196045
48.3365478515625,38.77310562133789,-2.8345000743865967
46.27884292602539,43.67094039916992,-2.910655975341797
65.91439819335938,73.06109619140625,-4.501112461090088
58.998878479003906,70.92843627929688,-4.220188617706299
38.25908279418945,49.94729995727539,-2.877981662750244
34.12097930908203,48.46012878417969,-2.711063861846924
50.675567626953125,78.49079132080078,-4.273682594299316
44.79607009887695,75.91212463378906,-4.031959533691406
41.26070785522461,76.81314086914062,-3.9884939193725586
38.20827102661133,78.54532623291016,-3.995450019836426
35.52912902832031,81.17501831054688,-4.053280830383301
32.81473922729492,84.0091781616211,-4.125583648681641
30.884422302246094,89.52318572998047,-4.331886291503906
16.082855224609375,74.84728240966797,-3.5018749237060547
12.910524368286133,74.55146789550781,-3.4609532356262207
5.241386413574219,57.36745834350586,-2.6350820064544678
3.1980624198913574,62.738800048828125,-2.8735780715942383
0.7418363094329834,69.01734924316406,-3.1572296619415283
-2.039602518081665,69.27532958984375,-3.1702194213867188
88.40064239501953,-10.00961685180664,-3.328856945037842
69.24311065673828,-5.033663272857666,-2.5977330207824707
89.85093688964844,43.38024139404297,-3.733318328857422
65.35955810546875,34.860050201416016,-2.7716903686523438
50.57963943481445,29.646259307861328,-2.1936936378479004
62.06629943847656,39.81230163574219,-2.7590723037719727
59.9398307800293,41.93960189819336,-2.737281322479248
58.61568069458008,44.62497329711914,-2.7565174102783203
74.08964538574219,61.25920104980469,-3.5971243381500244
60.73845672607422,54.47272872924805,-3.0527729988098145
70.96499633789062,68.98468780517578,-3.703171730041504
68.10578918457031,71.74727630615234,-3.701503276824951
63.37364959716797,72.3752212524414,-3.599543571472168
56.75575256347656,70.32814025878906,-3.381516933441162
54.98957061767578,74.03885650634766,-3.450859308242798
51.03413772583008,74.814697265625,-3.388652801513672
45.62736511230469,73.0268783569336,-3.2219929695129395
42.308738708496094,74.19014739990234,-3.1956801414489746
39.07905960083008,75.41455078125,-3.178178548812866
36.177635192871094,77.26433563232422,-3.19226336479187
33.43141555786133,79.57585906982422,-3.229628086090088
30.77450180053711,82.37137603759766,-3.290220260620117
28.58130645751953,87.01358795166016,-3.4269649982452393
14.47122859954834,72.57288360595703,-2.7689437866210938
11.660676956176758,73.83269500732422,-2.7968664169311523
6.7127299308776855,57.37975311279297,-2.1616415977478027
4.457321643829346,58.322784423828125,-2.1886489391326904
2.291944742202759,63.47028732299805,-2.3764400482177734
-0.2581944465637207,63.17518615722656,-2.36386775970459
-3.044889450073242,68.73701477050781,-2.574479579925537
73.85025787353516,30.769752502441406,-2.993542432785034
84.4114990234375,43.42552947998047,-3.5519022941589355
64.31488800048828,36.42586135864258,-2.7656569480895996
62.67066192626953,38.89994812011719,-2.7599735260009766
49.39828872680664,33.48329544067383,-2.2329514026641846
57.27920913696289,42.28012466430664,-2.663872718811035
61.138065338134766,49.04180908203125,-2.9326632022857666
73.43624114990234,63.92057418823242,-3.642899751663208
46.36903762817383,43.756065368652344,-2.3855350017547607
69.15884399414062,70.72518157958984,-3.7013041973114014
66.03936767578125,73.19961547851562,-3.68886399269104
59.10374450683594,71.05451202392578,-3.4582228660583496
56.713043212890625,74.03899383544922,-3.489697217941284
34.188270568847656,48.55571365356445,-2.2220053672790527
47.54590606689453,73.64329528808594,-3.279953956604004
43.50251770019531,73.72007751464844,-3.2028865814208984
40.23381042480469,74.90142059326172,-3.181366443634033
37.143836975097656,76.357177734375,-3.1772027015686035
34.4418830871582,78.69093322753906,-3.2141005992889404
31.75139617919922,81.28697967529297,-3.265348434448242
28.910539627075195,83.80162048339844,-3.317002296447754
15.186395645141602,70.67536926269531,-2.704843282699585
12.803882598876953,73.93562316894531,-2.807652235031128
7.589107036590576,57.47003173828125,-2.1690425872802734
5.162417411804199,56.50325393676758,-2.123006820678711
3.0060291290283203,58.971435546875,-2.209418773651123
0.6802289485931396,63.283416748046875,-2.368037462234497
-2.0239973068237305,68.74491119384766,-2.5733625888824463
88.63713073730469,-10.036388397216797,-2.5955593585968018
69.62380981445312,-5.061334609985352,-2.0311965942382812
97.20243072509766,0.757763147354126,-2.8283865451812744
86.30657196044922,37.47187042236328,-2.7377452850341797
85.2474365234375,41.157676696777344,-2.754408597946167
64.56896209716797,34.43838119506836,-2.129288673400879
50.67123794555664,29.699935913085938,-1.7089805603027344
61.31892013549805,39.332889556884766,-2.1197104454040527
58.091487884521484,40.64633560180664,-2.0629689693450928
55.47405242919922,42.23321533203125,-2.028676986694336
58.770652770996094,48.593048095703125,-2.218881845474243
60.878543853759766,54.598384857177734,-2.379413366317749
68.22555541992188,66.32170104980469,-2.7685511112213135
65.47789001464844,68.9788589477539,-2.7673609256744385
62.74178695678711,71.65362548828125,-2.7712273597717285
56.85447692871094,70.45050048828125,-2.6341590881347656
53.034034729003906,71.40587615966797,-2.588078022003174
49.26898193359375,72.22702026367188,-2.5439932346343994
44.835994720458984,71.76029205322266,-2.4620795249938965
41.46194076538086,72.70529174804688,-2.4353389739990234
38.316864013671875,73.94367218017578,-2.4232585430145264
35.29227066040039,75.37342834472656,-2.4216675758361816
32.62415313720703,77.65432739257812,-2.4508299827575684
29.508716583251953,78.98342895507812,-2.453314781188965
28.149845123291016,85.7000732421875,-2.6246886253356934
25.903718948364258,91.047119140625,-2.7543277740478516
17.820419311523438,73.77752685546875,-2.2084403038024902
14.319122314453125,71.81013488769531,-2.130594253540039
11.56553840637207,73.23045349121094,-2.1571969985961914
6.719842910766602,57.44056701660156,-1.6827478408813477
4.389211177825928,57.43164825439453,-1.6759648323059082
2.1113975048065186,58.47041320800781,-1.702424168586731
-0.2564578056335449,62.74986267089844,-1.825850248336792
-3.026607036590576,68.32411193847656,-1.9899758100509644
73.94895935058594,30.810876846313477,-2.3309881687164307
85.64010620117188,39.791561126708984,-2.7477200031280518
84.56246948242188,43.503196716308594,-2.76702880859375
63.538612365722656,35.98619842529297,-2.12471342086792
61.91575622558594,38.43136215209961,-2.1203980445861816
49.5025520324707,33.553958892822266,-1.740081787109375
55.938716888427734,41.29063415527344,-2.023041248321533
57.375423431396484,46.02360153198242,-2.1401901245117188
72.02620697021484,62.6932487487793,-2.778465509414673
46.459529876708984,43.84146499633789,-1.858695149421692
66.49040222167969,67.99633026123047,-2.7672064304351807
63.75123596191406,70.66338348388672,-2.769197702407837
58.673248291015625,70.53697967529297,-2.669649124145508
54.57286071777344,71.24498748779297,-2.611297607421875
34.255794525146484,48.651615142822266,-1.73131263256073
46.24998474121094,71.63606262207031,-2.481074094772339
42.63008117675781,72.24165344238281,-2.440732002258301
39.462120056152344,73.4648208618164,-2.4264891147613525
36.36304473876953,74.75208282470703,-2.4187698364257812
33.583187103271484,76.72904205322266,-2.437089204788208
30.989850997924805,79.33727264404297,-2.478346824645996
28.387493133544922,82.28556060791016,-2.5327584743499756
26.837562561035156,89.2755355834961,-2.7124900817871094
15.061968803405762,70.09629821777344,-2.086143970489502
12.699034690856934,73.33023071289062,-2.165449380874634
7.622374057769775,57.72198486328125,-1.6941184997558594
5.204894542694092,56.96808624267578,-1.664505958557129
2.9856362342834473,58.57137680053711,-1.7064685821533203
0.6266615390777588,58.29966354370117,-1.696447491645813
-2.0086312294006348,68.22289276123047,-1.9859380722045898
-6.9180426597595215,99.21497344970703,-2.8938732147216797
89.17311096191406,-10.097078323364258,-1.8649251461029053
90.7684097290039,0.7076098322868347,-1.8862881660461426
96.19812774658203,4.618878364562988,-2.0013716220855713
86.45948028564453,37.538246154785156,-1.958725929260254
85.33306884765625,41.19900894165039,-1.9691457748413086
63.797637939453125,34.02698516845703,-1.5025432109832764
50.76311492919922,29.753793716430664,-1.2227457761764526
60.58967208862305,38.86511993408203,-1.495866060256958
56.83625411987305,39.7680549621582,-1.4415111541748047
55.58184814453125,42.315269470214844,-1.4516702890396118
55.24722671508789,45.679786682128906,-1.489691138267517
61.02040100097656,54.72560501098633,-1.7033051252365112
65.69094848632812,63.857818603515625,-1.9038110971450806
63.04634475708008,66.41730499267578,-1.9030122756958008
59.099510192871094,67.49401092529297,-1.8642851114273071
54.999229431152344,68.1515884399414,-1.8198957443237305
51.62704086303711,69.51146697998047,-1.7993364334106445
47.929569244384766,70.26347351074219,-1.7674990892410278
44.09651184082031,70.57674407958984,-1.7293826341629028
40.7645263671875,71.48234558105469,-1.710033655166626
37.60020446777344,72.56063842773438,-1.6982983350753784
34.6414794921875,73.98355102539062,-1.6976370811462402
31.978015899658203,76.11632537841797,-1.7156904935836792
29.124862670898438,77.95596313476562,-1.72932767868042
27.539106369018555,83.84068298339844,-1.8338526487350464
25.934730529785156,91.15612030029297,-1.969459891319275
17.102619171142578,70.80577087402344,-1.5137109756469727
14.170258522033691,71.06358337402344,-1.5058238506317139
9.203542709350586,58.27470779418945,-1.2259981632232666
6.726970195770264,57.50148010253906,-1.203070878982544
4.322404861450195,56.557525634765625,-1.1787302494049072
2.0972018241882324,58.077537536621094,-1.207679271697998
-0.2547471523284912,62.330421447753906,-1.2952817678451538
-3.1439127922058105,70.97210693359375,-1.4762954711914062
-6.0813422203063965,71.83934783935547,-1.4982109069824219
94.05508422851562,3.118255615234375,-1.9556035995483398
97.39784240722656,7.154342174530029,-2.029451370239258
74.05401611328125,30.854644775390625,-1.667130470275879
85.72575378417969,39.831356048583984,-1.9643499851226807
84.65721130371094,43.55194091796875,-1.9783854484558105
62.78120040893555,35.55722427368164,-1.4993512630462646
61.17917251586914,37.97417068481445,-1.4963462352752686
49.60720443725586,33.6248893737793,-1.245373249053955
56.0471076965332,41.37065124511719,-1.4476290941238403
54.780418395996094,43.9420280456543,-1.4593619108200073
69.3411865234375,60.35612487792969,-1.910368800163269
46.55033493041992,43.92715072631836,-1.3300496339797974
64.02140808105469,65.47142028808594,-1.9029200077056885
61.382301330566406,68.0376205444336,-1.9042391777038574
56.51750183105469,67.94535827636719,-1.8365775346755981
50.61735534667969,66.08106231689453,-1.7297770977020264
34.32355499267578,48.74784469604492,-1.2389311790466309
45.378292083740234,70.2859115600586,-1.7385575771331787
41.955604553222656,71.09864044189453,-1.7155532836914062
38.750553131103516,72.14010620117188,-1.7017143964767456
35.70018005371094,73.38943481445312,-1.695965051651001
32.956138610839844,75.29644012451172,-1.7080368995666504
29.994422912597656,76.78890228271484,-1.7131221294403076
28.036090850830078,81.26692962646484,-1.7864500284194946
26.641942977905273,88.62480926513672,-1.923105239868164
24.804540634155273,96.40254211425781,-2.0685689449310303
15.230741500854492,70.88175964355469,-1.506595253944397
12.595954895019531,72.73497009277344,-1.5339802503585815
7.617470741271973,57.68487548828125,-1.2091394662857056
5.210352897644043,57.02783966064453,-1.1900129318237305
2.9655275344848633,58.17688751220703,-1.2105278968811035
0.6224470138549805,57.90929412841797,-1.2034660577774048
-1.9934954643249512,67.708984375,-1.407646894454956
-5.0156569480896,71.93193054199219,-1.4984252452850342
98.02643585205078,-3.1758041381835938,-1.2227635383605957
90.8872299194336,0.7085312008857727,-1.1331486701965332
91.15125274658203,4.376555442810059,-1.1377182006835938
90.83456420898438,31.036985397338867,-1.196737289428711
91.13501739501953,35.28834533691406,-1.2184207439422607
83.8364028930664,36.399383544921875,-1.1394851207733154
82.37564849853516,39.77116775512695,-1.140427827835083
63.044776916503906,33.62544250488281,-0.8908053636550903
50.85529708862305,29.807819366455078,-0.734912633895874
59.823875427246094,38.3739013671875,-0.8860949277877808
56.94610595703125,39.84491729736328,-0.8664954900741577
55.69001770019531,42.39762878417969,-0.8726117610931396
54.41374969482422,44.99065017700195,-0.8802480697631836
61.16423416137695,54.85459899902344,-1.0242960453033447
63.33868408203125,61.571189880371094,-1.1012818813323975
60.789695739746094,64.04000854492188,-1.1008391380310059
57.18768310546875,65.31062316894531,-1.0822923183441162
53.46160125732422,66.24626922607422,-1.0613198280334473
50.198429107666016,67.58794403076172,-1.0496253967285156
46.9645881652832,68.84883117675781,-1.0390503406524658
43.3910026550293,69.44755554199219,-1.020939588546753
40.15953063964844,70.42140197753906,-1.0107014179229736
36.98664093017578,71.3765640258789,-1.0022624731063843
34.046714782714844,72.71331024169922,-1.0010043382644653
31.46611213684082,74.8979263305664,-1.012845516204834
28.816465377807617,77.13053131103516,-1.026509165763855
26.93387222290039,81.99813842773438,-1.0760174989700317
26.314613342285156,92.4913330078125,-1.1988762617111206
17.530048370361328,72.57534790039062,-0.9308388233184814
14.02451229095459,70.33263397216797,-0.8941171765327454
9.213497161865234,58.337738037109375,-0.736327588558197
6.734102725982666,57.5625,-0.7225427031517029
4.342042922973633,56.81443405151367,-0.7103872895240784
2.0832014083862305,57.690032958984375,-0.7197074890136719
-0.25306057929992676,61.91670608520508,-0.7719392776489258
-3.1674938201904297,71.50447082519531,-0.8923377990722656
-6.035268783569336,71.29486083984375,-0.8920329809188843
-8.900890350341797,71.04705810546875,-0.8926961421966553
91.05355072021484,3.018747091293335,-1.135812759399414
93.12742614746094,6.840663909912109,-1.1641755104064941
92.32728576660156,34.18375015258789,-1.227447509765625
74.1647720336914,30.900794982910156,-1.0016790628433228
82.78782653808594,38.46628952026367,-1.1381072998046875
81.68909454345703,42.02499008178711,-1.1453052759170532
62.04188919067383,35.13850402832031,-0.8889365196228027
60.460140228271484,37.527862548828125,-0.8871726989746094
49.71226501464844,33.696102142333984,-0.7487393617630005
56.1558837890625,41.45094680786133,-0.8701831102371216
54.88759994506836,44.02800750732422,-0.8772478103637695
54.055789947509766,47.05134582519531,-0.8934694528579712
46.641456604003906,44.01313400268555,-0.7995175123214722
61.729976654052734,63.1280632019043,-1.1007858514785767
58.704185485839844,65.06912231445312,-1.0925925970077515
55.039459228515625,66.16845703125,-1.0730323791503906
50.68497848510742,66.16931915283203,-1.0391604900360107
34.39155197143555,48.84443664550781,-0.7447569370269775
44.63074493408203,69.12802124023438,-1.0258618593215942
41.34270477294922,70.05997467041016,-1.01419997215271
38.14580535888672,71.01426696777344,-1.005005121231079
35.109928131103516,72.176025390625,-1.0006717443466187
32.37452697753906,73.96758270263672,-1.0066533088684082
29.815441131591797,76.33071899414062,-1.0216337442398071
27.686681747436523,80.25409698486328,-1.0584139823913574
26.544631958007812,88.3011245727539,-1.1495440006256104
24.154260635375977,93.87520599365234,-1.2084927558898926
15.24898624420166,70.96662902832031,-0.9049540758132935
10.168819427490234,58.71950149536133,-0.742972731590271
7.6094512939453125,57.62417221069336,-0.7246553301811218
5.215819835662842,57.087703704833984,-0.7146917581558228
2.945685386657715,57.78780746459961,-0.7213922739028931
0.6183061599731445,57.524253845214844,-0.7172113656997681
-1.9785034656524658,67.20039367675781,-0.8381686210632324
-4.977632999420166,71.38666534423828,-0.8921627998352051
-7.842317581176758,71.13843536376953,-0.8922712802886963
93.40837097167969,-3.026196002960205,-0.3883678913116455
91.00634765625,0.7094577550888062,-0.3781921863555908
91.27119445800781,4.382318019866943,-0.37971949577331543
93.48944091796875,27.80354881286621,-0.4053165912628174
86.80146026611328,29.658916473388672,-0.3811931610107422
87.662841796875,33.94389343261719,-0.390655517578125
84.09040832519531,36.50966262817383,-0.38095641136169434
81.84197998046875,39.51350021362305,-0.37766218185424805
62.30962371826172,33.23334503173828,-0.2934587001800537
50.94779586791992,29.862043380737305,-0.24540627002716064
58.298431396484375,37.395408630371094,-0.28781867027282715
57.05634307861328,39.92205810546875,-0.289379358291626
55.79859924316406,42.480289459228516,-0.2914235591888428
54.97856903076172,45.45768737792969,-0.296450138092041
61.31039047241211,54.98566818237305,-0.34223246574401855
61.14950180053711,59.44308090209961,-0.354388952255249
58.689430236816406,61.82744598388672,-0.3542565107345581
55.525291442871094,63.412113189697266,-0.3502677083015442
52.30522918701172,64.81336212158203,-0.3461074233055115
49.075443267822266,66.07595825195312,-0.34203964471817017
46.080204010009766,67.5523681640625,-0.33981919288635254
42.791221618652344,68.48757934570312,-0.33560454845428467
39.545318603515625,69.34441375732422,-0.33173441886901855
36.393653869628906,70.2322769165039,-0.3287276029586792
33.48692321777344,71.51779174804688,-0.32817983627319336
31.02341079711914,73.8441390991211,-0.332861065864563
28.50148582458496,76.2874755859375,-0.33842265605926514
26.67111587524414,81.19819641113281,-0.35515499114990234
25.34115982055664,89.0698013305664,-0.38483452796936035
17.387367248535156,71.9846420288086,-0.30773991346359253
14.303252220153809,71.73052215576172,-0.3039519190788269
9.223468780517578,58.40087890625,-0.24569839239120483
6.7412614822387695,57.62363815307617,-0.24109101295471191
4.346568584442139,56.873756408691406,-0.23703211545944214
2.0694046020507812,57.3077507019043,-0.23830169439315796
-0.25565028190612793,62.5540771484375,-0.2599528431892395
-3.1453959941864014,71.00548553466797,-0.29535722732543945
-5.989876747131348,70.7586669921875,-0.2950901985168457
-8.83390998840332,70.51233673095703,-0.29530978202819824
98.18867492675781,-4.640013694763184,-0.40848541259765625
91.17316436767578,3.0227112770080566,-0.37907934188842773
95.17584991455078,26.774816513061523,-0.4108600616455078
51.69414520263672,16.811002731323242,-0.2258930206298828
88.7846450805664,32.87209701538086,-0.39343690872192383
74.28086853027344,30.94916534423828,-0.33439528942108154
82.88711547851562,38.51241683959961,-0.3798091411590576
80.08348083496094,41.198974609375,-0.37424564361572266
61.31993103027344,34.729610443115234,-0.29284918308258057
59.75798797607422,37.09202575683594,-0.2922782897949219
49.817745208740234,33.767601013183594,-0.2500952482223511
56.26506423950195,41.53153991699219,-0.2906128168106079
55.456966400146484,44.484745025634766,-0.2954375743865967
64.53199005126953,56.17012405395508,-0.3555283546447754
46.73292922973633,44.09944534301758,-0.26701194047927856
59.597328186035156,60.947120666503906,-0.35424143075942993
57.08734893798828,63.2769889831543,-0.3541542887687683
53.42568588256836,64.2283935546875,-0.3471800684928894
50.3014030456543,65.66854858398438,-0.34376055002212524
34.45981216430664,48.94137954711914,-0.24873167276382446
43.983917236328125,68.12615966796875,-0.33698487281799316
40.73516845703125,69.03047943115234,-0.333091139793396
37.5223503112793,69.85359954833984,-0.32951831817626953
34.535865783691406,70.99593353271484,-0.3281005620956421
31.956571578979492,73.01263427734375,-0.3312087059020996
29.56007957458496,75.67696380615234,-0.33762073516845703
27.140064239501953,78.66967010498047,-0.34582388401031494
26.259302139282227,87.35198974609375,-0.37904369831085205
18.541404724121094,72.06100463867188,-0.30920642614364624
15.265975952148438,71.04571533203125,-0.3019707202911377
10.164682388305664,58.695579528808594,-0.24754488468170166
7.646838188171387,57.90719985961914,-0.24272453784942627
5.221306324005127,57.147674560546875,-0.2384704351425171
2.952174425125122,57.91478729248047,-0.24098491668701172
0.614655613899231,57.18374252319336,-0.23764657974243164
-1.9631052017211914,66.67755126953125,-0.27720367908477783
-4.940199851989746,70.8497085571289,-0.29513823986053467
-7.783331871032715,70.60328674316406,-0.29517579078674316
90.86187744140625,-2.943697929382324,0.37778282165527344
91.69847869873047,0.7148593068122864,0.3810725212097168
91.96583557128906,4.415670394897461,0.38260769844055176
96.8172378540039,20.504743576049805,0.4112527370452881
93.5130615234375,23.766868591308594,0.4009542465209961
89.91761779785156,26.74129867553711,0.38983678817749023
83.93190002441406,28.67843246459961,0.36858558654785156
84.44575500488281,32.698204040527344,0.37629270553588867
81.64659118652344,35.44862747192383,0.3698744773864746
78.93474578857422,38.10988998413086,0.36425161361694336
61.59145736694336,32.85031509399414,0.290080189704895
51.04062271118164,29.916454315185547,0.24585175514221191
58.9013671875,37.782188415527344,0.29079949855804443
57.647029876708984,40.33538055419922,0.2923715114593506
56.377037048339844,42.920684814453125,0.29444873332977295
55.08690643310547,45.54725646972656,0.29703402519226074
61.48788833618164,55.144874572753906,0.3432222604751587
59.10673904418945,57.457332611083984,0.3425431251525879
56.72958755493164,59.76280212402344,0.3424145579338074
54.34889221191406,62.06861114501953,0.34282708168029785
51.04172134399414,63.247684478759766,0.33773934841156006
48.2412109375,64.9527359008789,0.3362162709236145
45.41215515136719,66.57301330566406,0.33488011360168457
42.17877197265625,67.50735473632812,0.3307781219482422
38.938629150390625,68.2805404663086,0.3266310691833496
35.78376388549805,69.05525970458984,0.3231903314590454
32.99117660522461,70.45902252197266,0.32329773902893066
30.54440689086914,72.70399475097656,0.3277127742767334
28.27609634399414,75.68414306640625,0.3357433080673218
26.632139205932617,81.07954406738281,0.354653000831604
24.382854461669922,85.70158386230469,0.3702709674835205
17.246997833251953,71.40351867675781,0.3052557706832886
14.18917465209961,71.15851593017578,0.3015279769897461
9.233464241027832,58.46415710449219,0.24596333503723145
6.74843692779541,57.68490219116211,0.2413485050201416
4.351114273071289,56.933204650878906,0.23727816343307495
2.0918760299682617,57.929988861083984,0.24088668823242188
-0.2573282718658447,62.9619026184082,0.26164376735687256
-3.121889591217041,70.47503662109375,0.2931478023529053
-5.945174694061279,70.23052978515625,0.2928943634033203
-8.81298828125,70.34532928466797,0.29460763931274414
71.80899047851562,-18.1928768157959,0.3078455924987793
93.5533218383789,-4.4209747314453125,0.3892037868499756
91.86685943603516,3.045710563659668,0.3819694519042969
97.5975341796875,19.161731719970703,0.413318395614624
94.71395874023438,22.581655502319336,0.40462803840637207
91.50923156738281,25.743324279785156,0.3950364589691162
51.785430908203125,16.84068489074707,0.22629308700561523
85.5040283203125,31.657468795776367,0.37888383865356445
74.4020004272461,30.999631881713867,0.3349471092224121
79.92664337158203,37.136871337890625,0.36624646186828613
77.2635498046875,39.748260498046875,0.36107444763183594
60.6146354675293,34.33015060424805,0.2894827127456665
58.867088317871094,36.53904342651367,0.2879211902618408
49.92367172241211,33.83939743041992,0.25063157081604004
56.848026275634766,41.96187210083008,0.2936244010925293
55.56587219238281,44.57210159301758,0.29601597785949707
62.36957550048828,54.287879943847656,0.34360480308532715
46.824745178222656,44.186092376708984,0.26754510402679443
57.60723876953125,58.911956787109375,0.34240424633026123
55.22871017456055,61.21683120727539,0.3426113724708557
52.4000358581543,62.995338439941406,0.3405070900917053
49.256752014160156,64.30477905273438,0.33660316467285156
34.52832794189453,49.038700103759766,0.24923604726791382
43.427513122558594,67.26435089111328,0.3327115774154663
40.13050079345703,68.00581359863281,0.3281348943710327
36.896644592285156,68.68876647949219,0.324002742767334
33.958213806152344,69.80842590332031,0.3225867748260498
31.331249237060547,71.58393859863281,0.3247119188308716
29.14584732055664,74.616455078125,0.332904577255249
26.95600128173828,78.13611602783203,0.3434818983078003
25.455413818359375,84.67786407470703,0.3674197196960449
22.510692596435547,87.48748779296875,0.37540292739868164
15.282995223999023,71.1249771118164,0.30231547355651855
10.18309211730957,58.80192184448242,0.24799174070358276
7.655027389526367,57.96918869018555,0.24298745393753052
5.226790904998779,57.20777130126953,0.2387235164642334
2.9074859619140625,57.038333892822266,0.23733508586883545
0.6700789928436279,62.3383903503418,0.25906336307525635
-2.0132393836975098,68.38041687011719,0.28428220748901367
-4.9033331871032715,70.32080078125,0.29293549060821533
-7.725216865539551,70.0761489868164,0.29297327995300293
68.69073486328125,-19.268064498901367,0.8894486427307129
71.94664764404297,-17.096012115478516,0.9219541549682617
91.55278015136719,-2.9660775661468506,1.1420114040374756
91.8189697265625,0.7157977819442749,1.1447668075561523
92.087158203125,4.421487331390381,1.1493983268737793
95.8518295288086,16.307849884033203,1.2121870517730713
93.08370208740234,19.714019775390625,1.186246633529663
89.99386596679688,22.8724422454834,1.1576519012451172
86.60847473144531,25.757165908813477,1.1265149116516113
82.61105346679688,28.22711944580078,1.0883979797363281
81.45623016357422,31.54062843322754,1.0890023708343506
78.80377197265625,34.21437072753906,1.0710570812225342
76.226806640625,36.802490234375,1.0553103685379028
73.71463775634766,39.31632995605469,1.0415700674057007
51.13379669189453,29.97106170654297,0.7389324903488159
59.01521682739258,37.85521697998047,0.8741174936294556
57.759063720703125,40.41377258300781,0.8788678646087646
56.48738479614258,43.00469970703125,0.8851134777069092
55.19567108154297,45.63719940185547,0.8929003477096558
59.49629592895508,53.358734130859375,0.9963631629943848
57.19590759277344,55.599822998046875,0.9944689273834229
54.89625549316406,57.83144760131836,0.9941084980964661
52.59044647216797,60.060394287109375,0.9952723383903503
50.15681457519531,62.15117263793945,0.9956977367401123
47.41001892089844,63.8336181640625,0.9913141131401062
44.90801239013672,65.83395385742188,0.9935397505760193
41.53620910644531,66.47897338867188,0.9772745370864868
38.31982421875,67.19540405273438,0.9643787145614624
35.185791015625,67.90131378173828,0.953434944152832
32.41167068481445,69.22136688232422,0.952910304069519
29.970043182373047,71.33684539794922,0.9646799564361572
28.311012268066406,75.77760314941406,1.008522391319275
26.27224349975586,79.98390197753906,1.0495762825012207
23.494348526000977,82.57862854003906,1.070372223854065
17.294523239135742,71.6002426147461,0.9183297753334045
14.076929092407227,70.59552764892578,0.8974645137786865
9.25011920928955,58.56966018676758,0.7392570972442627
6.755610466003418,57.746299743652344,0.7248498201370239
4.355686664581299,56.9927864074707,0.7126160860061646
2.093785047531128,57.98305892944336,0.7233625650405884
-0.25901103019714355,63.37504196166992,0.7901206612586975
-3.1081817150115967,70.16565704345703,0.8756325244903564
-5.90110969543457,69.71017456054688,0.8722062110900879
-8.747638702392578,69.82374572753906,0.8773123025894165
70.6875,-17.90875244140625,0.9091269969940186
90.88365173339844,-4.294812202453613,1.1343379020690918
91.98784637451172,3.0497241020202637,1.1474699974060059
97.56832885742188,11.122295379638672,1.224292516708374
93.72132110595703,14.518211364746094,1.1823885440826416
94.26197814941406,18.50684356689453,1.1976313591003418
91.11822509765625,21.724363327026367,1.167841911315918
88.11441802978516,24.788297653198242,1.141195297241211
84.81290435791016,27.58123207092285,1.1118924617767334
82.45703125,30.529338836669922,1.096203088760376
74.52800750732422,31.052135467529297,1.0065886974334717
77.170166015625,35.85612487792969,1.0608903169631958
74.63529968261719,38.396156311035156,1.0464121103286743
69.69708251953125,39.47418212890625,0.9986231327056885
65.74948120117188,40.810997009277344,0.9647886753082275
50.030052185058594,33.9115104675293,0.7535264492034912
56.958984375,42.04376983642578,0.8826273679733276
55.67521667480469,44.65981674194336,0.8898416757583618
60.347198486328125,52.52756118774414,0.9974535703659058
46.916927337646484,44.2730827331543,0.8042479753494263
55.74565505981445,57.008216857910156,0.994059681892395
53.4428825378418,59.237369537353516,0.9946691989898682
51.129615783691406,61.46804428100586,0.9967947602272034
48.43072509765625,63.226383209228516,0.9929330348968506
34.59715270996094,49.13641357421875,0.7492223381996155
42.773197174072266,66.2508773803711,0.9831527471542358
39.5266227722168,66.98245239257812,0.9696345329284668
36.28504943847656,67.55020904541016,0.9559625387191772
33.35805892944336,68.57469940185547,0.9507189989089966
30.82568359375,70.42887878417969,0.9584853649139404
28.999666213989258,74.2421875,0.9937170743942261
26.800477981567383,77.68533325195312,1.0245425701141357
24.534664154052734,81.61494445800781,1.0624808073043823
21.679462432861328,84.25690460205078,1.0846755504608154
15.187946319580078,70.68256378173828,0.9013381600379944
10.194211959838867,58.86617660522461,0.7448277473449707
7.663215637207031,58.03130340576172,0.7297760844230652
5.232300758361816,57.268001556396484,0.7169478535652161
2.862647533416748,56.15876388549805,0.7010561227798462
0.6591637134552002,61.32529830932617,0.7646054029464722
-2.02760648727417,68.86807250976562,0.8589707612991333
-4.866991996765137,69.79971313476562,0.8723218441009521
-7.667973041534424,69.55680847167969,0.8724348545074463
67.65676879882812,-18.978029251098633,1.4602255821228027
70.77728271484375,-16.818164825439453,1.5117571353912354
91.6729736328125,-2.9699759483337402,1.9060301780700684
91.9397964477539,0.7167412042617798,1.910632610321045
92.20883178710938,4.427332878112793,1.91837477684021
99.19098663330078,8.767319679260254,2.069291114807129
95.8367919921875,12.367766380310059,2.0080668926239014
92.19989013671875,15.68652629852295,1.943514108657837
89.62675476074219,18.98188018798828,1.9038236141204834
86.7293472290039,22.04275131225586,1.8595900535583496
83.53359985351562,24.842710494995117,1.811034917831421
81.26514434814453,27.767242431640625,1.7845947742462158
78.67060089111328,30.462007522583008,1.7530903816223145
76.15172576904297,33.062931060791016,1.7251877784729004
73.69800567626953,35.58157730102539,1.7006523609161377
71.2999496459961,38.028438568115234,1.6792384386062622
51.22732925415039,30.025890350341797,1.2339234352111816
59.129539489746094,37.92854309082031,1.4598228931427002
57.87156295776367,40.49247741699219,1.4677670001983643
56.59818649291992,43.08905792236328,1.478211760520935
48.385047912597656,40.0059928894043,1.3046575784683228
57.629310607910156,51.68433380126953,1.6086435317993164
55.4044075012207,53.85830307006836,1.6056828498840332
53.17740249633789,56.02068328857422,1.6051121950149536
50.9419059753418,58.17770004272461,1.6069364547729492
48.69150924682617,60.33545684814453,1.6111667156219482
44.996116638183594,60.5834846496582,1.5682193040847778
44.067848205566406,64.6023178100586,1.6250770092010498
40.86219787597656,65.40018463134766,1.6025283336639404
37.65275192260742,66.02566528320312,1.5794752836227417
34.55637741088867,66.68667602539062,1.5607942342758179
31.983928680419922,68.307861328125,1.5673712491989136
29.569366455078125,70.38311004638672,1.5864465236663818
27.973674774169922,74.87466430664062,1.6609777212142944
25.370037078857422,77.23719024658203,1.689405083656311
22.668169021606445,79.6747055053711,1.7213884592056274
17.314146041870117,71.6815185546875,1.5324313640594482
14.091239929199219,70.66729736328125,1.4974286556243896
9.260177612304688,58.633277893066406,1.2335433959960938
6.767667770385742,57.84939193725586,1.2103488445281982
4.360238075256348,57.05249786376953,1.1890487670898438
2.062075138092041,57.1048469543457,1.1874499320983887
-0.2550954818725586,62.41486740112305,1.2970352172851562
-3.125887393951416,70.5651626586914,1.4678345918655396
-5.868932723999023,69.32996368408203,1.4458786249160767
-8.683234214782715,69.30973815917969,1.4515655040740967
66.55607604980469,-19.73887825012207,1.4426321983337402
69.60027313232422,-17.633304595947266,1.492042064666748
70.46004486083984,-3.329674005508423,1.4658441543579102
92.10918426513672,3.0537519454956055,1.915147066116333
97.0537109375,11.063634872436523,2.02990460395813
93.1222915649414,14.42541790008545,1.958228349685669
90.72894287109375,17.813190460205078,1.9214060306549072
87.78485870361328,20.929624557495117,1.8753662109375
84.96186828613281,23.90142822265625,1.8341033458709717
81.83949279785156,26.614276885986328,1.7883586883544922
79.61914825439453,29.478626251220703,1.7642946243286133
74.65877532958984,31.106624603271484,1.6807456016540527
74.59699249267578,34.660526275634766,1.709343671798706
72.17947387695312,37.13275146484375,1.6867884397506714
69.42574310302734,39.32051086425781,1.6580407619476318
66.29208374023438,41.147804260253906,1.621402621269226
50.136905670166016,33.98394012451172,1.258673906326294
57.07039260864258,42.12601852416992,1.4740620851516724
55.78500747680664,44.74788284301758,1.4861257076263428
58.45149612426758,50.87751007080078,1.610346794128418
47.00949478149414,44.36042785644531,1.3431754112243652
54.00025177001953,55.22329330444336,1.6050498485565186
51.76861572265625,57.38155746459961,1.6059937477111816
49.52448654174805,59.53834915161133,1.6093263626098633
45.44292449951172,59.32583999633789,1.5529448986053467
34.66624450683594,49.23453903198242,1.2513036727905273
42.125823974609375,65.2481918334961,1.613938570022583
38.86256408691406,65.85710906982422,1.5890661478042603
35.65777587890625,66.38243865966797,1.565880537033081
32.76714324951172,67.35993957519531,1.556609034538269
30.566207885742188,69.83602142333984,1.5841652154922485
28.85489845275879,73.87161254882812,1.6480712890625
26.342121124267578,76.35674285888672,1.6785080432891846
23.67801856994629,78.76534271240234,1.7091376781463623
18.581254959106445,72.2158432006836,1.5495760440826416
15.263967514038086,71.03630828857422,1.5098811388015747
10.205375671386719,58.930599212646484,1.24284827709198
7.676974773406982,58.13533401489258,1.2185819149017334
5.237798690795898,57.32836151123047,1.1962864398956299
2.8845572471618652,56.58867263793945,1.1774793863296509
0.6486334800720215,60.34436798095703,1.2540684938430786
-2.0423429012298584,69.36896514892578,1.4421601295471191
-4.88190221786499,70.01375579833984,1.4584693908691406
-7.611540794372559,69.04499816894531,1.4434889554977417
63.803199768066406,-20.695573806762695,1.9517076015472412
66.65312194824219,-18.69649314880371,2.0142645835876465
69.69083404541016,-16.56000328063965,2.0842630863189697
91.79352569580078,-2.973886013031006,2.6723225116729736
92.06098175048828,0.7176827192306519,2.678783893585205
92.33087921142578,4.433199405670166,2.689650535583496
95.34112548828125,8.427037239074707,2.784952402114868
92.2229995727539,11.901408195495605,2.705660820007324
88.81488037109375,15.110612869262695,2.62138295173645
86.41632080078125,18.30194854736328,2.5702335834503174
83.69229125976562,21.270864486694336,2.5126185417175293
80.66867065429688,23.99068260192871,2.4488251209259033
78.53033447265625,26.832801818847656,2.414689779281616
76.06829071044922,29.454368591308594,2.3734803199768066
73.67155456542969,31.986106872558594,2.336927652359009
