50.01961135864258,38.80301284790039,8.200601577758789
65.08353424072266,54.815120697021484,11.02269172668457
68.17678833007812,62.269615173339844,11.960883140563965
67.4334716796875,66.7529067993164,12.291376113891602
41.23748779296875,44.23984146118164,7.834392070770264
37.6302375793457,43.77067184448242,7.477356910705566
46.342872619628906,75.69258880615234,11.496956825256348
-45.21034622192383,-39.8302001953125,8.314859390258789
-53.5966796875,-51.186279296875,10.227441787719727
-52.461952209472656,-54.2964973449707,10.419042587280273
-50.02846145629883,-56.124542236328125,10.375483512878418
-43.98441696166992,-53.526493072509766,9.56057357788086
-41.23984909057617,-54.51150131225586,9.432748794555664
-40.471961975097656,-58.21726989746094,9.784547805786133
-39.232601165771484,-61.572628021240234,10.075246810913086
-36.9305419921875,-63.44770812988281,10.130936622619629
-17.606847763061523,-33.25379943847656,5.192540168762207
-15.529085159301758,-32.41516876220703,4.9600958824157715
-13.623743057250977,-31.64104652404785,4.753989219665527
-11.872247695922852,-30.93939971923828,4.5731635093688965
-11.333733558654785,-33.50164794921875,4.8805975914001465
-10.50406265258789,-35.715946197509766,5.137508392333984
-9.566520690917969,-38.12432098388672,5.424227714538574
-8.574033737182617,-41.09844970703125,5.79365873336792
-7.361634254455566,-44.077083587646484,6.166851043701172
-5.651670455932617,-44.86600875854492,6.240396499633789
-3.717970609664917,-43.570247650146484,6.034501552581787
-1.9037585258483887,-42.329227447509766,5.8473005294799805
-0.19593852758407593,-41.136436462402344,5.67685604095459
1.363938808441162,-38.49317932128906,5.315360069274902
2.9207603931427,-38.56076431274414,5.336597442626953
4.3601298332214355,-37.489742279052734,5.208425521850586
5.777762413024902,-36.7446174621582,5.133031845092773
7.097565650939941,-35.72002029418945,5.025698184967041
8.36098575592041,-34.717750549316406,4.927998065948486
9.573261260986328,-33.73496627807617,4.839219093322754
10.739097595214844,-32.76902389526367,4.758742809295654
10.835264205932617,-29.061765670776367,4.2801737785339355
12.842491149902344,-30.626615524291992,4.582983493804932
13.884122848510742,-29.70448875427246,4.524866580963135
14.133017539978027,-27.319021224975586,4.244612693786621
16.004261016845703,-28.10831069946289,4.463606834411621
16.9672908782959,-27.19719123840332,4.423673629760742
17.906497955322266,-26.288604736328125,4.389437198638916
18.824073791503906,-25.380882263183594,4.360713005065918
19.72216033935547,-24.472320556640625,4.337337970733643
20.602725982666016,-23.561267852783203,4.319182395935059
21.467594146728516,-22.646072387695312,4.306150913238525
21.36908531188965,-20.80088233947754,4.115319728851318
21.368608474731445,-19.190330505371094,3.9634523391723633
22.190303802490234,-18.372772216796875,3.975641965866089
23.599597930908203,-17.991954803466797,4.095231056213379
22.158037185668945,-15.526228904724121,3.7337496280670166
26.420236587524414,-16.972442626953125,4.333459854125977
27.220491409301758,-15.979472160339355,4.3558244705200195
28.01738929748535,-14.967645645141602,4.383516788482666
28.63309669494629,-13.848007202148438,4.389200687408447
28.079113006591797,-12.213708877563477,4.2255940437316895
30.040769577026367,-11.655420303344727,4.446689128875732
30.98838996887207,-10.611753463745117,4.5201568603515625
31.784944534301758,-9.47620964050293,4.5770792961120605
32.58710479736328,-8.305683135986328,4.640758514404297
33.396541595458984,-7.096617221832275,4.711592197418213
34.44911575317383,-5.885044097900391,4.82281494140625
35.28424835205078,-4.577712059020996,4.910000801086426
36.132476806640625,-3.218329906463623,5.005987167358398
36.996028900146484,-1.8014333248138428,5.1114678382873535
38.7791862487793,1.230081558227539,5.354183197021484
39.70444869995117,2.8593297004699707,5.493368625640869
40.38025665283203,4.544580459594727,5.607617378234863
41.35618591308594,6.345787048339844,5.77391242980957
40.73634338378906,7.937392234802246,5.727300643920898
43.71367645263672,10.356094360351562,6.199418544769287
44.816070556640625,12.538450241088867,6.422056198120117
45.97024154663086,14.876845359802246,6.667770862579346
47.165889739990234,17.38617515563965,6.936981201171875
48.44729995727539,20.10421371459961,7.238475799560547
49.826576232910156,23.064556121826172,7.5769758224487305
51.27935791015625,26.287872314453125,7.952186107635498
52.839576721191406,29.826766967773438,8.373327255249023
54.526309967041016,33.73664855957031,8.848407745361328
53.700340270996094,36.28712463378906,8.943887710571289
58.38075256347656,42.96416473388672,10.00301456451416
60.61669158935547,48.481048583984375,10.711434364318848
63.12113571166992,54.7833137512207,11.533866882324219
65.96025848388672,62.06486892700195,12.498492240905762
64.72362518310547,66.00007629394531,12.756649017333984
-63.07801055908203,-53.93079376220703,11.452573776245117
-53.8236083984375,-49.89745330810547,10.128362655639648
-52.88609313964844,-53.134910583496094,10.345575332641602
-51.72224044799805,-56.31973648071289,10.55229377746582
-46.10577392578125,-54.44097137451172,9.845014572143555
-41.65201187133789,-53.39118957519531,9.344795227050781
-40.91149139404297,-57.025413513183594,9.685185432434082
-39.69891357421875,-60.31106948852539,9.964094161987305
-33.821712493896484,-56.17301940917969,9.04848861694336
-33.152469635009766,-60.42924118041992,9.51171875
-16.27462387084961,-32.71671676635742,5.042630195617676
-14.308847427368164,-31.91999626159668,4.827268123626709
-12.49894905090332,-31.181499481201172,4.635845184326172
-11.619467735290527,-32.738121032714844,4.793948173522949
-10.82046890258789,-34.871952056884766,5.038640975952148
-9.933341026306152,-37.23702621459961,5.318373203277588
-8.92704963684082,-39.82583999633789,5.632308006286621
-7.804401397705078,-42.80926513671875,6.005010604858398
-6.398850917816162,-45.35976028442383,6.3215837478637695
-4.4172515869140625,-44.041900634765625,6.1082353591918945
-2.560556650161743,-42.781494140625,5.914372444152832
-0.814856767654419,-41.57160186767578,5.737944602966309
0.8091414570808411,-39.30546951293945,5.425270080566406
2.370565414428711,-38.964263916015625,5.3869781494140625
3.837057590484619,-37.88160705566406,5.2543792724609375
5.275388717651367,-37.13147735595703,5.175567626953125
6.6171555519104,-36.095550537109375,5.06416130065918
7.900749683380127,-35.08536911010742,4.962994575500488
9.131319999694824,-34.09573745727539,4.870996475219727
10.313787460327148,-33.123863220214844,4.787524223327637
10.378942489624023,-29.15183448791504,4.270293235778809
10.570982933044434,-26.296783447265625,3.911167621612549
13.50339126586914,-30.043903350830078,4.5455522537231445
14.524761199951172,-29.127025604248047,4.49155330657959
14.770798683166504,-26.861034393310547,4.2302775382995605
16.61465072631836,-27.53317642211914,4.437743186950684
16.561752319335938,-25.106948852539062,4.150655746459961
18.487688064575195,-25.716018676757812,4.370687961578369
13.782440185546875,-17.631084442138672,3.088256597518921
20.27952003479004,-23.898046493530273,4.325287342071533
21.149988174438477,-22.984569549560547,4.310371398925781
21.750389099121094,-21.809734344482422,4.250606536865234
17.894351959228516,-16.556331634521484,3.3642358779907227
21.85537338256836,-18.648813247680664,3.964768409729004
23.069252014160156,-18.135019302368164,4.049445152282715
24.53510284423828,-17.740283966064453,4.178182601928711
26.102235794067383,-17.320526123046875,4.322980880737305
26.925485610961914,-16.348163604736328,4.346957206726074
27.723464965820312,-15.343555450439453,4.3726654052734375
28.519001007080078,-14.318687438964844,4.403786659240723
27.59176254272461,-12.491752624511719,4.179684638977051
29.335433959960938,-11.88544750213623,4.367908954620361
30.69536781311035,-11.022846221923828,4.500779151916504
31.490276336669922,-9.899360656738281,4.555296421051025
32.290184020996094,-8.742145538330078,4.616435527801514
33.096717834472656,-7.547759532928467,4.684579849243164
34.14366149902344,-6.355556488037109,4.792727470397949
34.974483489990234,-5.066205024719238,4.876819133758545
35.817626953125,-3.7266340255737305,4.969482421875
36.675254821777344,-2.331648349761963,5.071368217468262
37.549720764160156,-0.8753814697265625,5.183237075805664
38.44365310668945,0.648740291595459,5.305943012237549
39.35989761352539,2.24813175201416,5.440480709075928
40.3016471862793,3.931210994720459,5.587986946105957
40.99205780029297,5.66880989074707,5.710702896118164
41.989280700683594,7.536731719970703,5.887085437774658
43.31840896606445,9.586042404174805,6.1225199699401855
44.40338134765625,11.715542793273926,6.337313175201416
45.5376091003418,13.994013786315918,6.574179172515869
46.71056365966797,16.435426712036133,6.833395481109619
47.96560287475586,19.075239181518555,7.123437404632568
49.29548645019531,21.936689376831055,7.445898532867432
50.73136901855469,25.063648223876953,7.808681488037109
52.24989318847656,28.480180740356445,8.21202278137207
53.8874397277832,32.245845794677734,8.666135787963867
51.93111801147461,33.98051071166992,8.564311981201172
57.612728118896484,41.09550857543945,9.765881538391113
50.12939453125,38.8881721496582,8.755337715148926
62.16148376464844,52.35408020019531,11.215349197387695
64.86797332763672,59.247501373291016,12.123617172241211
67.36137390136719,66.68155670166016,13.080106735229492
41.3972282409668,44.41120147705078,8.378361701965332
37.60867691040039,43.7455940246582,7.961122512817383
46.31278610229492,75.6434326171875,12.239839553833008
-45.175350189208984,-39.799373626708984,8.818928718566895
-53.51393127441406,-51.10723876953125,10.839099884033203
-52.37943649291992,-54.21109390258789,11.041839599609375
-48.76552200317383,-54.707698822021484,10.734984397888184
-42.95921325683594,-52.27887725830078,9.911484718322754
-41.54372787475586,-54.91316223144531,10.086118698120117
-40.4019889831543,-58.11663818359375,10.367802619934082
-39.16276168823242,-61.463016510009766,10.675278663635254
-33.87672424316406,-58.20115280151367,9.864217758178711
-17.465482711791992,-32.9868049621582,5.467339038848877
-15.40993881225586,-32.16646957397461,5.224472999572754
-13.523521423339844,-31.408296585083008,5.008975982666016
-11.79137134552002,-30.72865104675293,4.82109260559082
-11.3082275390625,-33.42626190185547,5.168822288513184
-10.479181289672852,-35.63136291503906,5.4402642250061035
-9.54256820678711,-38.02886199951172,5.743103981018066
-8.55122184753418,-40.989139556884766,6.13328742980957
-7.3407182693481445,-43.95182800292969,6.5271711349487305
-5.513625144958496,-43.77006149291992,6.462037086486816
-3.6300854682922363,-42.54023361206055,6.253872871398926
-1.8601181507110596,-41.35889434814453,6.064308166503906
-0.1821863055229187,-38.2464714050293,5.602348804473877
1.3578698635101318,-38.321739196777344,5.616829872131348
2.8590402603149414,-37.74598693847656,5.5448126792907715
4.274072647094727,-36.74974822998047,5.4193315505981445
5.661159038543701,-36.0030632019043,5.338470458984375
6.9572672843933105,-35.01390838623047,5.229048728942871
8.19885540008545,-34.04454803466797,5.129365921020508
9.390908241271973,-33.092376708984375,5.03872013092041
10.537870407104492,-32.15501022338867,4.956497669219971
10.654650688171387,-28.577333450317383,4.467438220977783
12.608757019042969,-30.069210052490234,4.776044845581055
13.634568214416504,-29.17058753967285,4.716572284698486
13.995635986328125,-27.053466796875,4.4616289138793945
15.722664833068848,-27.61376190185547,4.654513359069824
16.671384811401367,-26.722869873046875,4.613595008850098
17.59657859802246,-25.83362579345703,4.5785064697265625
18.50038719177246,-24.94443130493164,4.5490593910217285
19.38479995727539,-24.053720474243164,4.525094985961914
20.251766204833984,-23.15990447998047,4.506476879119873
21.102989196777344,-22.261449813842773,4.493105888366699
21.44306182861328,-20.872894287109375,4.383309364318848
21.43609046936035,-19.25093650817871,4.220272064208984
22.262317657470703,-18.432395935058594,4.233618259429932
23.678489685058594,-18.052106857299805,4.361391544342041
22.22956085205078,-15.576346397399902,3.975958824157715
25.96871566772461,-16.682376861572266,4.521115779876709
26.752918243408203,-15.70499324798584,4.544051170349121
27.533130645751953,-14.708939552307129,4.57243537902832
26.6478328704834,-12.88786506652832,4.335872173309326
28.19870376586914,-12.265729904174805,4.504335880279541
29.66027069091797,-11.507807731628418,4.660134792327881
30.43267059326172,-10.421449661254883,4.711856365203857
31.207895278930664,-9.304166793823242,4.770114898681641
31.987417221069336,-8.15283489227295,4.835257053375244
32.9969596862793,-7.011708736419678,4.941261291503906
33.7951545715332,-5.773322105407715,5.021971702575684
34.602561950683594,-4.489267826080322,5.111003398895264
35.42101287841797,-3.1549582481384277,5.208952903747559
36.252540588378906,-1.7652270793914795,5.316500663757324
37.963623046875,1.204209327697754,5.563644886016846
38.848182678222656,2.797663688659668,5.705158710479736
39.48575210571289,4.443907737731934,5.820324420928955
40.41352844238281,6.201144695281982,5.988991737365723
39.52336502075195,7.701047897338867,5.898196220397949
42.65272521972656,10.10474967956543,6.420630931854248
43.690269470214844,12.22347640991211,6.645422458648682
44.77242660522461,14.48921012878418,6.893055438995361
45.888179779052734,16.915191650390625,7.163749694824219
47.011199951171875,19.50827407836914,7.455488681793213
48.338157653808594,22.375577926635742,7.802293300628662
49.69378662109375,25.47504234313965,8.179810523986816
51.12204360961914,28.857248306274414,8.598926544189453
52.656856536865234,32.57997131347656,9.070077896118164
53.81563186645508,36.36503982543945,9.513819694519043
52.954166412353516,38.97056579589844,9.630722999572754
58.118873596191406,46.48331069946289,10.901084899902344
60.32923126220703,52.360198974609375,11.70106029510498
62.454368591308594,58.76602554321289,12.561322212219238
63.39335250854492,64.64358520507812,13.262167930603027
57.920108795166016,64.01536560058594,12.645347595214844
-60.18292999267578,-51.45555114746094,11.598335266113281
-53.922000885009766,-49.98866653442383,10.770346641540527
-52.80349349975586,-53.05191421508789,10.964099884033203
-51.15324783325195,-55.7001953125,11.077449798583984
-44.99993133544922,-53.13520812988281,10.199295043945312
-41.58256149291992,-53.30215835571289,9.902448654174805
-40.84147644042969,-56.927825927734375,10.262701034545898
-39.6290283203125,-60.20487594604492,10.557717323303223
-37.2735710144043,-61.90605163574219,10.584704399108887
-18.27309226989746,-33.307613372802734,5.564836502075195
-16.147693634033203,-32.4615592956543,5.310728073120117
-14.201983451843262,-31.681610107421875,5.0856099128723145
-12.409284591674805,-30.957794189453125,4.88538932800293
-11.593786239624023,-32.66574478149414,5.077261924743652
-10.795331954956055,-34.79094696044922,5.3358154296875
-9.895057678222656,-37.093505859375,5.623397350311279
-8.903846740722656,-39.72229766845703,5.962841510772705
-7.782774925231934,-42.69062042236328,6.356324195861816
-6.240558624267578,-44.237693786621094,6.5440239906311035
-4.311586856842041,-42.98833465576172,6.3284525871276855
-2.5011987686157227,-41.789794921875,6.132256984710693
-0.796531617641449,-40.636051177978516,5.953446388244629
0.7658082246780396,-37.20048141479492,5.450224876403809
2.3200087547302246,-38.13335418701172,5.596043586730957
3.7606325149536133,-37.12712860107422,5.466150760650635
5.16774320602417,-36.37385559082031,5.381487846374512
6.4853644371032715,-35.37665939331055,5.268274307250977
7.74647855758667,-34.400299072265625,5.165081024169922
8.95626449584961,-33.44208526611328,5.071174621582031
10.119384765625,-32.49951934814453,4.985908508300781
10.552576065063477,-29.6395206451416,4.608509540557861
10.599336624145508,-26.367321014404297,4.162622451782227
13.259592056274414,-29.501483917236328,4.737743854522705
14.26559066772461,-28.60729217529297,4.682463645935059
14.568235397338867,-26.49266242980957,4.428626537322998
16.32398223876953,-27.051502227783203,4.6280107498168945
16.60704231262207,-25.175600051879883,4.417740345001221
18.169055938720703,-25.272817611694336,4.559289932250977
13.82213020324707,-17.681846618652344,3.2874529361724854
19.9335880279541,-23.490379333496094,4.512732982635498
20.790424346923828,-22.59381866455078,4.497438907623291
21.632583618164062,-21.691614151000977,4.487345218658447
17.951007843017578,-16.60875701904297,3.5822575092315674
21.92556381225586,-18.708711624145508,4.221897602081299
23.1455078125,-18.19496726989746,4.312469005584717
24.618791580200195,-17.800800323486328,4.450037002563477
25.67789077758789,-17.0389347076416,4.514002323150635
26.463918685913086,-16.067916870117188,4.534958839416504
27.245458602905273,-15.079002380371094,4.561313152313232
28.023834228515625,-14.070079803466797,4.593217372894287
27.495716094970703,-12.44826889038086,4.421064376831055
29.375505447387695,-11.901693344116211,4.642627239227295
30.14722442626953,-10.826003074645996,4.692015647888184
30.921249389648438,-9.720481872558594,4.747821807861328
31.699007034301758,-8.582096099853516,4.8103814125061035
32.48201370239258,-7.407571792602539,4.880065441131592
33.49946594238281,-6.235647201538086,4.991231441497803
34.303253173828125,-4.968975067138672,5.077126502990723
35.1174201965332,-3.6537771224975586,5.171708106994629
35.9438591003418,-2.285147190093994,5.275628566741943
36.78472137451172,-0.8575460910797119,5.389628887176514
37.64228439331055,0.6352226734161377,5.514561653137207
38.51905059814453,2.2001004219055176,5.651405334472656
39.417869567871094,3.845004081726074,5.801268577575684
40.06770324707031,5.540981292724609,5.924906253814697
41.01387023925781,7.361653804779053,6.103653430938721
42.279788970947266,9.356210708618164,6.342891216278076
43.302310943603516,11.425029754638672,6.559907913208008
44.367305755615234,13.634363174438477,6.798789024353027
45.46357727050781,15.99666976928711,7.059636116027832
46.49490737915039,18.490358352661133,7.329292297363281
47.86494445800781,21.300094604492188,7.674057483673096
49.190189361572266,24.302228927612305,8.036680221557617
50.583213806152344,27.571704864501953,8.438557624816895
52.07664108276367,31.162282943725586,8.889524459838867
52.01050567626953,34.03245544433594,9.104437828063965
53.1772575378418,37.93166732788086,9.567899703979492
50.23991012573242,38.973907470703125,9.313791275024414
59.48468017578125,50.09959411621094,11.391839027404785
61.858909606933594,56.49915313720703,12.271600723266602
62.51256561279297,61.88166427612305,12.884401321411133
41.55857849121094,44.58429718017578,8.927826881408691
37.58709716796875,43.720481872558594,8.4454345703125
46.29671859741211,75.61719512939453,12.987403869628906
-45.14033126831055,-39.768524169921875,9.323446273803711
-53.43122482299805,-51.028263092041016,11.45035457611084
-52.296974182128906,-54.12574768066406,11.664194107055664
-47.561912536621094,-53.35741424560547,11.077590942382812
-42.199371337890625,-51.354190826416016,10.301155090332031
-41.47376251220703,-54.82066345214844,10.653430938720703
-40.332088470458984,-58.01608657836914,10.95045280456543
-38.892574310302734,-61.03899002075195,11.216827392578125
-33.81443405151367,-58.09415817260742,10.417436599731445
-17.326030731201172,-32.72343063354492,5.738417148590088
-15.292333602905273,-31.92097282409668,5.485453128814697
-13.424541473388672,-31.178396224975586,5.260849952697754
-12.033007621765137,-31.358348846435547,5.205380916595459
-11.282779693603516,-33.351016998291016,5.456456184387207
-10.454360008239746,-35.54696273803711,5.742321968078613
-9.518677711486816,-37.93364715576172,6.061154365539551
-8.528480529785156,-40.88013458251953,6.4719390869140625
-7.319866180419922,-43.82699203491211,6.886318206787109
-5.381840705871582,-42.72390365600586,6.673605918884277
-3.546053409576416,-41.55546951293945,6.463603496551514
-1.8183305263519287,-40.42983627319336,6.272082328796387
-0.17661356925964355,-37.07833480834961,5.746404647827148
1.3469843864440918,-38.01438903808594,5.895106315612793
2.8022959232330322,-36.9968147277832,5.7501325607299805
4.2176618576049805,-36.26477813720703,5.658140182495117
5.548891544342041,-35.28915023803711,5.536254405975342
6.822077751159668,-34.333560943603516,5.424981117248535
8.042527198791504,-33.39540100097656,5.323534965515137
9.214959144592285,-32.47232437133789,5.231220722198486
10.343579292297363,-31.562185287475586,5.147432327270508
10.497416496276855,-28.155603408813477,4.656922817230225
12.382842063903809,-29.530433654785156,4.962651252746582
13.393261909484863,-28.654319763183594,4.901946067810059
14.17920207977295,-27.408296585083008,4.782444953918457
14.945320129394531,-26.248498916625977,4.6811347007751465
16.384939193725586,-26.26371955871582,4.797447204589844
17.296497344970703,-25.393068313598633,4.761582374572754
18.186878204345703,-24.521732330322266,4.7314772605896
19.058025360107422,-23.648221969604492,4.706969738006592
19.9117431640625,-22.77105712890625,4.687930107116699
20.74970817565918,-21.888771057128906,4.674254894256592
21.51772689819336,-20.945575714111328,4.653813362121582
21.504175186157227,-19.312070846557617,4.479348182678223
22.33497428894043,-18.4925537109375,4.4939069747924805
23.75811195373535,-18.112810134887695,4.629997253417969
22.301725387573242,-15.626913070678711,4.220335483551025
25.531309127807617,-16.40138816833496,4.702903747558594
26.300060272216797,-15.439146041870117,4.726354598999023
27.0642147064209,-14.458427429199219,4.755377769470215
26.461118698120117,-12.797558784484863,4.555330276489258
28.319612503051758,-12.318323135375977,4.786150932312012
29.14214324951172,-11.306779861450195,4.844424247741699
29.89525032043457,-10.23741626739502,4.897242069244385
30.650089263916016,-9.137866020202637,4.956712245941162
31.408010482788086,-8.005159378051758,5.023176670074463
32.39048385620117,-6.882836818695068,5.1319050788879395
33.16404724121094,-5.665510177612305,5.214166641235352
33.94514083862305,-4.403976917266846,5.304849147796631
34.73540115356445,-3.0938920974731445,5.404543876647949
35.536617279052734,-1.7303712368011475,5.513930320739746
37.179786682128906,1.1793439388275146,5.764957904815674
38.026126861572266,2.73846435546875,5.9084858894348145
38.627986907958984,4.3473711013793945,6.024296283721924
39.51073455810547,6.062618255615234,6.194974422454834
38.37785339355469,7.477849006652832,6.059587478637695
41.6396484375,9.864752769470215,6.6318583488464355
42.61711883544922,11.92322826385498,6.858346462249756
43.63274002075195,14.120392799377441,7.107403755187988
44.67499542236328,16.467988967895508,7.379068851470947
47.235416412353516,19.601318359375,7.925741672515869
46.91537094116211,21.716976165771484,8.01207160949707
48.18154525756836,24.699806213378906,8.391107559204102
49.50885009765625,27.946645736694336,8.810821533203125
50.90721130371094,31.49742317199707,9.277542114257812
52.41041564941406,35.41548538208008,9.803055763244629
52.80406951904297,38.860107421875,10.160701751708984
55.8133544921875,44.63935852050781,11.076136589050293
57.76787567138672,50.137168884277344,11.854442596435547
59.941070556640625,56.401145935058594,12.755409240722656
59.7501106262207,60.92850112915039,13.225351333618164
57.658538818359375,63.72628402709961,13.318724632263184
43.11902618408203,72.83174896240234,13.11717700958252
-61.217498779296875,-52.34009552001953,12.482320785522461
-53.839195251464844,-49.91189956665039,11.377838134765625
-52.720947265625,-52.96898651123047,11.582199096679688
-49.851463317871094,-54.28268051147461,11.421998023986816
-43.943382263183594,-51.88764190673828,10.537786483764648
-41.88957595825195,-53.69567108154297,10.554427146911621
-40.77153778076172,-56.83032989501953,10.839632987976074
-39.5592155456543,-60.09880828857422,11.150691986083984
-34.25931167602539,-56.899803161621094,10.29328441619873
-18.124610900878906,-33.03696823120117,5.8399152755737305
-16.022436141967773,-32.20974349975586,5.575313568115234
-14.096444129943848,-31.44618034362793,5.340738296508789
-12.325338363647461,-30.748367309570312,5.133916854858398
-11.568154335021973,-32.5935173034668,5.360013484954834
-10.770249366760254,-34.71012496948242,5.632331848144531
-9.870798110961914,-37.0025749206543,5.935130596160889
-8.88070297241211,-39.619056701660156,6.292458534240723
-7.7612175941467285,-42.57235336303711,6.706540107727051
-6.089555740356445,-43.16727828979492,6.756229400634766
-4.210603713989258,-41.98160171508789,6.538879871368408
-2.444406032562256,-40.84077835083008,6.340763092041016
-0.7789500951766968,-39.73954772949219,6.159955024719238
0.7531355619430542,-36.58423614501953,5.670966625213623
2.273533344268799,-37.36933135986328,5.802148818969727
3.6837830543518066,-36.3684196472168,5.665159225463867
5.064458847045898,-35.646881103515625,5.5799736976623535
6.358425140380859,-34.684200286865234,5.464881420135498
7.597763538360596,-33.73989486694336,5.359892845153809
8.787391662597656,-32.811527252197266,5.264279842376709
9.931729316711426,-31.8968505859375,5.177408695220947
10.224971771240234,-28.7193603515625,4.724557876586914
11.18605899810791,-27.826866149902344,4.647963523864746
13.023880958557129,-28.97705078125,4.923561096191406
14.014901161193848,-28.104589462280273,4.867121696472168
14.370676040649414,-26.133399963378906,4.622075080871582
16.042654037475586,-26.58527183532715,4.812178611755371
16.653419494628906,-25.245914459228516,4.687148094177246
17.86050033569336,-24.84360694885254,4.7419328689575195
13.862135887145996,-17.733030319213867,3.488285541534424
19.598447799682617,-23.09544563293457,4.694328308105469
20.442045211791992,-22.215225219726562,4.678684234619141
21.270902633666992,-21.32894515991211,4.668356895446777
18.008169174194336,-16.661638259887695,3.802196979522705
21.99638557434082,-18.76914405822754,4.481319427490234
23.222461700439453,-18.255460739135742,4.57788610458374
24.46894645690918,-17.692459106445312,4.679604530334473
25.246063232421875,-16.752389907836914,4.695624828338623
26.01683807373047,-15.796467781066895,4.717056751251221
26.782541275024414,-14.822796821594238,4.74400520324707
25.92658233642578,-13.017099380493164,4.496061325073242
27.611425399780273,-12.500654220581055,4.697293281555176
28.864242553710938,-11.694549560546875,4.826542854309082
29.617050170898438,-10.635616302490234,4.876983642578125
30.371110916137695,-9.547539710998535,4.933957099914551
31.12773323059082,-8.427431106567383,4.997797012329102
32.10646438598633,-7.321929931640625,5.103553771972656
32.87764358520508,-6.119899749755859,5.182842254638672
33.65576171875,-4.875180721282959,5.270351409912109
34.44244384765625,-3.583552360534668,5.366644382476807
35.23939514160156,-2.2403600215911865,5.47236967086792
36.04850387573242,-0.8403847217559814,5.588253498077393
36.871795654296875,0.622215747833252,5.7151408195495605
37.71147155761719,2.1539783477783203,5.853986740112305
38.307899475097656,3.736731767654419,5.965073108673096
39.1819953918457,5.418495178222656,6.13015079498291
40.08051300048828,7.194123268127441,6.310883045196533
41.287437438964844,9.136611938476562,6.5534515380859375
42.25202941894531,11.147926330566406,6.772228240966797
43.25297164916992,13.291927337646484,7.012650489807129
44.27863311767578,15.57973575592041,7.274620056152344
46.6712532043457,18.560495376586914,7.784017562866211
47.170249938964844,20.99095344543457,8.0015287399292
47.7183723449707,23.575088500976562,8.24862289428711
49.015872955322266,26.717384338378906,8.651591300964355
50.37960433959961,30.146787643432617,9.098875999450684
51.842105865478516,33.92225646972656,9.601563453674316
53.42110824584961,38.105613708496094,10.169529914855957
50.35118103027344,39.060218811035156,9.876083374023438
57.02314758300781,48.026432037353516,11.55413818359375
59.11023712158203,53.9886360168457,12.406783103942871
59.58501052856445,58.983680725097656,12.993664741516113
41.72159957885742,44.759185791015625,9.482950210571289
37.56548309326172,43.69534683227539,8.930374145507812
46.295509338378906,75.61520385742188,13.740678787231445
-45.17282485961914,-39.797142028808594,9.84320068359375
-53.34856414794922,-50.9493293762207,12.06129264831543
-51.95332336425781,-53.770057678222656,12.224714279174805
-46.41340637207031,-52.068965911865234,11.404513359069824
-42.590614318847656,-51.830291748046875,10.968345642089844
-41.40384292602539,-54.7282600402832,11.220287322998047
-35.48916244506836,-51.04969787597656,10.165401458740234
-37.38677978515625,-58.675750732421875,11.375452041625977
-32.89513397216797,-56.51476287841797,10.691476821899414
-17.188444137573242,-32.463565826416016,6.005882263183594
-15.176210403442383,-31.678569793701172,5.743141174316406
-13.326733589172363,-30.951255798339844,5.509696006774902
-12.007156372070312,-31.290996551513672,5.479819297790527
-11.257373809814453,-33.27593994140625,5.743533134460449
-10.414934158325195,-35.41289138793945,6.035225868225098
-9.494837760925293,-37.83868408203125,6.378432750701904
-8.505805969238281,-40.77141189575195,6.809658050537109
-7.161363124847412,-42.87793731689453,7.107657432556152
-5.255894660949707,-41.72406768798828,6.875808238983154
-3.4656171798706055,-40.61288833618164,6.66434907913208
-1.778281569480896,-39.539363861083984,6.471229553222656
-0.1748061180114746,-36.69709777832031,6.000056266784668
1.318861961364746,-37.220848083496094,6.08944034576416
2.7452054023742676,-36.243125915527344,5.942737579345703
4.133677005767822,-35.5426139831543,5.850395202636719
5.440724849700928,-34.60125732421875,5.7268266677856445
6.691722869873047,-33.67748260498047,5.613921642303467
7.891661643981934,-32.76896667480469,5.510913848876953
9.045044898986816,-31.87356948852539,5.417112350463867
10.15585708618164,-30.989362716674805,5.331919193267822
10.438976287841797,-27.99886703491211,4.885648250579834
11.669349670410156,-27.82891845703125,4.933872222900391
13.159745216369629,-28.154735565185547,5.081330299377441
14.125529289245605,-27.304542541503906,5.026317596435547
14.308457374572754,-25.129981994628906,4.728091239929199
16.10746955871582,-25.818967819213867,4.975537300109863
17.0057373046875,-24.966215133666992,4.938967704772949
17.883054733276367,-24.112085342407227,4.908265113830566
18.741273880004883,-23.255172729492188,4.8832597732543945
19.582117080688477,-22.39409637451172,4.863832950592041
20.407196044921875,-21.527454376220703,4.849882125854492
21.218040466308594,-20.653850555419922,4.841335773468018
21.572860717773438,-19.373760223388672,4.740752696990967
22.408300399780273,-18.553264617919922,4.756580352783203
23.579336166381836,-17.976512908935547,4.847827434539795
22.374549865722656,-15.677933692932129,4.466938018798828
25.107328414916992,-16.129016876220703,4.879110336303711
25.861173629760742,-15.181501388549805,4.903038024902344
25.046894073486328,-13.380729675292969,4.642919540405273
26.56982421875,-12.850137710571289,4.825560092926025
27.905414581298828,-12.138166427612305,4.975478172302246
25.527435302734375,-9.904308319091797,4.476876258850098
29.375164031982422,-10.059319496154785,5.0766496658325195
30.11052131652832,-8.976999282836914,5.137209892272949
31.02303695678711,-7.907036304473877,5.234431266784668
31.804420471191406,-6.758303165435791,5.316134452819824
32.554542541503906,-5.5613884925842285,5.399783611297607
33.310630798339844,-4.321658611297607,5.491939544677734
34.07415771484375,-3.0349934101104736,5.593185901641846
34.8466911315918,-1.6967763900756836,5.704190254211426
36.42576599121094,1.1554296016693115,5.958613395690918
37.23613739013672,2.6815743446350098,6.103882312774658
37.804630279541016,4.2547078132629395,6.220086097717285
38.64521408081055,5.9298095703125,6.392452239990234
37.40945053100586,7.289159297943115,6.231478691101074
40.671146392822266,9.635309219360352,6.833794593811035
41.59283447265625,11.636656761169434,7.061570644378662
42.546913146972656,13.768997192382812,7.31162691116333
43.52140426635742,16.042757034301758,7.583810329437256
47.433109283447266,19.683353424072266,8.396557807922363
46.985870361328125,21.749605178833008,8.46533489227295
46.77177429199219,23.977100372314453,8.593494415283203
47.97239685058594,27.07935333251953,9.0068359375
49.266021728515625,30.481992721557617,9.472146034240723
50.62832260131836,34.21125793457031,9.990437507629395
25.261632919311523,18.59079360961914,5.128198623657227
24.561311721801758,19.644062042236328,5.1422014236450195
55.40934753417969,48.09019088745117,11.995685577392578
57.31596374511719,53.93107604980469,12.867454528808594
42.691043853759766,43.532981872558594,9.969026565551758
57.06077194213867,63.065589904785156,13.905403137207031
57.11009979248047,68.45801544189453,14.5763578414917
36.42210006713867,47.40826416015625,9.77468490600586
43.032691955566406,72.68592071533203,13.810750961303711
-61.656822204589844,-52.715694427490234,13.263198852539062
-53.919105529785156,-49.98596954345703,12.021294593811035
-52.638450622558594,-52.8861083984375,12.199956893920898
-48.61114501953125,-52.93212890625,11.75025749206543
-42.932769775390625,-50.69432830810547,10.861555099487305
-41.819610595703125,-53.60599899291992,11.116193771362305
-40.67427444458008,-56.69474792480469,11.408398628234863
-39.17707824707031,-59.51824951171875,11.650199890136719
-34.197025299072266,-56.79636001586914,10.83953857421875
-17.978160858154297,-32.77001190185547,6.111254692077637
-15.898783683776855,-31.961170196533203,5.8364949226379395
-13.99220085144043,-31.213638305664062,5.592743873596191
-12.236451148986816,-30.526630401611328,5.377163410186768
-10.749134063720703,-30.285913467407227,5.254393577575684
-10.745223999023438,-34.629451751708984,5.928229331970215
-9.846595764160156,-36.911842346191406,6.2461371421813965
-8.857623100280762,-39.51606750488281,6.621209621429443
-7.739718914031982,-42.45444869995117,7.055720329284668
-5.945314407348633,-42.14484405517578,6.958917617797852
-4.114007949829102,-41.018516540527344,6.740181922912598
-2.389988660812378,-39.93163299560547,6.540513515472412
-0.7621024250984192,-38.87959289550781,6.358044624328613
0.7499194145202637,-36.428592681884766,5.957347393035889
2.226802349090576,-36.60131072998047,5.995388984680176
3.6098313331604004,-35.63825988769531,5.8566789627075195
4.964975357055664,-34.94662857055664,5.771162509918213
6.23604154586792,-34.01664733886719,5.654417514801025
7.45429801940918,-33.102752685546875,5.5478363037109375
8.62436294555664,-32.2027702331543,5.450708866119385
9.750456809997559,-31.314638137817383,5.362404823303223
10.101837158203125,-28.37350845336914,4.924325942993164
11.165754318237305,-27.776365280151367,4.894646644592285
12.795832633972168,-28.469646453857422,5.103343486785889
13.772261619567871,-27.618003845214844,5.045856475830078
14.17791748046875,-25.782855987548828,4.810825347900391
15.770158767700195,-26.133712768554688,4.9905548095703125
16.67665672302246,-25.28112030029297,4.951777935028076
17.561471939086914,-24.427671432495117,4.918928623199463
13.90247917175293,-17.784645080566406,3.6908087730407715
19.273574829101562,-22.712608337402344,4.870365142822266
20.104293823242188,-21.848173141479492,4.854401588439941
20.920223236083984,-20.977310180664062,4.843864440917969
18.065837860107422,-16.71500015258789,4.024117469787598
22.067852020263672,-18.830120086669922,4.743091583251953
23.293718338012695,-18.311466217041016,4.844425678253174
24.064584732055664,-17.400075912475586,4.855341911315918
24.82744598388672,-16.47461700439453,4.871688365936279
25.583511352539062,-15.533366203308105,4.893549919128418
26.333955764770508,-14.574530601501465,4.92103910446167
25.924095153808594,-13.015851974487305,4.742834568023682
27.633617401123047,-12.510713577270508,4.959569454193115
28.369234085083008,-11.493988037109375,5.004612445831299
29.103899002075195,-10.451342582702637,5.056012153625488
29.838850021362305,-9.380216598510742,5.114044189453125
30.575284957885742,-8.277864456176758,5.179037570953369
31.5286865234375,-7.190166473388672,5.287295818328857
32.276973724365234,-6.008087158203125,5.3679351806640625
33.030677795410156,-4.784638404846191,5.456886291503906
33.791282653808594,-3.515800952911377,5.554704189300537
34.560298919677734,-2.1971864700317383,5.662023067474365
35.33938980102539,-0.8238537311553955,5.779567718505859
36.130348205566406,0.609705924987793,5.9081597328186035
36.93510437011719,2.109632968902588,6.048737049102783
37.49922180175781,3.6578495502471924,6.160229206085205
38.33246612548828,5.301013946533203,6.327012062072754
37.82801818847656,6.789828300476074,6.2837324142456055
40.33819580078125,8.92655086517334,6.754861354827881
41.24897384643555,10.883275985717773,6.97500467300415
42.19061279296875,12.9654541015625,7.216541767120361
43.151039123535156,15.182985305786133,7.479198932647705
44.03748321533203,17.513080596923828,7.748618125915527
47.24103927612305,21.02245330810547,8.454181671142578
46.54885482788086,22.99728775024414,8.488913536071777
47.52104949951172,25.90259552001953,8.848968505859375
48.78572082519531,29.19301986694336,9.295502662658691
50.11435317993164,32.79172134399414,9.791938781738281
25.836660385131836,18.429445266723633,5.1888532638549805
24.46092414855957,18.9757080078125,5.0616865158081055
51.62022399902344,43.47593688964844,11.03451156616211
56.5892333984375,51.686065673828125,12.530767440795898
57.410316467285156,56.8309326171875,13.207843780517578
41.88631820678711,44.935909271240234,10.043895721435547
37.54383850097656,43.67017364501953,9.416009902954102
58.05271530151367,73.2867431640625,15.28624153137207
46.31140899658203,75.64118194580078,14.501230239868164
33.536197662353516,81.89948272705078,14.469736099243164
-81.09358215332031,-55.67835998535156,16.923748016357422
-45.29800796508789,-39.907432556152344,10.386343002319336
-53.265933990478516,-50.87042236328125,12.672000885009766
-50.57829284667969,-52.34696578979492,12.52316665649414
-47.98908615112305,-53.83662033081055,12.407959938049316
-42.74836730957031,-52.02226638793945,11.58434009552002
-41.33397674560547,-54.635894775390625,11.78677749633789
-40.192481994628906,-57.81523132324219,12.114291191101074
-34.87036895751953,-54.726417541503906,11.164305686950684
-19.23170280456543,-33.04060363769531,6.5773091316223145
-17.05265235900879,-32.20709991455078,6.269844055175781
-15.061508178710938,-31.43916893005371,5.997624397277832
-13.230088233947754,-30.726797103881836,5.755606174468994
-11.698346138000488,-30.486236572265625,5.617914199829102
-10.367799758911133,-30.646419525146484,5.566125392913818
-10.390251159667969,-35.32897186279297,6.335598945617676
-9.471063613891602,-37.7439079284668,6.694980621337891
-8.483187675476074,-40.662986755371094,7.146495342254639
-6.991750717163086,-41.86246109008789,7.302001953125
-5.135383129119873,-40.76743698120117,7.069270133972168
-3.3885462284088135,-39.709720611572266,6.856700897216797
-1.7398626804351807,-38.68499755859375,6.66229772567749
-0.17302268743515015,-36.3226318359375,6.249208450317383
1.291825532913208,-36.45773696899414,6.2763214111328125
2.690256357192993,-35.51759338378906,6.128144264221191
4.05275821685791,-34.84679412841797,6.035638332366943
5.336429119110107,-33.937904357910156,5.910598278045654
6.5659098625183105,-33.04433059692383,5.796267509460449
7.745971202850342,-32.16398620605469,5.69187068939209
8.880845069885254,-31.294958114624023,5.596749782562256
9.97434139251709,-30.43549156188965,5.5103044509887695
10.444841384887695,-28.01456642150879,5.143870830535889
11.952818870544434,-28.504920959472656,5.317844867706299
12.933643341064453,-27.670978546142578,5.255028247833252
13.885406494140625,-26.840396881103516,5.19910192489624
14.121786117553711,-24.802120208740234,4.910292625427246
15.838523864746094,-25.387866973876953,5.14815616607666
16.72385025024414,-24.552356719970703,5.110946178436279
17.588428497314453,-23.7148380279541,5.079695701599121
18.434051513671875,-22.873958587646484,5.05424690246582
19.262374877929688,-22.0284423828125,5.034463405609131
20.074922561645508,-21.17694091796875,5.020257949829102
20.87316131591797,-20.318140029907227,5.011553764343262
21.642179489135742,-19.43600845336914,5.004549980163574
22.43221092224121,-18.57305335998535,5.010512828826904
23.195575714111328,-17.683935165405273,5.0181660652160645
22.448049545288086,-15.729438781738281,4.7158355712890625
24.696102142333984,-15.864849090576172,5.050018310546875
25.435565948486328,-14.931645393371582,5.074375152587891
24.969406127929688,-13.339330673217773,4.870459079742432
26.679733276367188,-12.903295516967773,5.098768711090088
27.43634605407715,-11.934137344360352,5.147509574890137
25.01877784729004,-9.706962585449219,4.61698579788208
26.680908203125,-9.136677742004395,4.8520097732543945
29.58821678161621,-8.821285247802734,5.3119306564331055
30.513139724731445,-7.7770795822143555,5.417471885681152
31.237682342529297,-6.637867450714111,5.494290351867676
31.96547508239746,-5.460756301879883,5.5791778564453125
32.69779586791992,-4.242144584655762,5.672642230987549
33.43590545654297,-2.9781453609466553,5.775265216827393
34.181270599365234,-1.6643741130828857,5.887692928314209
35.69978713989258,1.132401466369629,6.145066738128662
36.476280212402344,2.626851797103882,6.2918243408203125
37.01353073120117,4.165673732757568,6.408205032348633
37.81460189819336,5.802359580993652,6.581965446472168
37.11064147949219,7.230933666229248,6.504786968231201
39.744205474853516,9.415698051452637,7.027067184448242
40.614051818847656,11.362832069396973,7.255765914916992
41.511077880859375,13.433788299560547,7.506449222564697
42.42298889160156,15.637857437133789,7.7787580490112305
47.54179763793945,19.728452682495117,8.855637550354004
47.0567741394043,21.782432556152344,8.921201705932617
46.36240768432617,23.767248153686523,8.96347713470459
46.54123306274414,26.271488189697266,9.19482135772705
27.954805374145508,17.296260833740234,5.655642509460449
26.328174591064453,17.79082679748535,5.4668378829956055
24.789148330688477,18.243078231811523,5.295286655426025
24.392011642456055,19.508655548095703,5.373652458190918
51.2232551574707,44.45704650878906,11.66900634765625
54.90485382080078,51.66236114501953,12.970368385314941
42.600006103515625,43.440147399902344,10.467666625976562
54.174808502197266,59.875938415527344,13.892108917236328
54.22748565673828,65.0026626586914,14.563987731933594
36.310054779052734,47.262420654296875,10.253900527954102
43.1032600402832,72.80509948730469,14.556371688842773
-67.66034698486328,-49.02377700805664,14.375060081481934
-62.1036491394043,-53.097747802734375,14.057520866394043
-54.350433349609375,-50.38584518432617,12.750758171081543
-51.974098205566406,-52.2186164855957,12.675541877746582
-48.255985260009766,-52.54536437988281,12.274031639099121
-44.59955596923828,-52.66242218017578,11.87293815612793
-41.749698638916016,-53.51637268066406,11.677610397338867
-40.6044807434082,-56.59748458862305,11.984041213989258
-35.465850830078125,-53.880123138427734,11.097784042358398
-33.24831771850586,-55.22067642211914,11.089618682861328
-17.83365821838379,-32.50662612915039,6.378960609436035
-15.776702880859375,-31.715747833251953,6.094369888305664
-13.889208793640137,-30.983888626098633,5.841721534729004
-12.148614883422852,-30.3074951171875,5.6175737380981445
-10.677278518676758,-30.083467483520508,5.492047309875488
-10.720240592956543,-34.548954010009766,6.22355842590332
-9.82244873046875,-36.82131576538086,6.556460857391357
-8.834595680236816,-39.41335678100586,6.949145317077637
-7.707404136657715,-42.27717590332031,7.3934736251831055
-5.8073954582214355,-41.16715621948242,7.152738571166992
-4.021486282348633,-40.0961799621582,6.932965278625488
-2.337796211242676,-39.059749603271484,6.732072830200195
-0.7057573795318604,-36.00553512573242,6.195775508880615
0.7467398047447205,-36.27389144897461,6.242077827453613
2.1818466186523438,-35.86225509643555,6.181340217590332
3.5640954971313477,-35.18667221069336,6.0846757888793945
4.869067192077637,-34.271568298339844,5.955472946166992
6.117964267730713,-33.372596740722656,5.837284088134766
7.315766334533691,-32.48760223388672,5.729299545288086
8.466835975646973,-31.61461639404297,5.630830764770508
9.575199127197266,-30.75181007385254,5.541247367858887
10.107043266296387,-28.388126373291016,5.184358596801758
11.17516803741455,-27.79977035522461,5.154792308807373
12.575043678283691,-27.978404998779297,5.277400016784668
13.537253379821777,-27.14673614501953,5.218967437744141
13.989760398864746,-25.44068717956543,4.995068073272705
15.506063461303711,-25.696067810058594,5.163435459136963
16.399505615234375,-24.86098861694336,5.123979568481445
17.271528244018555,-24.02436637878418,5.090550422668457
13.943175315856934,-17.836698532104492,3.8950719833374023
18.958450317382812,-22.34125328063965,5.041115760803223
19.776657104492188,-21.492107391357422,5.024859428405762
20.58000946044922,-20.63616943359375,5.014133453369141
18.124038696289062,-16.768850326538086,4.248075485229492
22.13997459411621,-18.89166831970215,5.007297039031982
22.91486167907715,-18.01364517211914,5.014705657958984
23.672332763671875,-17.11644744873047,5.025816917419434
24.42142105102539,-16.20518684387207,5.0424604415893555
25.16327667236328,-15.27821159362793,5.06471586227417
24.37779998779297,-13.49189567565918,4.793578624725342
26.02948570251465,-13.068767547607422,5.010997772216797
27.170576095581055,-12.301080703735352,5.131326675415039
24.844676971435547,-10.065988540649414,4.611911296844482
26.373126983642578,-9.470699310302734,4.8210649490356445
29.32355308532715,-9.218230247497559,5.288390636444092
30.24239158630371,-8.187734603881836,5.390376567840576
30.9698543548584,-7.062722206115723,5.465013027191162
31.69629669189453,-5.90000057220459,5.5468668937683105
32.426788330078125,-4.697159290313721,5.637101173400879
33.1626091003418,-3.450392961502075,5.736269950866699
33.90513610839844,-2.1555335521698,5.844993591308594
34.65582275390625,-0.8079166412353516,5.963989734649658
35.41623306274414,0.5976549386978149,6.094062805175781
36.18806076049805,2.066964626312256,6.236131191253662
36.72190856933594,3.5820300579071045,6.347815990447998
37.51683807373047,5.188221454620361,6.516018390655518
36.774776458740234,6.600778579711914,6.42803955078125
39.42925262451172,8.725403785705566,6.947720527648926
40.28990173339844,10.630233764648438,7.168890476226807
41.176490783691406,12.653806686401367,7.4111785888671875
42.07662582397461,14.804947853088379,7.674127578735352
42.89923858642578,17.06041717529297,7.942841529846191
47.312232971191406,21.054134368896484,8.90943431854248
46.61928939819336,23.03209114074707,8.946088790893555
45.99159622192383,25.068927764892578,9.011756896972656
47.26771926879883,28.28466033935547,9.476968765258789
26.917938232421875,17.613426208496094,5.534429550170898
25.347803115844727,18.08074188232422,5.356733798980713
23.858827590942383,18.50862693786621,5.195122718811035
24.268850326538086,20.43988037109375,5.458927154541016
54.26841735839844,49.56633758544922,12.644906997680664
55.9176025390625,55.35326385498047,13.536768913269043
55.32051467895508,59.348201751708984,13.958555221557617
37.69096755981445,43.84129333496094,9.946943283081055
54.01545715332031,68.19004821777344,14.966506958007812
46.34939193725586,75.70319366455078,15.27161979675293
33.444095611572266,81.67453002929688,15.1841459274292
