19.807384490966797,81.62071990966797,18.07155418395996
16.515535354614258,82.36482238769531,18.074689865112305
13.340455055236816,83.88572692871094,18.27598762512207
10.14145565032959,85.89126586914062,18.609098434448242
7.00338077545166,90.364013671875,19.501388549804688
3.5919981002807617,96.6043701171875,20.800134658813477
-0.24127817153930664,79.9820785522461,17.209339141845703
-3.385159492492676,78.31432342529297,16.86615753173828
-6.379495620727539,76.33362579345703,16.481504440307617
-7.952830791473389,64.03519439697266,13.883918762207031
-10.418231010437012,63.05569076538086,13.751251220703125
-13.092324256896973,63.30916213989258,13.910077095031738
-17.244157791137695,69.23297119140625,15.351564407348633
-21.701231002807617,74.2676010131836,16.647945404052734
-24.644275665283203,73.26803588867188,16.632526397705078
-65.84983825683594,68.39118957519531,20.427608489990234
-66.40450286865234,63.64026641845703,19.789981842041016
-64.98835754394531,57.45655059814453,18.664447784423828
-63.77021408081055,51.9686393737793,17.70026397705078
-69.88906860351562,52.427650451660156,18.798412322998047
-73.57527160644531,50.705657958984375,19.226055145263672
-77.32077026367188,48.82554626464844,19.675962448120117
-26.31620216369629,-89.60005950927734,20.093034744262695
-0.2987802028656006,-67.87531280517578,14.604459762573242
7.114643096923828,-93.48001098632812,20.171693801879883
10.695497512817383,-91.67417907714844,19.85877227783203
14.144857406616211,-89.74526977539062,19.548316955566406
40.31330490112305,-70.74266052246094,17.519268035888672
40.58042526245117,-64.9946517944336,16.486494064331055
43.032711029052734,-63.12736511230469,16.43840789794922
44.037803649902344,-59.332275390625,15.89834213256836
46.43278884887695,-57.573699951171875,15.914473533630371
49.48516845703125,-56.55000686645508,16.168373107910156
64.92044067382812,-68.43480682373047,20.296228408813477
64.2738265991211,-62.5195426940918,19.292682647705078
68.33576202392578,-61.325111389160156,19.75592613220215
69.84801483154297,-57.78915786743164,19.505695343017578
67.49205017089844,-51.416282653808594,18.255752563476562
71.06963348388672,-49.760414123535156,18.66724395751953
67.86795806884766,-43.56395721435547,17.352245330810547
63.50696563720703,-37.25017547607422,15.841547966003418
66.61458587646484,-35.55634307861328,16.247026443481445
70.08537292480469,-33.864532470703125,16.74794578552246
77.1320571899414,-33.51736068725586,18.095232009887695
77.73918914794922,-30.12944984436035,17.93899154663086
78.24610900878906,-26.763107299804688,17.79330062866211
78.6551284790039,-23.418790817260742,17.65794563293457
78.96835327148438,-20.09670066833496,17.532726287841797
50.58665466308594,-10.730259895324707,11.126590728759766
49.41102600097656,-8.422574996948242,10.784819602966309
50.121551513671875,-6.48421049118042,10.874220848083496
50.05047607421875,-4.439736366271973,10.811341285705566
52.86993408203125,-2.5551581382751465,11.388982772827148
62.32810974121094,1.9995980262756348,13.417661666870117
64.77418518066406,4.688267230987549,13.973527908325195
77.75001525878906,8.778804779052734,16.83530044555664
77.18798065185547,11.872448921203613,16.80338478088379
76.54348754882812,14.943044662475586,16.780305862426758
75.8168716430664,17.990489959716797,16.766027450561523
75.00838470458984,21.01470947265625,16.76053237915039
73.8868179321289,23.94064712524414,16.71148681640625
72.85523223876953,26.885648727416992,16.70914649963379
71.7911376953125,29.821632385253906,16.726552963256836
70.9561996459961,32.876529693603516,16.82638168334961
69.73763275146484,35.782161712646484,16.864927291870117
68.43607330322266,38.66324234008789,16.912403106689453
66.71783447265625,41.31316375732422,16.884605407714844
64.07864379882812,43.33390426635742,16.644147872924805
64.02655029296875,47.15482711791992,17.109207153320312
62.3856201171875,49.93291091918945,17.193269729614258
60.657447814941406,52.683589935302734,17.286767959594727
57.10311508178711,53.769798278808594,16.876256942749023
48.19454574584961,49.18061447143555,14.815797805786133
39.25183868408203,43.41413879394531,12.593059539794922
44.388614654541016,53.247901916503906,14.915826797485352
42.6829833984375,55.59914779663086,15.081597328186035
40.93760299682617,58.00934982299805,15.27660083770752
39.14499282836914,60.48896026611328,15.502629280090332
43.52568817138672,73.57925415039062,18.39417839050293
40.94572067260742,76.03133392333984,18.580638885498047
37.691925048828125,77.27346801757812,18.498929977416992
34.525978088378906,78.6537094116211,18.48212242126465
23.802337646484375,60.7445182800293,14.037609100341797
20.5120849609375,59.251625061035156,13.491145133972168
24.41948699951172,80.91751861572266,18.186067581176758
21.044816970825195,81.42913055419922,18.096267700195312
17.719879150390625,82.03800201416016,18.05867576599121
14.49658203125,83.18032836914062,18.16716766357422
11.391885757446289,85.56156921386719,18.57224464416504
8.125524520874023,87.89613342285156,18.992713928222656
4.995373249053955,95.97685241699219,20.678695678710938
1.1541852951049805,97.65050506591797,21.0123348236084
-2.2233901023864746,78.36968994140625,16.86911392211914
-5.231215000152588,76.1990737915039,16.433879852294922
-7.062066078186035,64.69636535644531,14.003009796142578
-9.525046348571777,63.49240493774414,13.8141508102417
-12.17432975769043,63.61471939086914,13.935992240905762
-14.65212631225586,62.78355026245117,13.871750831604004
-20.610824584960938,74.63101196289062,16.659029006958008
-23.559146881103516,73.63977813720703,16.6357364654541
-26.67984962463379,73.13154602050781,16.74970054626465
-13.90110969543457,62.527915954589844,14.340245246887207
-19.587491989135742,73.94588470458984,17.125619888305664
-22.598947525024414,73.28347778320312,17.168764114379883
-25.624494552612305,72.59965515136719,17.235973358154297
-65.91654968261719,66.45833587646484,20.955642700195312
-64.49982452392578,60.004730224609375,19.722400665283203
-63.32058334350586,54.32987594604492,18.678831100463867
-64.87995910644531,51.29026412963867,18.515605926513672
-70.5697021484375,51.319984436035156,19.534761428833008
-74.17575073242188,49.5126953125,19.9658203125
-77.91691589355469,47.60004425048828,20.441213607788086
-39.253936767578125,-85.23887634277344,21.009191513061523
-24.854801177978516,-89.51521301269531,20.79843521118164
4.552724361419678,-89.8690185546875,20.14527702331543
8.334419250488281,-91.53870391845703,20.57805061340332
11.810433387756348,-89.6537857055664,20.24469757080078
15.300833702087402,-88.51972961425781,20.11127471923828
38.505470275878906,-65.29898834228516,16.971229553222656
40.951141357421875,-63.47260284423828,16.910785675048828
42.945594787597656,-61.034156799316406,16.707618713378906
44.72273635864258,-58.4235954284668,16.471887588500977
47.45492935180664,-57.0867805480957,16.619457244873047
34.39491271972656,-38.14824295043945,11.499227523803711
63.497764587402344,-64.97676086425781,20.339370727539062
62.7330207824707,-59.23514938354492,19.315980911254883
66.76554870605469,-58.1511344909668,19.821754455566406
68.21209716796875,-54.751522064208984,19.581905364990234
69.53864288330078,-51.36305618286133,19.354276657104492
69.96284484863281,-47.454505920410156,18.926071166992188
66.91419982910156,-41.563106536865234,17.635089874267578
64.540771484375,-36.58062744140625,16.608572006225586
67.8851089477539,-34.950504302978516,17.09379005432129
71.43722534179688,-33.219688415527344,17.63768196105957
75.15479278564453,-31.34107208251953,18.229713439941406
75.72662353515625,-28.064510345458984,18.08013153076172
76.2009506225586,-24.807151794433594,17.940765380859375
67.10892486572266,-18.90185546875,15.60861587524414
51.43019104003906,-12.279090881347656,11.837578773498535
50.20116424560547,-9.872605323791504,11.454082489013672
48.4308967590332,-7.517979145050049,10.972357749938965
50.16327667236328,-5.734379768371582,11.303472518920898
49.49578094482422,-3.651409864425659,11.111011505126953
54.40057373046875,-1.8207435607910156,12.185781478881836
59.05214309692383,0.39712977409362793,13.220635414123535
62.844295501708984,2.9499874114990234,14.084798812866211
63.62565612792969,5.555119514465332,14.298420906066895
75.47895812988281,9.65843677520752,17.035675048828125
74.90567016601562,12.661684036254883,17.00743865966797
63.970436096191406,13.476655960083008,14.635780334472656
73.51575469970703,18.60070037841797,16.977022171020508
72.69967651367188,21.53606414794922,16.974796295166016
71.80303955078125,24.44834327697754,16.981216430664062
70.82579803466797,27.337255477905273,16.996295928955078
69.7678451538086,30.20246124267578,17.02005386352539
68.62895202636719,33.043601989746094,17.05252456665039
67.40876007080078,35.860321044921875,17.09375
66.10680389404297,38.65209197998047,17.143798828125
64.40101623535156,41.212642669677734,17.117294311523438
63.255149841308594,44.1585807800293,17.270645141601562
61.70403289794922,46.87197494506836,17.347623825073242
60.0682258605957,49.55779266357422,17.433794021606445
58.34673309326172,52.21515655517578,17.529279708862305
51.015037536621094,49.48530578613281,15.911439895629883
54.39814758300781,57.18402862548828,17.669403076171875
45.878517150878906,52.282135009765625,15.572247505187988
44.17873764038086,54.62376403808594,15.727980613708496
42.443355560302734,57.01877975463867,15.913414001464844
40.665191650390625,59.477203369140625,16.130226135253906
43.7933235168457,69.92475891113281,18.471193313598633
32.67331314086914,57.15175247192383,14.738207817077637
38.78573989868164,74.65271759033203,18.833988189697266
35.778358459472656,76.19904327392578,18.845985412597656
32.68514633178711,77.56684112548828,18.844057083129883
29.498065948486328,78.69780731201172,18.815507888793945
26.179058074951172,79.41324615478516,18.71979522705078
18.03732681274414,63.1412239074707,14.70124626159668
19.48383140563965,80.28748321533203,18.49610137939453
16.241458892822266,80.9980239868164,18.494426727294922
13.142755508422852,82.64250946044922,18.7341251373291
9.971976280212402,84.45596313476562,19.038965225219727
6.94834566116333,89.6537857055664,20.131488800048828
3.4697160720825195,93.31538391113281,20.905475616455078
-0.23911762237548828,79.26927185058594,17.746536254882812
-3.389767646789551,78.42115783691406,17.572975158691406
-5.470932960510254,65.46232604980469,14.706509590148926
-7.977934837341309,64.23731994628906,14.49165153503418
-10.416522026062012,63.04527282714844,14.305651664733887
-13.133453369140625,63.50802993774414,14.518735885620117
-17.3940372467041,69.83477020263672,16.11196517944336
-21.67327880859375,74.17198944091797,17.299678802490234
-24.438365936279297,72.65585327148438,17.161359786987305
-65.25666809082031,67.77513885498047,21.063234329223633
-64.95574951171875,62.251808166503906,20.14200782775879
-63.74705505371094,56.35911178588867,19.04921531677246
-63.66940689086914,51.8864860534668,18.387805938720703
-69.23696899414062,51.93845748901367,19.377023696899414
-72.82943725585938,50.19168472290039,19.80171012878418
-76.51886749267578,48.31916809082031,20.260282516479492
-26.32710075378418,-89.63717651367188,20.91522979736328
-0.2988438606262207,-67.88740539550781,15.198478698730469
6.928633213043213,-91.0360107421875,20.439680099487305
10.540903091430664,-90.34892272949219,20.36411476135254
13.943527221679688,-88.46788787841797,20.050291061401367
40.05271911621094,-64.14945983886719,16.930932998657227
42.474693298339844,-62.30882263183594,16.882190704345703
43.7255744934082,-58.9116325378418,16.424755096435547
46.44038009643555,-57.5831184387207,16.561534881591797
34.91865921020508,-39.903873443603516,11.870965957641602
33.96981430053711,-35.8087158203125,11.050052642822266
64.58358764648438,-62.82086944580078,20.17055320739746
66.20037078857422,-59.4088020324707,19.91346549987793
67.69214630126953,-56.005489349365234,19.669025421142578
67.47258758544922,-51.40147399902344,18.989425659179688
70.31517028808594,-49.232177734375,19.21685218811035
67.9896011352539,-43.64202117919922,18.087167739868164
65.19691467285156,-38.24140548706055,16.921560287475586
66.62770080566406,-35.56333923339844,16.908172607421875
70.09957122802734,-33.87141036987305,17.429574966430664
74.9185791015625,-32.555519104003906,18.287565231323242
75.5269546508789,-29.272056579589844,18.134153366088867
76.03705596923828,-26.007530212402344,17.99103546142578
76.450927734375,-22.762502670288086,17.858015060424805
51.52973175048828,-13.113825798034668,11.903962135314941
50.645286560058594,-10.74270248413086,11.590514183044434
49.46653366088867,-8.432050704956055,11.234088897705078
49.57358932495117,-6.413314342498779,11.190802574157715
49.66758728027344,-4.405774116516113,11.163022994995117
52.88747024536133,-2.5560038089752197,11.854034423828125
62.35242462158203,2.000380039215088,13.966365814208984
63.3411865234375,4.5845489501953125,14.21763801574707
64.10057067871094,7.237630844116211,14.441740989685059
75.12681579589844,11.555418014526367,17.0168514251709
74.50225067138672,14.544546127319336,16.99410057067871
73.79669189453125,17.511117935180664,16.98002815246582
73.0103988647461,20.4549503326416,16.974609375
72.14347839355469,23.375776290893555,16.97783851623535
71.19599151611328,26.273344039916992,16.98971939086914
70.16786193847656,29.1473331451416,17.010271072387695
69.05890655517578,31.99744987487793,17.039518356323242
67.86878204345703,34.82326126098633,17.077505111694336
66.5970458984375,37.62428665161133,17.12428855895996
64.91913604736328,40.19937515258789,17.0946102142334
63.806617736816406,43.149967193603516,17.24451446533203
62.286529541015625,45.87332534790039,17.318145751953125
60.682106018066406,48.569435119628906,17.400907516479492
58.99235153198242,51.23738098144531,17.492938995361328
56.77043533325195,53.4565315246582,17.457246780395508
55.10538864135742,56.2328987121582,17.62619400024414
39.290122985839844,43.45648193359375,13.11571216583252
44.810081481933594,53.7535285949707,15.667110443115234
43.08867645263672,56.127655029296875,15.841389656066895
41.327186584472656,58.561439514160156,16.04639434814453
44.67487716674805,69.03406524658203,18.408979415893555
42.25657272338867,71.43385314941406,18.58087921142578
39.74008560180664,73.79261779785156,18.76368522644043
36.91905975341797,75.68903350830078,18.85325050354004
33.73274612426758,76.84664916992188,18.788616180419922
23.854970932006836,60.87881851196289,14.638263702392578
20.52354621887207,59.28472137451172,14.045220375061035
24.06883430480957,79.75555419921875,18.650671005249023
20.71856117248535,80.16676330566406,18.537059783935547
17.43319320678711,80.71080780029297,18.48586654663086
14.27688217163086,81.91963195800781,18.616230010986328
11.22762393951416,84.32779693603516,19.04554557800293
8.023750305175781,86.79529571533203,19.51420021057129
4.826253414154053,92.72769165039062,20.787540435791016
1.1144986152648926,94.29317474365234,21.11141586303711
-2.223006010055542,78.35606384277344,17.5490665435791
-5.346582889556885,77.8795394897461,17.47636604309082
-7.060877323150635,64.68548583984375,14.567522048950195
-9.523459434509277,63.481876373291016,14.371077537536621
-11.982582092285156,62.612709045410156,14.271842956542969
-14.541964530944824,62.311527252197266,14.324880599975586
-20.625686645507812,74.68476867675781,17.345998764038086
-23.362274169921875,73.02438354492188,17.164642333984375
-14.020044326782227,63.062923431396484,15.02783489227295
-19.687484741210938,74.32334899902344,17.885351181030273
-22.711923599243164,73.64990234375,17.92853355407715
-25.4364013671875,72.0667495727539,17.777721405029297
-66.39555358886719,66.9412612915039,21.932350158691406
-60.151920318603516,55.95979690551758,19.111309051513672
-62.1522102355957,53.327430725097656,19.05027198791504
-64.86854553222656,51.2812385559082,19.23540687561035
-69.8638687133789,50.80668640136719,20.0947322845459
-73.42253112792969,49.00992202758789,20.53498077392578
-77.10707092285156,47.10529708862305,21.01884651184082
-68.26124572753906,34.506046295166016,17.792390823364258
-91.66484069824219,17.321693420410156,21.700414657592773
-87.75090789794922,5.8194260597229,20.457427978515625
-39.18833923339844,-85.09650421142578,21.793298721313477
-24.840377807617188,-89.46319580078125,21.598217010498047
-1.9821343421936035,-66.6117172241211,15.502054214477539
4.438204288482666,-87.6083984375,20.405576705932617
8.146392822265625,-89.47325134277344,20.899328231811523
11.642477035522461,-88.37891387939453,20.736295700073242
12.015220642089844,-69.51148223876953,16.40951919555664
46.05174255371094,-85.7972412109375,22.65139389038086
38.008182525634766,-64.45565795898438,17.406352996826172
40.42412567138672,-62.655765533447266,17.345155715942383
42.041404724121094,-59.74909210205078,16.994661331176758
44.73005294799805,-58.43313217163086,17.118038177490234
47.83515930175781,-57.54417037963867,17.406938552856445
33.8420524597168,-37.53505325317383,11.756308555603027
34.61201858520508,-35.418209075927734,11.51982307434082
63.19711685180664,-59.67338180541992,20.218904495239258
64.74412536621094,-56.390533447265625,19.972394943237305
66.1711654663086,-53.113311767578125,19.737951278686523
67.48148345947266,-49.843605041503906,19.515296936035156
68.67817687988281,-46.58313751220703,19.304182052612305
67.03175354003906,-41.636112213134766,18.35607147216797
64.55330657958984,-36.58772277832031,17.2606201171875
67.89867401123047,-34.95748519897461,17.76498794555664
71.45195770263672,-33.22653579711914,18.330352783203125
73.05708312988281,-30.46625518798828,18.413028717041016
73.62981414794922,-27.287425994873047,18.2661190032959
74.10682678222656,-24.125402450561523,18.129194259643555
67.16995239257812,-18.91905975341797,16.233013153076172
51.49136734008789,-12.293696403503418,12.314563751220703
50.25894546508789,-9.883975982666016,11.915157318115234
49.10453796386719,-7.622551918029785,11.559490203857422
49.76036834716797,-5.68832540512085,11.650630950927734
50.499568939208984,-3.7254648208618164,11.7791166305542
54.50039291381836,-1.824080228805542,12.684966087341309
59.074039459228516,0.3972766399383545,13.742097854614258
61.491607666015625,2.8864877223968506,14.31991195678711
62.235809326171875,5.433771133422852,14.532355308532715
63.53215408325195,8.129703521728516,14.899335861206055
72.95142364501953,12.331347465515137,17.210674285888672
64.02603149414062,13.488370895385742,15.220635414123535
71.60111236572266,18.116260528564453,17.180694580078125
70.8065185546875,20.97524642944336,17.17850112915039
69.93254089355469,23.811452865600586,17.184829711914062
68.97916412353516,26.624496459960938,17.199691772460938
67.94634246826172,29.41393280029297,17.223106384277344
66.83386993408203,32.179298400878906,17.255102157592773
65.64141082763672,34.920127868652344,17.295726776123047
64.36865997314453,37.63581466674805,17.345033645629883
62.70206069946289,40.12541198730469,17.316654205322266
61.580013275146484,42.989166259765625,17.46996307373047
60.062862396240234,45.62529754638672,17.54576873779297
58.462860107421875,48.23332595825195,17.63058853149414
56.77906036376953,50.81222152709961,17.724559783935547
51.059608459472656,49.52855682373047,16.54734992980957
52.91876220703125,55.628868103027344,17.860239028930664
45.91920852661133,52.328495025634766,16.194820404052734
44.21831512451172,54.67268753051758,16.356924057006836
42.48181915283203,57.070438385009766,16.54994010925293
40.70254135131836,59.53184127807617,16.775634765625
42.55522918701172,67.9478988647461,18.650041580200195
32.71575164794922,57.22599792480469,15.333745002746582
37.66830825805664,72.50193786621094,19.005796432495117
35.08012390136719,74.7120361328125,19.199928283691406
31.980833053588867,75.89541625976562,19.158143997192383
29.071929931640625,77.5608901977539,19.267963409423828
25.83629608154297,78.37346649169922,19.1962833404541
22.485595703125,78.71279907226562,19.04258918762207
19.16594696044922,78.9775619506836,18.904958724975586
15.968766212463379,79.63802337646484,18.89411735534668
12.877666473388672,80.97579193115234,19.07326889038086
9.966634750366211,84.41077423095703,19.77200698852539
6.872523784637451,88.67578125,20.689579010009766
3.355058193206787,90.23194885253906,21.00421905517578
-0.23851394653320312,79.06881713867188,18.39304542541504
-3.360016345977783,77.73261260986328,18.09902000427246
-5.469995498657227,65.45117950439453,15.27830982208252
-7.976597785949707,64.22653198242188,15.05513858795166
-10.414786338806152,63.034820556640625,14.86193561553955
-13.067525863647461,63.18922424316406,15.010080337524414
-17.043853759765625,68.42886352539062,16.404233932495117
-21.6697940826416,74.1600341796875,17.972475051879883
-24.51482582092285,72.8831787109375,17.88743019104004
-53.98512649536133,65.93118286132812,19.822301864624023
-65.75164794921875,68.28919982910156,22.051925659179688
-63.66518020629883,61.01497268676758,20.512887954711914
-62.547935485839844,55.29899215698242,19.420913696289062
-63.65829849243164,51.87741470336914,19.102657318115234
-66.97642517089844,50.242679595947266,19.476491928100586
-72.09593963623047,49.68616485595703,20.36789321899414
-75.73050689697266,47.821353912353516,20.834718704223633
-67.39519500732422,35.33320236206055,17.701339721679688
-52.94137954711914,-76.21296691894531,21.586313247680664
-26.342391967773438,-89.6891860961914,21.74474334716797
-0.2988913059234619,-67.89954376220703,15.794925689697266
3.108677387237549,-86.84578704833984,20.21497917175293
6.764743328094482,-88.88272857666016,20.735671997070312
10.390115737915039,-89.05670166015625,20.85685920715332
13.747127532958984,-87.22178649902344,20.53997039794922
47.73369598388672,-83.76414489746094,22.426918029785156
39.53665542602539,-63.32291030883789,17.365554809570312
41.80318832397461,-61.32374572753906,17.26424789428711
43.732704162597656,-58.92121887207031,17.069049835205078
46.447998046875,-57.59257125854492,17.211219787597656
34.2181282043457,-39.10330581665039,12.087160110473633
32.850746154785156,-34.629066467285156,11.10340404510498
62.59493637084961,-60.88648986816406,20.31302261352539
61.07193374633789,-54.806488037109375,19.088329315185547
65.65804290771484,-54.32256317138672,19.82312774658203
67.01106262207031,-51.049888610839844,19.596153259277344
68.2493667602539,-47.78578567504883,19.38080406188965
68.11212158203125,-43.720680236816406,18.827484130859375
65.30683898925781,-38.305908203125,17.612133026123047
66.6408920288086,-35.57035446166992,17.57204246520996
70.11384582519531,-33.87831497192383,18.114028930664062
72.82100677490234,-31.644018173217773,18.469825744628906
73.42957305908203,-28.459186553955078,18.319196701049805
73.94171905517578,-25.29084587097168,18.1785945892334
74.35934448242188,-22.139774322509766,18.04787254333496
51.968505859375,-13.225483894348145,12.474227905273438
50.70425796508789,-10.755195617675781,12.057228088378906
49.52236557006836,-8.441560745239258,11.686044692993164
49.03548812866211,-6.343709945678711,11.501678466796875
49.28398132324219,-4.371752738952637,11.509444236755371
52.90507888793945,-2.5568575859069824,12.321130752563477
61.207889556884766,1.9636623859405518,14.245487213134766
61.96519470214844,4.484954833984375,14.452033042907715
62.6866340637207,7.077981948852539,14.674805641174316
73.16574096679688,11.253778457641602,17.219951629638672
72.56002807617188,14.165380477905273,17.197526931762695
71.87439727783203,17.054977416992188,17.183658599853516
71.1091537475586,19.922283172607422,17.17831802368164
70.26446533203125,22.76694107055664,17.181503295898438
63.26401901245117,23.34621810913086,15.686543464660645
68.33692932128906,28.38677215576172,17.213464736938477
67.25387573242188,31.161115646362305,17.24228858947754
66.09100341796875,33.91108703613281,17.279720306396484
64.84795379638672,36.63612365722656,17.32581329345703
63.2087516784668,39.140254974365234,17.2943058013916
62.11936569213867,42.00894546508789,17.44423484802246
60.632625579833984,44.655242919921875,17.516735076904297
59.06330490112305,47.27375793457031,17.598217010498047
57.41053771972656,49.86350631713867,17.688798904418945
55.67341613769531,52.42355728149414,17.78858184814453
53.61033248901367,54.707252502441406,17.8177490234375
39.32862854003906,43.49906539916992,13.641334533691406
44.85006332397461,53.80147933959961,16.29355239868164
43.12755584716797,56.178287506103516,16.4749698638916
41.364952087402344,58.614952087402344,16.688373565673828
43.415992736816406,67.08879089355469,18.5889949798584
41.0550537109375,69.40269470214844,18.757640838623047
38.599300384521484,71.67431640625,18.936891555786133
36.04714584350586,73.90144348144531,19.126964569091797
33.1707649230957,75.56642150878906,19.19723129272461
23.90803337097168,61.01426696777344,15.2438383102417
20.53506088256836,59.3179817199707,14.601988792419434
23.714237213134766,78.58055877685547,19.0936222076416
20.39529037475586,78.9158935546875,18.960548400878906
17.14210319519043,79.3631591796875,18.887170791625977
14.065308570861816,80.70565032958984,19.056697845458984
11.040955543518066,82.92567443847656,19.460372924804688
7.972607135772705,86.24199676513672,20.147123336791992
4.667656421661377,89.68031311035156,20.889633178710938
1.0773296356201172,91.14776611328125,21.204240798950195
-2.214489698410034,78.05569458007812,18.16459846496582
-4.532886028289795,66.02702331542969,15.395340919494629
-7.0596842765808105,64.674560546875,15.133941650390625
-9.521865844726562,63.471309661865234,14.929898262023926
-11.922309875488281,62.29774856567383,14.754677772521973
-15.48980712890625,66.37294006347656,15.854533195495605
-20.622352600097656,74.6727066040039,18.020587921142578
-23.44719886779785,73.28990936279297,17.899906158447266
-14.01774787902832,63.052581787109375,15.592357635498047
-19.215734481811523,72.5423812866211,18.11551284790039
-22.708276748657227,73.63800048828125,18.602069854736328
-25.690183639526367,72.7857437133789,18.632638931274414
-66.2227783203125,66.76708984375,22.70075225830078
-59.60454559326172,55.4505729675293,19.65200424194336
-61.20915222167969,52.51826095581055,19.469179153442383
-52.876991271972656,41.80141067504883,16.271223068237305
-55.603660583496094,40.436302185058594,16.59661102294922
-58.450992584228516,39.01630401611328,16.964595794677734
-61.34001541137695,37.47306823730469,17.35181999206543
-64.37448120117188,35.85808563232422,17.78804588317871
-67.53900146484375,34.14096450805664,18.268436431884766
-91.60405731201172,17.310216903686523,22.504358291625977
-87.66307830810547,5.81358528137207,21.208147048950195
-90.83297729492188,-31.681669235229492,23.222352981567383
-39.12271499633789,-84.95401000976562,22.57780647277832
-24.826805114746094,-89.41436767578125,22.400999069213867
-1.9473528861999512,-65.4435043334961,15.80490493774414
0.9267182350158691,-88.81217956542969,21.440217971801758
4.32887601852417,-85.4505844116211,20.654029846191406
7.959036827087402,-87.41561126708984,21.189208984375
11.478626251220703,-87.13507080078125,21.215927124023438
12.009428024291992,-69.47798156738281,17.02052879333496
38.9354248046875,-89.03377532958984,23.45781135559082
41.80873489379883,-86.01567077636719,23.086837768554688
44.51673126220703,-82.93741607666016,22.722631454467773
33.72151184082031,-57.18617630004883,16.02596664428711
39.90854263305664,-61.856624603271484,17.770103454589844
42.04824447631836,-59.758819580078125,17.638835906982422
45.088382720947266,-58.90127944946289,17.906309127807617
47.843055725097656,-57.55369567871094,18.066781997680664
31.592382431030273,-35.039878845214844,11.388934135437012
32.39166259765625,-33.146141052246094,11.18764877319336
61.31071853637695,-57.89215087890625,20.355566024780273
59.743988037109375,-52.035552978515625,19.125408172607422
64.24161529541016,-51.56451416015625,19.88548469543457
65.5352554321289,-48.406044006347656,19.66763687133789
66.71825408935547,-45.25376892089844,19.460947036743164
67.15019989013672,-41.709678649902344,19.082393646240234
64.579345703125,-36.602500915527344,17.919179916381836
67.91230010986328,-34.96449279785156,18.439048767089844
70.39713287353516,-32.73601150512695,18.741235733032227
71.06580352783203,-29.635854721069336,18.587038040161133
71.63851928710938,-26.54944610595703,18.442760467529297
68.67333984375,-22.356555938720703,17.433921813964844
67.23247528076172,-18.936674118041992,16.86125373840332
51.55292510986328,-12.308388710021973,12.794533729553223
50.31707763671875,-9.895401954650879,12.379081726074219
49.15963363647461,-7.631096839904785,12.009148597717285
49.217132568359375,-5.626227855682373,11.95827865600586
50.51572036743164,-3.726649045944214,12.227513313293457
54.51912307739258,-1.8247087001800537,13.168164253234863
59.09605407714844,0.3974342346191406,14.265972137451172
60.19099426269531,2.8254401683807373,14.545968055725098
60.900360107421875,5.317173004150391,14.757133483886719
63.564109802246094,8.133795738220215,15.469342231750488
71.08956909179688,12.01662540435791,17.404300689697266
64.08192443847656,13.500150680541992,15.80879020690918
69.7768325805664,17.65468978881836,17.374753952026367
69.0027084350586,20.440889358520508,17.372594833374023
68.1503677368164,23.20463752746582,17.37883186340332
67.21979522705078,25.945425033569336,17.393478393554688
66.21101379394531,28.662708282470703,17.416549682617188
65.12384033203125,31.355953216552734,17.44808006286621
63.95805358886719,34.02460479736328,17.48810577392578
62.713356018066406,36.66796875,17.536678314208984
61.08435821533203,39.09018325805664,17.50647735595703
58.66033935546875,40.95091247558594,17.269664764404297
58.500892639160156,44.438785552978516,17.734355926513672
56.93532180786133,46.97307205200195,17.817846298217773
55.287818908691406,49.477699279785156,17.910322189331055
51.10444259643555,49.57203674316406,17.186851501464844
51.51244354248047,54.15053176879883,18.041648864746094
45.960121154785156,52.375118255615234,16.820903778076172
44.25811004638672,54.72187805175781,16.989429473876953
42.52050018310547,57.122406005859375,17.190095901489258
40.740116119384766,59.5867805480957,17.42473030090332
41.38080978393555,66.07270812988281,18.819692611694336
32.75846862792969,57.300716400146484,15.933146476745605
36.60948944091797,70.46398162841797,19.16859245300293
34.08427047729492,72.59109497070312,19.358827590942383
31.464134216308594,74.66918182373047,19.559873580932617
28.582231521606445,76.25447845458984,19.658252716064453
25.44357681274414,77.18214416503906,19.617849349975586
22.14304542541504,77.5136947631836,19.460134506225586
18.854825973510742,77.69556427001953,19.299880981445312
15.688631057739258,78.24090576171875,19.263118743896484
12.672714233398438,79.68695831298828,19.477975845336914
9.862951278686523,83.53245544433594,20.30462646484375
6.657732009887695,85.90413665771484,20.799224853515625
3.247333526611328,87.33495330810547,21.09700584411621
-0.23848605155944824,79.05480194091797,19.08373260498047
-3.3514769077301025,77.53532409667969,18.734325408935547
-5.472432613372803,65.48031616210938,15.861899375915527
-7.975251197814941,64.21570587158203,15.62061595916748
-10.413057327270508,63.024330139160156,15.42018985748291
-12.825032234191895,62.01657485961914,15.28742504119873
-17.2830867767334,69.38932800292969,17.26218032836914
-21.666284561157227,74.14804077148438,18.647653579711914
-24.59469985961914,73.12065887451172,18.62290382385254
-53.97629165649414,65.92037963867188,20.566932678222656
-65.62347412109375,68.15609741210938,22.839452743530273
-60.532752990722656,58.012939453125,20.239604949951172
-61.388671875,54.2740592956543,19.780244827270508
-51.89102554321289,42.28785705566406,16.15911865234375
-54.58694839477539,40.948692321777344,16.472673416137695
-57.399906158447266,39.55811309814453,16.82802391052246
-60.24951171875,38.04560852050781,17.201122283935547
-63.23980712890625,36.46567153930664,17.622060775756836
-66.35443115234375,34.78756332397461,18.085641860961914
-52.93083572387695,-76.19773864746094,22.39640235900879
-26.36410140991211,-89.76309967041016,22.583877563476562
-2.894859552383423,-64.8887710571289,15.679581642150879
-0.29598093032836914,-67.24126434326172,16.232044219970703
3.0328094959259033,-84.72625732421875,20.4658203125
6.597823143005371,-86.68952941894531,20.98717498779297
10.243058204650879,-87.7961196899414,21.33753204345703
13.555459022521973,-86.00566864013672,21.01785659790039
40.765647888183594,-87.13417053222656,23.222158432006836
43.52910614013672,-84.06684875488281,22.852619171142578
45.143348693847656,-79.21855163574219,22.010257720947266
39.03181076049805,-62.51433563232422,17.790735244750977
41.064659118652344,-60.24034881591797,17.599205017089844
44.08304977416992,-59.39323043823242,17.855060577392578
46.820159912109375,-58.05403137207031,18.003795623779297
31.007898330688477,-35.43478012084961,11.366508483886719
32.593135833740234,-34.35751724243164,11.432039260864258
60.718048095703125,-59.0608024597168,20.447481155395508
60.02925109863281,-53.87078094482422,19.470443725585938
63.735408782958984,-52.73187255859375,19.968786239624023
65.07064056396484,-49.57164001464844,19.746763229370117
66.29417419433594,-46.416812896728516,19.535978317260742
67.40879821777344,-43.26922607421875,19.336198806762695
65.41755676269531,-38.370845794677734,18.30771255493164
66.65410614013672,-35.577415466308594,18.238740921020508
70.0574951171875,-33.8510856628418,18.78245735168457
70.8302001953125,-30.7789306640625,18.642805099487305
71.43809509277344,-27.687347412109375,18.494892120361328
71.95130920410156,-24.61005973815918,18.356769561767578
70.07389831542969,-20.863819122314453,17.6495361328125
52.03144073486328,-13.241504669189453,12.96062183380127
50.76361083984375,-10.767793655395508,12.526862144470215
49.57855224609375,-8.451136589050293,12.140774726867676
48.46381378173828,-6.269749641418457,11.796547889709473
48.891178131103516,-4.336902141571045,11.848563194274902
53.001731872558594,-2.5615234375,12.809431076049805
59.91986846923828,1.922339677810669,14.471961975097656
60.64275360107422,4.3892412185668945,14.6773099899292
61.3286018371582,6.924647331237793,14.898655891418457
71.29745483398438,10.96642017364502,17.41343879699707
70.70954895019531,13.804125785827637,17.39134407043457
70.0428466796875,16.620370864868164,17.377676010131836
69.29764556884766,19.414756774902344,17.37241554260254
68.47416687011719,22.186851501464844,17.375551223754883
67.57247161865234,24.936161041259766,17.38709259033203
66.59259033203125,27.662185668945312,17.40704917907715
65.53436279296875,30.364402770996094,17.435453414916992
64.39764404296875,33.0422248840332,17.472335815429688
63.18212890625,35.695011138916016,17.517744064331055
61.58000946044922,38.1317138671875,17.484468460083008
60.51300811767578,40.92258071899414,17.6343936920166
59.058353424072266,43.49581527709961,17.70577049255371
57.522830963134766,46.040775299072266,17.785980224609375
55.90568542480469,48.556480407714844,17.875131607055664
54.20608139038086,51.0418701171875,17.973308563232422
52.18894958496094,53.25676727294922,17.99986457824707
39.36735916137695,43.541900634765625,14.17003345489502
44.8902702331543,53.84971237182617,16.923555374145508
43.166648864746094,56.229217529296875,17.11216163635254
41.40293502807617,58.66877365112305,17.334009170532227
42.22162628173828,65.24319458007812,18.75978660583496
39.91568374633789,67.47661590576172,18.925254821777344
37.518150329589844,69.66673278808594,19.10103988647461
35.02760696411133,71.81127166748047,19.28734588623047
32.44268035888672,73.90776824951172,19.484371185302734
23.961545944213867,61.150794982910156,15.854473114013672
20.546627044677734,59.35141372680664,15.161539077758789
23.357715606689453,77.39910888671875,19.516216278076172
20.072572708129883,77.66715240478516,19.36467742919922
16.849674224853516,78.00922393798828,19.265512466430664
13.846094131469727,79.44788360595703,19.467601776123047
10.87173080444336,81.65485382080078,19.88523292541504
7.890649795532227,85.35546875,20.692455291748047
4.518581390380859,86.81624603271484,20.985593795776367
1.0423879623413086,88.19440460205078,21.291393280029297
-2.215452194213867,78.08990478515625,18.858306884765625
-4.527032852172852,65.94200897216797,15.955714225769043
-7.062830924987793,64.70343780517578,15.712040901184082
-9.520286560058594,63.460693359375,15.490689277648926
-11.920336723327637,62.2874641418457,15.308919906616211
-15.186498641967773,65.07328796386719,16.130643844604492
-19.967248916625977,72.30059814453125,18.106542587280273
-23.443443298339844,73.2780990600586,18.57236671447754
-13.909494400024414,62.565704345703125,16.036832809448242
-19.049837112426758,71.91610717773438,18.614788055419922
-22.70458221435547,73.62609100341797,19.27809715270996
-25.911535263061523,73.41290283203125,19.47930908203125
-66.05024719238281,66.59317016601562,23.468244552612305
-59.06489181518555,54.94853591918945,20.185070037841797
-51.73162078857422,44.386375427246094,17.055347442626953
-52.381370544433594,41.409603118896484,16.707202911376953
-55.07215118408203,40.04979705810547,17.038105010986328
-57.85623550415039,38.61931610107422,17.405040740966797
-60.72725296020508,37.09874725341797,17.805667877197266
-63.715431213378906,35.4909782409668,18.24871063232422
-66.8290786743164,33.7820930480957,18.736366271972656
-91.54312133789062,17.298702239990234,23.310461044311523
-87.5750732421875,5.807763576507568,21.960376739501953
-89.28672790527344,-15.774721145629883,22.686504364013672
-87.79854583740234,-19.17779541015625,22.48611831665039
-86.38189697265625,-22.539119720458984,22.337322235107422
-90.75234985351562,-31.653547286987305,24.048818588256836
-39.057064056396484,-84.8114242553711,23.362831115722656
-24.81411361694336,-89.36869812011719,23.206987380981445
-1.9179589748382568,-64.4552993774414,16.13456153869629
0.7017691135406494,-67.2546615600586,16.82876968383789
4.224433898925781,-83.38847351074219,20.891468048095703
7.7620849609375,-85.25273895263672,21.419403076171875
11.404754638671875,-86.57418060302734,21.848955154418945
12.003612518310547,-69.44438171386719,17.633403778076172
24.1229190826416,-93.87581634521484,24.251861572265625
27.397430419921875,-91.24211120605469,23.836772918701172
31.444303512573242,-91.23944091796875,24.14682388305664
34.6900520324707,-88.89273071289062,23.87557029724121
37.6358642578125,-86.06208038330078,23.50270652770996
40.434600830078125,-83.18862915039062,23.14323616027832
43.075157165527344,-80.25165557861328,22.789533615112305
33.70361328125,-57.15581512451172,16.602251052856445
45.199459075927734,-70.05732727050781,20.86078453063965
42.385093688964844,-60.23754119873047,18.429285049438477
45.09580993652344,-58.91097640991211,18.563114166259766
29.77853012084961,-35.822635650634766,11.6557035446167
31.346506118774414,-34.767173767089844,11.712864875793457
31.907054901123047,-32.650230407714844,11.422605514526367
59.52669143676758,-56.20762634277344,20.484817504882812
58.75468444824219,-51.17387771606445,19.49540138244629
62.414249420166016,-50.0977783203125,20.025205612182617
63.690956115722656,-47.04383087158203,19.812000274658203
64.85986328125,-43.99323272705078,19.60958480834961
65.92350006103516,-40.947731018066406,19.41775894165039
64.65130615234375,-36.64329147338867,18.594099044799805
67.7447280883789,-34.87821578979492,19.065080642700195
68.50687408447266,-31.857006072998047,18.903850555419922
69.17283630371094,-28.846471786499023,18.75246810913086
69.74470520019531,-25.84759521484375,18.61074447631836
68.38031005859375,-22.26116943359375,17.993328094482422
67.29656982421875,-18.954721450805664,17.49350357055664
51.66456604003906,-12.335055351257324,13.290375709533691
50.37558364868164,-9.906916618347168,12.845953941345215
49.21508026123047,-7.639706611633301,12.461633682250977
48.68352508544922,-5.565227508544922,12.260480880737305
50.53192901611328,-3.727851629257202,12.67800235748291
54.53795623779297,-1.8253350257873535,13.653633117675781
58.22557830810547,0.39157605171203613,14.56900691986084
58.939361572265625,2.7666847705841064,14.76351261138916
59.615966796875,5.205031394958496,14.973318099975586
63.5962028503418,8.137898445129395,16.042213439941406
66.93080139160156,11.313653945922852,16.98438835144043
64.13815307617188,13.51198673248291,16.40033531188965
68.036376953125,17.21432113647461,17.559898376464844
67.28180694580078,19.931106567382812,17.55776596069336
66.45008850097656,22.625709533691406,17.563913345336914
65.54137420654297,25.297582626342773,17.578346252441406
64.55562591552734,27.946090698242188,17.601083755493164
63.492767333984375,30.570619583129883,17.63214874267578
62.35261154174805,33.1705322265625,17.671579360961914
61.13488006591797,35.74504852294922,17.719425201416016
59.541996002197266,38.10316467285156,17.687461853027344
57.18678283691406,39.92222595214844,17.450517654418945
57.01228713989258,43.30799102783203,17.91407585144043
55.47987747192383,45.77228927612305,17.99626350402832
53.86735534667969,48.20650863647461,18.087263107299805
50.270442962646484,48.76304244995117,17.52361297607422
50.173702239990234,52.74322509765625,18.21434211730957
46.00127410888672,52.422019958496094,17.450645446777344
44.29813766479492,54.77137756347656,17.625640869140625
42.55941390991211,57.17467498779297,17.83399772644043
40.777896881103516,59.642066955566406,18.077661514282227
40.26513671875,64.29130554199219,18.980857849121094
32.80146789550781,57.37594985961914,16.536535263061523
35.60466003417969,68.52993774414062,19.323087692260742
33.13970947265625,70.57942962646484,19.50954246520996
29.543609619140625,70.11151123046875,19.036502838134766
27.934358596801758,74.52600860595703,19.91410255432129
25.076129913330078,76.06757354736328,20.040449142456055
21.782690048217773,76.25220489501953,19.84234619140625
18.537569046020508,76.38819885253906,19.667917251586914
15.414710998535156,76.87489318847656,19.617815017700195
12.550878524780273,78.92098236083984,19.995046615600586
9.661773681640625,81.82884216308594,20.616695404052734
6.452649116516113,83.25814819335938,20.894556045532227
3.145937442779541,84.60758209228516,21.184354782104492
-0.23843050003051758,79.0407485961914,19.776954650878906
-3.3508806228637695,77.52180480957031,19.41490936279297
-5.471498489379883,65.46906280517578,16.43818473815918
-7.978798866271973,64.24439239501953,16.19814682006836
-10.411311149597168,63.0138053894043,15.980504989624023
-12.79069709777832,61.85062026977539,15.803154945373535
-17.365943908691406,69.72196960449219,17.978191375732422
-20.844587326049805,71.3359146118164,18.595420837402344
-24.659849166870117,73.31433868408203,19.353939056396484
-53.96741485595703,65.90956115722656,21.314313888549805
-65.6124496459961,68.14464569091797,23.66933250427246
-61.41157913208008,58.85517501831055,21.283117294311523
-60.39336395263672,53.394126892089844,20.169998168945312
-51.407981872558594,41.89419174194336,16.593158721923828
-54.06904602050781,40.5601692199707,16.91208267211914
-56.82048416137695,39.15880584716797,17.266334533691406
-59.6763801574707,37.683677673339844,17.659526824951172
-62.59835433959961,36.095787048339844,18.080167770385742
-65.66384887695312,34.425533294677734,18.550838470458984
-68.89665985107422,32.66205978393555,19.077760696411133
-87.27620697021484,-14.0877103805542,22.120121002197266
-88.34950256347656,-17.929250717163086,22.556612014770508
-86.93040466308594,-21.31001091003418,22.394943237304688
-85.6120834350586,-24.671916961669922,22.2928466796875
-52.92019271850586,-76.18246459960938,23.209430694580078
-26.397228240966797,-89.87592315673828,23.437829971313477
-2.832484245300293,-63.49043655395508,15.90180778503418
-0.29139018058776855,-66.19889831542969,16.563854217529297
2.9602625370025635,-82.69979095458984,20.705646514892578
6.436103820800781,-84.56461334228516,21.220184326171875
10.245546340942383,-87.81751251220703,22.1219425201416
26.363689422607422,-92.77455139160156,24.13227081298828
33.564674377441406,-89.92578125,24.016647338867188
36.56551742553711,-87.11247253417969,23.638803482055664
39.418216705322266,-84.254150390625,23.27440643310547
42.11171340942383,-81.3294677734375,22.91565704345703
44.676998138427734,-78.4001693725586,22.57815170288086
44.08283996582031,-70.60420227050781,20.826587677001953
41.45643615722656,-60.8150634765625,18.415775299072266
44.09027099609375,-59.402992248535156,18.509977340698242
29.20047378540039,-36.20673370361328,11.638433456420898
30.76704216003418,-35.159542083740234,11.689979553222656
32.22626876831055,-33.97079086303711,11.716035842895508
34.17134475708008,-33.238670349121094,11.927718162536621
60.486454010009766,-54.28107452392578,20.335004806518555
59.12236785888672,-48.91522216796875,19.199766159057617
63.23225402832031,-48.171146392822266,19.889453887939453
64.44066619873047,-45.11907196044922,19.683080673217773
65.5428695678711,-42.07149124145508,19.487367630004883
65.5290756225586,-38.436248779296875,19.008466720581055
66.66736602783203,-35.584510803222656,18.908395767211914
68.23675537109375,-32.97132110595703,18.96222686767578
68.93799591064453,-29.956687927246094,18.807228088378906
69.5444107055664,-26.95339584350586,18.66195297241211
67.94975280761719,-23.241384506225586,17.968786239624023
70.48018646240234,-20.98478126525879,18.39997100830078
52.144935607910156,-13.270393371582031,13.463109970092773
50.823333740234375,-10.780463218688965,12.999486923217773
49.63508224487305,-8.460776329040527,12.598379135131836
47.93181228637695,-6.200926303863525,12.093010902404785
48.503047943115234,-4.302472114562988,12.183647155761719
53.01953887939453,-2.5623812675476074,13.281548500061035
58.68008041381836,1.8825633525848389,14.689952850341797
59.37057113647461,4.297161102294922,14.894028663635254
61.023956298828125,6.890253067016602,15.36588191986084
67.12562561035156,10.324746131896973,16.993085861206055
68.67002868652344,13.405961990356445,17.506345748901367
68.29549407958984,16.20574951171875,17.562774658203125
67.56939697265625,18.930566787719727,17.557588577270508
66.7661361694336,21.633419036865234,17.560680389404297
65.88584899902344,24.313751220703125,17.572052001953125
64.92855834960938,26.970949172973633,17.591720581054688
63.89419174194336,29.60445213317871,17.619705200195312
62.782588958740234,32.21354293823242,17.656044006347656
61.593536376953125,34.79753112792969,17.700777053833008
60.02703857421875,37.17007827758789,17.665782928466797
58.68868637084961,39.68886947631836,17.727176666259766
57.55791473388672,42.390750885009766,17.885944366455078
56.05497360229492,44.86591339111328,17.96489715576172
54.47209167480469,47.311344146728516,18.05263900756836
52.80864334106445,49.726009368896484,18.149232864379883
50.83568572998047,51.87582015991211,18.173250198364258
39.40631866455078,43.584991455078125,14.701910018920898
44.93071365356445,53.89822006225586,17.55722427368164
43.20596694946289,56.280433654785156,17.753068923950195
41.441139221191406,58.72290802001953,17.983449935913086
41.08683776855469,63.48961639404297,18.922060012817383
33.60415267944336,56.80711364746094,16.51447296142578
36.49190139770508,67.76110076904297,19.256855010986328
34.060401916503906,69.828369140625,19.439489364624023
31.537954330444336,71.8467025756836,19.63253402709961
24.015506744384766,61.28853225708008,16.47032356262207
20.558271408081055,59.385009765625,15.723970413208008
22.969146728515625,76.11160278320312,19.892248153686523
19.735315322875977,76.3622055053711,19.734434127807617
