13.553873062133789,-12.098021507263184,4.067330837249756
17.601655960083008,-14.483625411987305,5.103149890899658
18.064516067504883,-13.685492515563965,5.073729991912842
18.822986602783203,-13.104231834411621,5.134642601013184
20.006877899169922,-12.766765594482422,5.3132853507995605
18.219934463500977,-10.621499061584473,4.721505165100098
22.60875129699707,-11.99003791809082,5.729278564453125
24.074539184570312,-11.553181648254395,5.978188514709473
25.676864624023438,-11.076133728027344,6.260441780090332
27.29222869873047,-10.493707656860352,6.546139240264893
25.095874786376953,-8.508764266967773,5.932499408721924
27.481143951416016,-8.102203369140625,6.414168834686279
26.19497299194336,-6.591758728027344,6.047238349914551
27.374723434448242,-5.730112075805664,6.261355876922607
27.392593383789062,-4.59394645690918,6.218177795410156
27.38999366760254,-3.4689531326293945,6.180934906005859
27.573429107666016,-2.371568202972412,6.195806503295898
27.530563354492188,-1.2567031383514404,6.169839382171631
27.385662078857422,0.9519659876823425,6.134683609008789
27.283802032470703,2.048190116882324,6.125364780426025
27.162343978881836,3.1405696868896484,6.121498107910156
27.021190643310547,4.230258464813232,6.1230692863464355
26.860183715820312,5.318397045135498,6.130084991455078
26.479631423950195,6.3582329750061035,6.096645832061768
26.27962875366211,7.438547611236572,6.114513874053955
26.05900001525879,8.520692825317383,6.1379218101501465
24.700368881225586,9.190308570861816,5.900170803070068
25.746341705322266,10.775787353515625,6.248443603515625
25.45849609375,11.878700256347656,6.289407253265381
25.147438049316406,12.988224029541016,6.336441993713379
24.812349319458008,14.105599403381348,6.389742851257324
24.452301025390625,15.232105255126953,6.449518203735352
24.056190490722656,16.362253189086914,6.51329231262207
23.64308738708496,17.510639190673828,6.586731433868408
22.636930465698242,18.21798324584961,6.505212783813477
19.95309066772461,17.42400360107422,5.9304728507995605
17.70104217529297,16.757354736328125,5.456943988800049
15.696186065673828,16.103313446044922,5.034397602081299
14.648979187011719,16.289777755737305,4.9046101570129395
13.647136688232422,16.46026611328125,4.786881446838379
12.685575485229492,16.616230010986328,4.680138111114502
11.75979232788086,16.758913040161133,4.583461284637451
10.865815162658691,16.8894100189209,4.496044158935547
10.182586669921875,17.319076538085938,4.4978108406066895
9.80073356628418,18.316062927246094,4.650644779205322
9.388351440429688,19.37886619567871,4.820773601531982
8.9409818649292,20.517547607421875,5.010571002960205
8.453237533569336,21.744184494018555,5.222912788391113
7.918588638305664,23.07340431213379,5.461308479309082
7.320816516876221,24.495500564575195,5.7236223220825195
6.485434055328369,25.374412536621094,5.863327503204346
5.423224925994873,25.437759399414062,5.822878837585449
4.797641277313232,27.97098731994629,6.353466033935547
4.031675815582275,30.913164138793945,6.979312419891357
3.441401958465576,38.34568405151367,8.619162559509277
1.8476461172103882,37.42835998535156,8.389500617980957
0.46314775943756104,50.65454864501953,11.340779304504395
-1.6223156452178955,52.25062561035156,11.703259468078613
-3.821403980255127,53.56526565551758,12.022420883178711
-6.098752498626709,54.518714904785156,12.281538009643555
-8.303442001342773,54.35768508911133,12.310514450073242
-12.408524513244629,63.91151428222656,14.575399398803711
-16.095172882080078,68.14260864257812,15.675228118896484
-17.859132766723633,63.99933624267578,14.87529182434082
-24.224483489990234,75.02678680419922,17.650493621826172
-29.029748916625977,78.91603088378906,18.824819564819336
-34.44274139404297,83.15796661376953,20.150728225708008
-39.83061599731445,86.197998046875,21.25825309753418
-48.01762008666992,71.16268920898438,19.219196319580078
-47.55744552612305,64.71299743652344,17.979154586791992
-44.58171463012695,55.817909240722656,15.992879867553711
-25.106937408447266,28.9672908782959,8.581949234008789
-37.329280853271484,39.72544860839844,12.203969955444336
-40.10424041748047,39.38133239746094,12.583398818969727
-42.97856903076172,38.93882369995117,12.983606338500977
-43.34736251831055,36.21125411987305,12.645005226135254
-49.31603240966797,37.94044494628906,13.929935455322266
-52.80535125732422,37.3468017578125,14.479729652404785
-56.55690383911133,36.68324279785156,15.091850280761719
-57.56732177734375,-74.25614166259766,21.034744262695312
-32.13282775878906,-91.4151840209961,21.693134307861328
-11.633296966552734,-42.336822509765625,10.213410377502441
-9.903292655944824,-42.684059143066406,10.192893981933594
-10.431884765625,-54.89380645751953,12.997917175292969
-8.052228927612305,-54.151607513427734,12.735233306884766
-5.984600067138672,-55.49005126953125,12.982930183410645
-4.208375930786133,-62.481178283691406,14.56728458404541
-1.7683939933776855,-65.30848693847656,15.197612762451172
0.8809049129486084,-67.18733215332031,15.630437850952148
3.3955423831939697,-63.654930114746094,14.828437805175781
5.649676322937012,-60.26478958129883,14.080245971679688
7.701561450958252,-57.27881622314453,13.444084167480469
9.550371170043945,-54.38410186767578,12.844400405883789
11.227524757385254,-51.65696716308594,12.29698371887207
12.752076148986816,-49.08011245727539,11.796074867248535
14.140402793884277,-46.63848876953125,11.33671760559082
15.2857084274292,-43.970890045166016,10.828924179077148
16.43312644958496,-41.77912139892578,10.443413734436035
17.620542526245117,-40.00099563598633,10.167801856994629
18.58181381225586,-37.97067642211914,9.83366870880127
19.467491149902344,-36.03724670410156,9.527948379516602
11.955096244812012,-20.150413513183594,5.450273513793945
21.022029876708984,-32.39261245727539,8.982876777648926
21.702856063842773,-30.66925811767578,8.7398681640625
22.326255798339844,-29.00472640991211,8.514437675476074
20.905803680419922,-25.01251983642578,7.583110809326172
21.300559997558594,-23.498197555541992,7.3776702880859375
18.306310653686523,-18.632675170898438,6.076218605041504
17.526762008666992,-16.461000442504883,5.59329080581665
13.762073516845703,-11.921801567077637,4.2354936599731445
17.423080444335938,-13.90839958190918,5.185945510864258
18.203847885131836,-13.370686531066895,5.254091262817383
18.95940399169922,-12.785843849182129,5.319502830505371
20.46990394592285,-12.638877868652344,5.596225261688232
18.49928855895996,-10.419767379760742,4.938966274261475
23.149404525756836,-11.840154647827148,6.048489093780518
24.664493560791016,-11.389289855957031,6.319611549377441
26.325345993041992,-10.89557933807373,6.627572059631348
26.831796646118164,-9.862337112426758,6.6498703956604
26.932453155517578,-8.68817138671875,6.5829267501831055
25.264856338500977,-7.043158054351807,6.1011962890625
26.8637752532959,-6.3378586769104,6.420601844787598
26.897823333740234,-5.215036869049072,6.373480796813965
26.911041259765625,-4.10369873046875,6.332404136657715
26.903833389282227,-3.0025696754455566,6.29721736907959
27.078990936279297,-1.9248017072677612,6.314998626708984
27.031505584716797,-0.8322933912277222,6.291040420532227
26.964218139648438,0.25351476669311523,6.2726850509643555
26.877235412597656,1.333757996559143,6.259865760803223
26.770580291748047,2.4095282554626465,6.252539157867432
26.64423179626465,3.481945753097534,6.250673294067383
26.498071670532227,4.552074432373047,6.254264831542969
26.331912994384766,5.62098503112793,6.263327598571777
25.950042724609375,6.639730930328369,6.230957508087158
25.744619369506836,7.701416015625,6.250926494598389
25.518373489379883,8.765076637268066,6.276483058929443
23.824981689453125,9.269277572631836,5.946829795837402
25.189746856689453,10.984789848327637,6.3925347328186035
24.8956241607666,12.069005012512207,6.435833930969238
24.578075408935547,13.159661293029785,6.485273361206055
24.236244201660156,14.257932662963867,6.541049003601074
23.86920928955078,15.365042686462402,6.603365421295166
23.46609878540039,16.475326538085938,6.669715404510498
23.045501708984375,17.603418350219727,6.745872974395752
21.565021514892578,17.888893127441406,6.517767429351807
19.059335708618164,17.148496627807617,5.964004993438721
16.942241668701172,16.5224552154541,5.50493860244751
15.144449234008789,16.005605697631836,5.125734806060791
14.129056930541992,16.188343048095703,4.998308181762695
13.155787467956543,16.355518341064453,4.882676124572754
12.21996784210205,16.50849723815918,4.7778191566467285
11.317447662353516,16.648468017578125,4.682861804962158
10.444538116455078,16.776458740234375,4.597040176391602
9.972931861877441,17.553422927856445,4.696280479431152
9.58069896697998,18.561677932739258,4.8590569496154785
9.15656852722168,19.637670516967773,5.040287494659424
8.69581413269043,20.79184341430664,5.242560386657715
8.192761421203613,22.036725997924805,5.4689812660217285
7.640498161315918,23.38751983642578,5.723360061645508
7.027500629425049,24.852048873901367,6.007766246795654
6.040674209594727,25.185848236083984,6.024884223937988
5.007587909698486,25.324806213378906,6.0051116943359375
4.558854103088379,29.169492721557617,6.867766380310059
3.6117429733276367,31.308452606201172,7.331263542175293
2.8541324138641357,38.15184020996094,8.899667739868164
1.4346427917480469,41.58062744140625,9.67822551727295
-0.2847926616668701,50.02488327026367,11.636955261230469
-2.370074510574341,51.62794876098633,12.02231216430664
-4.556758403778076,52.82010269165039,12.332615852355957
-6.009939193725586,47.35464859008789,11.103984832763672
-5.479544162750244,32.621463775634766,7.694703102111816
-13.214616775512695,63.04905319213867,14.985114097595215
-16.57448959350586,65.79307556152344,15.782943725585938
-19.30614471435547,65.41999816894531,15.866814613342285
-24.65433120727539,72.65377044677734,17.847265243530273
-29.327665328979492,76.21672821044922,18.99678611755371
-4.901992321014404,11.355749130249023,2.8771824836730957
-39.46721649169922,82.1871337890625,21.208471298217773
-44.45188903808594,83.76724243164062,22.05956268310547
-48.63228225708008,83.373291015625,22.45257568359375
-46.94906234741211,67.40049743652344,19.107479095458984
-44.66759490966797,58.92832946777344,17.200870513916016
-39.27835464477539,47.70901107788086,14.37533187866211
-37.917659759521484,42.458412170410156,13.241908073425293
-37.952571868896484,39.20671844482422,12.693373680114746
-38.73640060424805,36.92555236816406,12.448968887329102
-43.57689666748047,38.31922912597656,13.498581886291504
-44.62657165527344,36.16944122314453,13.36249828338623
-49.95859146118164,37.26813507080078,14.498708724975586
-53.470237731933594,36.63919448852539,15.078173637390137
-57.2949104309082,35.96572494506836,15.736236572265625
-85.19361877441406,40.10906219482422,21.90419578552246
-44.588523864746094,-84.8361587524414,22.294281005859375
-36.70811080932617,-77.22521209716797,19.890304565429688
-30.653549194335938,-91.52467346191406,22.452810287475586
-12.41749382019043,-42.70090103149414,10.344544410705566
-10.374385833740234,-41.88238525390625,10.03710651397705
-11.336092948913574,-55.17609405517578,13.10313606262207
-8.919540405273438,-54.4219970703125,12.828535079956055
-6.718723297119141,-54.67570495605469,12.814312934875488
-4.753416538238525,-57.77610397338867,13.485270500183105
-2.6441493034362793,-63.059871673583984,14.681859016418457
-0.11830592155456543,-68.5582504272461,15.948010444641113
2.498162031173706,-64.92980194091797,15.115126609802246
4.850252151489258,-61.551509857177734,14.362462997436523
6.971190452575684,-58.39391326904297,13.68002700805664
8.888862609863281,-55.43236541748047,13.059391021728516
10.62700366973877,-52.645538330078125,12.493400573730469
12.20584774017334,-50.015052795410156,11.97593879699707
13.642730712890625,-47.525089263916016,11.501766204833984
14.8351469039917,-44.80726623535156,10.979484558105469
16.02146339416504,-42.576271057128906,10.582087516784668
17.24106216430664,-40.76848220825195,10.296736717224121
18.23459243774414,-38.70519256591797,9.95273208618164
19.149497985839844,-36.74190139770508,9.638067245483398
19.98747444152832,-34.85730743408203,9.346945762634277
12.531311988830566,-19.951425552368164,5.480617046356201
21.458425521850586,-31.298433303833008,8.827466011047363
9.705398559570312,-13.003233909606934,3.7744576930999756
21.474977493286133,-26.482210159301758,7.931211948394775
20.805221557617188,-23.64746856689453,7.326813697814941
17.823837280273438,-18.688255310058594,6.007446765899658
17.829992294311523,-17.250701904296875,5.771103858947754
13.575287818908691,-12.117134094238281,4.2328691482543945
17.47171401977539,-14.376708030700684,5.263327121734619
17.888410568237305,-13.552083969116211,5.220509052276611
18.67896842956543,-13.003971099853516,5.294370174407959
20.017902374267578,-12.773805618286133,5.523856163024902
18.246868133544922,-10.63719367980957,4.913168907165527
22.62220001220703,-11.997163772583008,5.9565863609313965
24.08946418762207,-11.560351371765137,6.215535640716553
25.69354248046875,-11.083331108093262,6.509189605712891
26.788726806640625,-10.300119400024414,6.676336288452148
25.139747619628906,-8.523642539978027,6.174987316131592
26.984176635742188,-7.955692291259766,6.544173717498779
26.21636962890625,-6.597142219543457,6.288563251495361
26.887706756591797,-5.628169059753418,6.390164375305176
26.90855598449707,-4.5127692222595215,6.346877574920654
26.908855438232422,-3.408012866973877,6.309530258178711
27.091480255126953,-2.33011531829834,6.325279235839844
27.051353454589844,-1.2348273992538452,6.299229621887207
26.911645889282227,0.9354905486106873,6.2639570236206055
26.812252044677734,2.0127899646759033,6.254606246948242
26.69318389892578,3.086324691772461,6.250725746154785
26.554349899291992,4.157172679901123,6.252303600311279
26.39560317993164,5.226408004760742,6.259342670440674
26.020709991455078,6.2480387687683105,6.22498083114624
25.82286834716797,7.309260368347168,6.24290657043457
25.6043701171875,8.372037887573242,6.2663893699646
24.28838539123535,9.037023544311523,6.028367519378662
25.29256820678711,10.58586311340332,6.37807559967041
25.006898880004883,11.668001174926758,6.419139862060547
24.69809341430664,12.75615406036377,6.466289520263672
24.365333557128906,13.851471900939941,6.51970100402832
24.00773811340332,14.955168724060059,6.5795793533325195
23.614398956298828,16.06175994873047,6.64339542388916
23.204071044921875,17.18549156188965,6.716912269592285
22.612422943115234,18.198265075683594,6.751979351043701
19.933401107788086,17.406808853149414,6.156020641326904
17.684968948364258,16.74213981628418,5.664932727813721
15.531044006347656,15.933890342712402,5.175995826721191
14.49878215789795,16.122764587402344,5.043923854827881
13.510542869567871,16.295515060424805,4.924063205718994
12.561408996582031,16.45358657836914,4.815337657928467
11.64704704284668,16.598234176635742,4.716820240020752
10.763604164123535,16.730539321899414,4.6277055740356445
10.11050033569336,17.19646644592285,4.6404032707214355
9.729001998901367,18.182029724121094,4.796931266784668
9.317154884338379,19.231895446777344,4.97107458114624
8.870528221130371,20.355865478515625,5.1652445793151855
8.383829116821289,21.565643310546875,5.38234806060791
7.850625991821289,22.875375747680664,5.625911712646484
7.2563347816467285,24.27973747253418,5.894791603088379
6.43143892288208,25.163164138793945,6.041616439819336
5.376941680908203,25.220666885375977,5.998673915863037
4.825900554656982,28.1357364654541,6.6405029296875
4.00581169128418,30.71491050720215,7.205402374267578
2.905564785003662,32.37527847290039,7.561397552490234
1.9525564908981323,39.55341720581055,9.212108612060547
0.45209801197052,49.44538879394531,11.502440452575684
-1.5843271017074585,51.02690887451172,11.875575065612793
-3.738856077194214,52.40809631347656,12.222127914428711
-6.109661102294922,54.616153717041016,12.784036636352539
-8.230852127075195,53.8824462890625,12.679508209228516
-11.90128231048584,61.29891586303711,14.52560043334961
-15.286831855773926,64.72026062011719,15.469473838806152
-18.502843856811523,66.30613708496094,16.013389587402344
-23.056041717529297,71.40795135498047,17.455280303955078
-27.53985023498535,74.86585235595703,18.556198120117188
-32.55984878540039,78.61190032958984,19.79315757751465
-37.69965362548828,81.58633422851562,20.906803131103516
-42.57733154296875,83.19241333007812,21.739439010620117
-47.13908386230469,69.86066436767578,19.604488372802734
-47.26367950439453,64.31328582763672,18.565994262695312
-44.562137603759766,55.793365478515625,16.610225677490234
-25.140560150146484,29.00608253479004,8.929084777832031
-36.922298431396484,39.2923698425293,12.542387008666992
-38.77450942993164,38.07557678222656,12.641362190246582
-42.48301315307617,38.489845275878906,13.335168838500977
-43.66440963745117,36.476097106933594,13.234992027282715
-48.72215270996094,37.48352813720703,14.299708366394043
-52.1446418762207,36.8795051574707,14.857033729553223
-55.81972885131836,36.20510482788086,15.476909637451172
-30.574661254882812,16.506336212158203,8.082552909851074
-57.50328063964844,-74.17355346679688,21.832006454467773
-32.163612365722656,-91.50270080566406,22.562007904052734
-13.665929794311523,-42.90691375732422,10.870298385620117
-11.52120304107666,-41.92884826660156,10.496683120727539
-10.06136703491211,-43.3653564453125,10.746359825134277
-10.43684196472168,-54.9199104309082,13.494811058044434
-8.055980682373047,-54.176841735839844,13.221960067749023
-5.87239933013916,-54.44960021972656,13.22022819519043
-4.185442924499512,-62.14088439941406,15.034650802612305
-1.7578401565551758,-64.9189453125,15.677024841308594
0.8442995548248291,-64.39527893066406,15.546195030212402
3.256162643432617,-61.042301177978516,14.75642204284668
5.436981201171875,-57.995906829833984,14.061466217041016
7.424673557281494,-55.219459533691406,13.449804306030273
9.221783638000488,-52.51306915283203,12.870512962341309
10.857172012329102,-49.952980041503906,12.340072631835938
12.34800910949707,-47.525001525878906,11.853340148925781
13.709282875061035,-45.21650695800781,11.405820846557617
14.836506843566895,-42.678707122802734,10.90731430053711
15.966906547546387,-40.593814849853516,10.530031204223633
17.131362915039062,-38.890499114990234,10.258561134338379
18.088226318359375,-36.96207046508789,9.933677673339844
18.966047286987305,-35.10899353027344,9.632801055908203
11.977246284484863,-20.18775177001953,5.666419506072998
20.51076316833496,-31.604808807373047,9.095134735107422
21.188966751098633,-29.943056106567383,8.8549165725708
9.956308364868164,-12.934551239013672,3.940262794494629
21.07316017150879,-25.212745666503906,7.93225622177124
21.310455322265625,-23.50911521911621,7.6596269607543945
20.77151107788086,-21.141817092895508,7.154625415802002
17.625171661376953,-16.55342674255371,5.836948394775391
13.783951759338379,-11.940746307373047,4.4023051261901855
17.618764877319336,-14.064610481262207,5.442080497741699
18.066143035888672,-13.269542694091797,5.411111831665039
19.28238296508789,-13.003671646118164,5.614278793334961
20.48139190673828,-12.645966529846191,5.810655117034912
18.526920318603516,-10.435330390930176,5.132998943328857
23.16343879699707,-11.847335815429688,6.280535697937012
24.680126190185547,-11.396506309509277,6.5622382164001465
26.218551635742188,-10.851374626159668,6.849756717681885
26.345813751220703,-9.683710098266602,6.775811672210693
26.4494686126709,-8.532369613647461,6.7088303565979
24.998947143554688,-6.9690260887146,6.2647905349731445
26.39020347595215,-6.226133346557617,6.545429706573486
26.42707633972168,-5.123763084411621,6.498231410980225
26.44304084777832,-4.0323333740234375,6.457079887390137
26.438520431518555,-2.9506382942199707,6.421820163726807
26.612789154052734,-1.8916652202606201,6.440476417541504
26.567861557006836,-0.8180153965950012,6.416459083557129
26.5030517578125,0.24917882680892944,6.398058891296387
26.418481826782227,1.3109936714172363,6.385207176208496
26.314172744750977,2.368448257446289,6.3778605461120605
26.190113067626953,3.4225990772247314,6.375988960266113
26.04619026184082,4.474445343017578,6.3795905113220215
25.882225036621094,5.524991512298584,6.38867712020874
25.50586700439453,6.526081085205078,6.355405807495117
25.302574157714844,7.569178581237793,6.375423431396484
25.07844352722168,8.613967895507812,6.401041507720947
23.437856674194336,9.118664741516113,6.070961952209473
24.75084114074707,10.793386459350586,6.518174171447754
24.458955764770508,11.857312202453613,6.561550617218018
24.14371681213379,12.927102088928223,6.611065864562988
23.804317474365234,14.00384521484375,6.666902542114258
23.439844131469727,15.088653564453125,6.729280948638916
23.03965187072754,16.175920486450195,6.795615196228027
22.621999740600586,17.279926300048828,6.871786117553711
21.54244041442871,17.870155334472656,6.756628513336182
19.041061401367188,17.132055282592773,6.183123588562012
16.9272518157959,16.507835388183594,5.707614898681641
14.987688064575195,15.839929580688477,5.264099597930908
13.98640251159668,16.024900436401367,5.1345534324646
13.026010513305664,16.19417381286621,5.016939163208008
12.101984977722168,16.349105834960938,4.91024112701416
11.210328102111816,16.490890502929688,4.813573360443115
10.347477912902832,16.620553970336914,4.726174354553223
9.901714324951172,17.428071975708008,4.838693618774414
9.509931564331055,18.42456817626953,5.005166530609131
9.08642578125,19.48724365234375,5.190419673919678
8.626551628112793,20.626237869262695,5.3970561027526855
8.124714851379395,21.85367774963379,5.628210544586182
7.574109077453613,23.184307098388672,5.887724876403809
6.96473503112793,24.630084991455078,6.1787872314453125
5.990749359130859,24.977676391601562,6.200556755065918
5.273568630218506,26.669984817504883,6.562728404998779
4.549307346343994,29.108436584472656,7.112008571624756
3.5300724506378174,30.60047149658203,7.43587064743042
2.4119744300842285,32.24143600463867,7.804758548736572
1.4452054500579834,41.887020111083984,10.117443084716797
-0.27808868885040283,48.8488883972168,11.79218864440918
-2.3164942264556885,50.46076202392578,12.193931579589844
-4.482269287109375,51.956703186035156,12.588797569274902
-6.006254196166992,47.32572555541992,11.51595687866211
-5.461152076721191,32.511962890625,7.958261966705322
-12.635515213012695,60.28617858886719,14.869152069091797
-15.868242263793945,62.9896354675293,15.680624008178711
-13.137039184570312,44.51558303833008,11.204127311706543
-23.49134635925293,69.22652435302734,17.647069931030273
-27.85820960998535,72.39793395996094,18.725894927978516
-4.899966239929199,11.351058959960938,2.98452091217041
-36.63743209838867,76.29435729980469,20.430749893188477
-42.06794738769531,79.2747802734375,21.664287567138672
-47.33448791503906,81.14842987060547,22.67804718017578
-45.92879104614258,65.9357681274414,19.39759635925293
-44.40202713012695,58.577964782714844,17.743831634521484
-39.0650520324707,47.4499397277832,14.83677864074707
-37.74382400512695,42.2637825012207,13.678589820861816
-37.54959487915039,38.79043960571289,13.032501220703125
-38.063602447509766,36.284210205078125,12.694353103637695
-43.07221221923828,37.87545394897461,13.845722198486328
-44.609413146972656,36.155517578125,13.861405372619629
-49.353607177734375,36.81684875488281,14.863626480102539
-52.79720687866211,36.17802047729492,15.450196266174316
-56.497032165527344,35.46488952636719,16.102642059326172
-30.91718292236328,16.1035213470459,8.415043830871582
-33.1895751953125,15.625598907470703,8.855406761169434
-44.61994171142578,-84.89596557617188,23.151866912841797
-36.5297737121582,-76.85005187988281,20.540592193603516
-14.495779037475586,-43.28118896484375,11.018392562866211
-12.296314239501953,-42.2841796875,10.630135536193848
-10.271979331970215,-41.468902587890625,10.31303596496582
-11.341545104980469,-55.202552795410156,13.604110717773438
-8.923710823059082,-54.447540283203125,13.318865776062012
-6.57761287689209,-53.527496337890625,13.01860237121582
-4.91130256652832,-59.69524383544922,14.458982467651367
-2.6453421115875244,-63.087989807128906,15.242681503295898
-0.11329913139343262,-65.65377044677734,15.848679542541504
2.397641181945801,-62.316917419433594,15.054279327392578
4.656954765319824,-59.09852600097656,14.310473442077637
6.716293811798096,-56.25898361206055,13.677227020263672
8.578106880187988,-53.49443817138672,13.078405380249023
10.271039009094238,-50.88212966918945,12.530576705932617
11.813403129577637,-48.40692138671875,12.02825927734375
13.220901489257812,-46.0556526184082,11.566744804382324
14.393294334411621,-43.472747802734375,11.054450988769531
15.561057090759277,-41.35276794433594,10.665839195251465
16.761316299438477,-39.63408660888672,10.38796615600586
17.744524002075195,-37.66496658325195,10.050719261169434
18.65068817138672,-35.784820556640625,9.741231918334961
19.48217010498047,-33.9760627746582,9.45443344116211
12.521404266357422,-19.935657501220703,5.682934761047363
20.94536018371582,-30.550092697143555,8.941543579101562
9.709733009338379,-13.009038925170898,3.918635845184326
21.645118713378906,-26.692028045654297,8.295708656311035
20.8148136138916,-23.658376693725586,7.606803894042969
18.029735565185547,-18.904136657714844,6.306154251098633
18.06315803527832,-17.47629165649414,6.067194938659668
16.602699279785156,-14.819363594055176,5.3721818923950195
17.34318733215332,-14.270954132080078,5.421761512756348
17.75240135192871,-13.449049949645996,5.376317024230957
18.536588668823242,-12.904850006103516,5.452277660369873
20.028989791870117,-12.780879020690918,5.735472202301025
18.273975372314453,-10.653002738952637,5.106143951416016
22.635704040527344,-12.004329681396484,6.185051918029785
24.104482650756836,-11.567553520202637,6.454100608825684
25.71030616760254,-11.090563774108887,6.759222984313965
26.301616668701172,-10.112829208374023,6.802288055419922
25.18394660949707,-8.538627624511719,6.419267177581787
24.790369033813477,-7.308897972106934,6.239005088806152
26.23788070678711,-6.602556228637695,6.531219005584717
26.415918350219727,-5.529414653778076,6.514945030212402
26.43954849243164,-4.434113502502441,6.471580982208252
26.442548751831055,-3.3489608764648438,6.434162139892578
26.624332427978516,-2.289933919906616,6.450777053833008
26.586774826049805,-1.213621973991394,6.424668312072754
26.452007293701172,0.9195109009742737,6.389307975769043
26.3549861907959,1.9784643650054932,6.379932403564453
26.23822021484375,3.0337204933166504,6.376043796539307
26.101646423339844,4.086300373077393,6.377624034881592
25.945106506347656,5.137208938598633,6.3846821784973145
25.575742721557617,6.1411943435668945,6.349414348602295
25.380029678344727,7.183913230895996,6.367386341094971
25.163652420043945,8.227935791015625,6.390925407409668
23.888418197631836,8.888205528259277,6.152830123901367
24.852855682373047,10.401827812194824,6.50368595123291
24.56940269470215,11.463869094848633,6.544825553894043
24.26287841796875,12.531365394592285,6.592057228088379
23.932504653930664,13.6054048538208,6.645538806915283
23.57740020751953,14.687108039855957,6.705472946166992
23.196578979492188,15.777603149414062,6.7721028327941895
22.77945327758789,16.871015548706055,6.842823505401611
22.343990325927734,17.98222541809082,6.923588275909424
19.913671493530273,17.38958168029785,6.381998538970947
17.668865203857422,16.726890563964844,5.873347282409668
15.368727684020996,15.767361640930176,5.315174102783203
14.351078987121582,15.958516120910645,5.180935382843018
13.376141548156738,16.133411407470703,5.0590410232543945
12.439181327819824,16.293489456176758,4.948423385620117
11.5360107421875,16.44000244140625,4.848149299621582
10.662919044494629,16.57402992248535,4.75740909576416
10.039155006408691,17.075117111206055,4.781528472900391
9.65805435180664,18.0494327545166,4.941641330718994
9.246757507324219,19.086585998535156,5.119682312011719
8.800907135009766,20.196107864379883,5.318089485168457
8.315281867980957,21.38932991027832,5.539788246154785
7.783557415008545,22.679964065551758,5.788335800170898
7.192731857299805,24.066930770874023,6.063617706298828
6.378133296966553,24.95460319519043,6.217635154724121
5.331263542175293,25.006423950195312,6.172155380249023
4.854605674743652,28.30309295654297,6.932073593139648
3.915875196456909,30.025306701660156,7.309422492980957
2.837848663330078,31.62071990966797,7.663846969604492
1.9686239957809448,39.87895202636719,9.638408660888672
0.44139379262924194,48.27683639526367,11.654394149780273
-1.547264575958252,49.833351135253906,12.035435676574707
-3.6739916801452637,51.49885177612305,12.46329116821289
-5.928409576416016,52.99570083618164,12.872821807861328
-8.219947814941406,53.811058044433594,13.140542984008789
-11.455528259277344,59.003021240234375,14.509151458740234
-14.647753715515137,62.01454544067383,15.382098197937012
-18.063507080078125,64.73172760009766,16.22308349609375
-21.991199493408203,68.1100082397461,17.277372360229492
-26.191661834716797,71.20082092285156,18.313732147216797
-30.634061813354492,73.96232604980469,19.3251953125
-35.39873123168945,76.6069564819336,20.37157440185547
-40.325313568115234,78.79209899902344,21.36652946472168
-45.12700653076172,80.0700912475586,22.18714714050293
-51.04694747924805,82.62752532958984,23.44554328918457
-47.49383544921875,70.38641357421875,20.497365951538086
-45.75016784667969,62.25374984741211,18.649612426757812
-44.542449951171875,55.768760681152344,17.22941017150879
-25.17440414428711,29.045133590698242,9.2785005569458
-36.52259063720703,38.86700439453125,12.87476921081543
-37.96753692626953,37.283138275146484,12.845364570617676
-41.996891021728516,38.04943084716797,13.680027961730957
-43.64305877685547,36.458255767822266,13.727701187133789
-48.14016342163086,37.03579330444336,14.662049293518066
-51.49778747558594,36.422027587890625,15.226405143737793
-55.098777770996094,35.73748779296875,15.853499412536621
-30.899282455444336,16.681583404541016,8.476606369018555
-32.325927734375,15.809032440185547,8.686601638793945
-82.91737365722656,28.80069351196289,21.18912124633789
-57.43915939331055,-74.0908203125,22.630577087402344
-15.275918006896973,-43.45868682861328,11.1200532913208
-13.090834617614746,-42.646209716796875,10.768796920776367
-15.382829666137695,-42.33525085449219,11.270345687866211
-13.530364036560059,-42.48126983642578,11.155391693115234
-11.410797119140625,-41.52705764770508,10.775651931762695
-10.015096664428711,-43.16593551635742,11.087478637695312
-10.441825866699219,-54.94615173339844,13.994179725646973
-8.059737205505371,-54.20219421386719,13.71109676361084
-5.770125389099121,-53.501338958740234,13.464251518249512
-4.162683486938477,-61.802894592285156,15.498801231384277
-1.7473680973052979,-64.532470703125,16.15264892578125
0.8091857433319092,-61.71722412109375,15.443655014038086
3.1319432258605957,-58.71327590942383,14.711589813232422
5.238956451416016,-55.883541107177734,14.043985366821289
7.165994644165039,-53.29562759399414,13.45515251159668
8.9138765335083,-50.75967025756836,12.894978523254395
10.509119033813477,-48.35162353515625,12.380566596984863
11.967308044433594,-46.059715270996094,11.9072904586792
13.301711082458496,-43.872283935546875,11.470781326293945
14.524807929992676,-41.782066345214844,11.068014144897461
15.646830558776855,-39.78005599975586,10.695682525634766
16.67218017578125,-37.84808349609375,10.348087310791016
17.61835289001465,-36.00190353393555,10.028882026672363
18.4879093170166,-34.22389221191406,9.732780456542969
12.004417419433594,-20.233535766601562,5.886618614196777
20.021862030029297,-30.851455688476562,9.202481269836426
20.69692611694336,-29.247739791870117,8.965073585510254
9.960800170898438,-12.940383911132812,4.085961818695068
21.234619140625,-25.405929565429688,8.284858703613281
21.320396423339844,-23.52008819580078,7.9429850578308105
20.90020179748535,-21.27280044555664,7.461783409118652
17.853450775146484,-16.767824172973633,6.128408432006836
13.805983543395996,-11.959834098815918,4.57032585144043
17.48911476135254,-13.961113929748535,5.599255561828613
17.929956436157227,-13.169513702392578,5.5663909912109375
19.292896270751953,-13.010746955871582,5.822420597076416
20.492931365966797,-12.653094291687012,6.0261945724487305
18.554750442504883,-10.45100212097168,5.328389644622803
23.17755699157715,-11.8545503616333,6.513799667358398
24.695829391479492,-11.403761863708496,6.806151866912842
25.745258331298828,-10.655487060546875,6.971670150756836
25.875255584716797,-9.51075267791748,6.897758483886719
25.981645584106445,-8.38145637512207,6.830768585205078
25.018718719482422,-6.974537372589111,6.498649597167969
25.931236267089844,-6.117851734161377,6.666408061981201
25.970718383789062,-5.035284519195557,6.619169235229492
25.989261627197266,-3.963132381439209,6.577967643737793
26.182992935180664,-2.922121047973633,6.591945648193359
26.160600662231445,-1.8595224618911743,6.5621819496154785
26.118083953857422,-0.8041708469390869,6.538127899169922
26.055641174316406,0.2449740171432495,6.519693374633789
25.973373413085938,1.2889056205749512,6.5068182945251465
25.87133026123047,2.3285889625549316,6.499457359313965
25.74947738647461,3.3650150299072266,6.497585296630859
25.60772705078125,4.3991217613220215,6.501193523406982
25.445920944213867,5.431855201721191,6.510295391082764
25.074941635131836,6.415822505950928,6.476141452789307
24.873756408691406,7.440898895263672,6.496193885803223
24.65174674987793,8.467405319213867,6.521852970123291
23.061634063720703,8.972294807434082,6.191598892211914
24.325288772583008,10.607818603515625,6.63999080657959
24.035675048828125,11.652122497558594,6.683407783508301
23.72279930114746,12.701726913452148,6.732966899871826
23.38587188720703,13.75767707824707,6.7888336181640625
23.024011611938477,14.820979118347168,6.851227760314941
22.626800537109375,15.88606071472168,6.917500972747803
22.212175369262695,16.966875076293945,6.9936323165893555
21.519790649414062,17.85137176513672,6.995948791503906
19.022748947143555,17.115577697753906,6.402700901031494
16.912221908569336,16.493179321289062,5.910743713378906
14.83353042602539,15.67700481414795,5.400166034698486
13.846047401428223,15.864089965820312,5.268605709075928
12.898256301879883,16.03534698486328,5.149105548858643
11.985794067382812,16.192138671875,5.040647029876709
11.104801177978516,16.335647583007812,4.942347049713135
10.251821517944336,16.46690559387207,4.853440284729004
9.831228256225586,17.30401039123535,4.979650020599365
9.43991756439209,18.2889347076416,5.149713039398193
9.017081260681152,19.33851432800293,5.338858127593994
8.55811595916748,20.46259307861328,5.549716949462891
8.057515144348145,21.67293930053711,5.785449504852295
7.508603096008301,22.983789443969727,6.049901485443115
6.902836799621582,24.411184310913086,6.347452640533447
5.935085296630859,24.74553108215332,6.367201328277588
5.303556442260742,26.821617126464844,6.841001510620117
4.447968482971191,28.460023880004883,7.207454204559326
3.4517035484313965,29.921127319335938,7.536246299743652
2.355837345123291,31.490997314453125,7.90140962600708
1.4522738456726074,42.091766357421875,10.538087844848633
-0.271526575088501,47.69561004638672,11.934138298034668
-2.262319803237915,49.280555725097656,12.343505859375
-4.397446155548096,50.973262786865234,12.801424980163574
-6.0135369300842285,47.383052825927734,11.950854301452637
-5.442811012268066,32.40275573730469,8.221105575561523
-12.16662883758545,58.0490837097168,14.840106964111328
-15.277453422546387,60.64448928833008,15.648003578186035
-18.717649459838867,63.42580032348633,16.546463012695312
-22.429031372070312,66.09603881835938,17.464200973510742
-26.52513885498047,68.93350219726562,18.48076820373535
-30.83078384399414,71.42134094238281,19.46432876586914
-35.587364196777344,74.10767364501953,20.569721221923828
-39.8881721496582,75.1671371459961,21.29171371459961
-43.28684997558594,74.20928192138672,21.4959716796875
-51.015869140625,79.90153503417969,23.71977424621582
-47.97112274169922,68.86781311035156,20.99984359741211
-44.138572692871094,58.23041915893555,18.282522201538086
-38.853206634521484,47.192596435546875,15.295061111450195
-37.555137634277344,42.05251693725586,14.107111930847168
-37.15353775024414,38.381290435791016,13.365826606750488
-38.425052642822266,36.628746032714844,13.282761573791504
-42.577152252197266,37.44010543823242,14.186269760131836
-44.5872917175293,36.137611389160156,14.3603515625
-48.76077651977539,36.37459945678711,15.221229553222656
-52.138267517089844,35.72651672363281,15.814411163330078
-55.762569427490234,35.00382614135742,16.47356414794922
-30.46309471130371,15.867002487182617,8.594165802001953
-32.67697525024414,15.384276390075684,9.036952018737793
-35.109397888183594,14.837087631225586,9.536975860595703
-44.651554107666016,-84.95608520507812,24.014123916625977
-36.5234375,-76.83673095703125,21.286828994750977
-15.861810684204102,-41.71471405029297,11.166573524475098
-14.350031852722168,-42.84603500366211,11.305841445922852
-12.177010536193848,-41.87388610839844,10.91132640838623
-10.426264762878418,-42.09181594848633,10.85012435913086
-9.083171844482422,-44.21044158935547,11.292989730834961
-8.927938461303711,-54.47321319580078,13.8116455078125
-6.6047773361206055,-53.74835968017578,13.54958724975586
-4.885415554046631,-59.380470275878906,14.907848358154297
-2.647794723510742,-63.146820068359375,15.81391429901123
-0.10867965221405029,-62.97504425048828,15.757061004638672
2.3008627891540527,-59.80110549926758,14.973960876464844
4.484448432922363,-56.90928268432617,14.283470153808594
6.478506565093994,-54.26693344116211,13.674601554870605
8.287212371826172,-51.680423736572266,13.09620475769043
9.936860084533691,-49.226619720458984,12.56547737121582
11.443964004516602,-46.893096923828125,12.0775146484375
12.822839736938477,-44.668968200683594,11.628061294555664
14.085514068603516,-42.54313659667969,11.213024139404297
15.243715286254883,-40.50947570800781,10.829792976379395
16.30677604675293,-38.55926513671875,10.475228309631348
17.278287887573242,-36.67532730102539,10.143940925598145
18.17535400390625,-34.872798919677734,9.839542388916016
18.999897003173828,-33.13499450683594,9.557021141052246
12.515843391418457,-19.926794052124023,5.887795925140381
20.454328536987305,-29.833885192871094,9.050722122192383
9.714088439941406,-13.014874458312988,4.063523769378662
21.688846588134766,-26.745943069458008,8.615944862365723
20.8244571685791,-23.669342041015625,7.888181686401367
21.323781967163086,-22.357933044433594,7.730589389801025
18.168861389160156,-17.57855987548828,6.325506210327148
16.482074737548828,-14.711700439453125,5.527867317199707
17.216041564941406,-14.166321754455566,5.578505039215088
17.617919921875,-13.347162246704102,5.530386447906494
18.86993408203125,-13.136922836303711,5.752964973449707
20.04012680053711,-12.78799057006836,5.948182582855225
18.30127716064453,-10.66891860961914,5.300474166870117
22.649282455444336,-12.011531829833984,6.414714336395264
24.119569778442383,-11.574796676635742,6.693925380706787
25.691133499145508,-11.082287788391113,7.0007643699646
25.830055236816406,-9.931509971618652,6.924224853515625
25.22848129272461,-8.55372428894043,6.665399074554443
24.354379653930664,-7.180357933044434,6.353060722351074
25.911273956298828,-6.520381927490234,6.685407638549805
25.958606719970703,-5.433688163757324,6.635896682739258
25.984821319580078,-4.357855796813965,6.592489242553711
25.9903564453125,-3.291687488555908,6.555021286010742
26.171218872070312,-2.2509641647338867,6.572502613067627
26.136104583740234,-1.1930506229400635,6.546351909637451
26.00605010986328,0.9040074944496155,6.510929107666016
25.911306381225586,1.9451574087142944,6.501535892486572
25.796777725219727,2.9826807975769043,6.4976372718811035
25.662385940551758,4.017532825469971,6.499222755432129
25.50800895690918,5.050662517547607,6.506293773651123
25.14402961730957,6.037530899047852,6.470141887664795
24.950435638427734,7.062315464019775,6.488142490386963
24.73616600036621,8.088157653808594,6.511722564697266
23.4998722076416,8.743637084960938,6.273738384246826
24.426488876342773,10.223380088806152,6.625478744506836
24.145280838012695,11.265972137451172,6.666669845581055
23.841073989868164,12.313511848449707,6.7139410972595215
23.51313018798828,13.367000579833984,6.767460346221924
23.160585403442383,14.427460670471191,6.82741641998291
22.782493591308594,15.495951652526855,6.894042491912842
22.36847496032715,16.566633224487305,6.964690208435059
21.93619728088379,17.6540470123291,7.045392036437988
19.893909454345703,17.3723201751709,6.608436107635498
17.65272331237793,16.711610794067383,6.082220077514648
15.738624572753906,16.146852493286133,5.6418280601501465
14.205779075622559,15.796939849853516,5.315715789794922
13.243865966796875,15.973871231079102,5.191889762878418
12.31883430480957,16.135852813720703,5.079465389251709
11.426647186279297,16.284141540527344,4.977508544921875
10.563699722290039,16.419809341430664,4.885216236114502
9.968528747558594,16.95499610900879,4.921233654022217
9.587845802307129,17.918231964111328,5.0848259925842285
9.177138328552246,18.94289207458496,5.266646862030029
8.732101440429688,20.038204193115234,5.469151973724365
8.247587203979492,21.21518325805664,5.6952900886535645
7.7173686027526855,22.48709487915039,5.948642253875732
7.133893966674805,23.870031356811523,6.233572959899902
6.325499534606934,24.7486572265625,6.391450881958008
5.2861785888671875,24.794952392578125,6.343395709991455
4.793214321136475,27.945220947265625,7.094310760498047
3.830390453338623,29.369831085205078,7.410887241363525
2.7729578018188477,30.897705078125,7.762016773223877
1.9850256443023682,40.21121597290039,10.07353687286377
0.41704708337783813,45.612640380859375,11.413259506225586
-1.5110547542572021,48.66702651977539,12.182884216308594
-3.5901994705200195,50.32416915893555,12.623645782470703
-5.787869453430176,51.73944091796875,13.026510238647461
-8.219295501708984,53.806846618652344,13.619231224060059
-11.040361404418945,56.86463165283203,14.49383544921875
-14.173675537109375,60.00749969482422,15.427680969238281
-17.297834396362305,61.98788070678711,16.102615356445312
-21.01666831970215,65.09170532226562,17.114559173583984
-24.9646053314209,67.86512756347656,18.093050003051758
-29.332021713256836,70.81867980957031,19.17937469482422
-33.927452087402344,73.42284393310547,20.237701416015625
-38.097408294677734,74.43902587890625,20.923046112060547
-41.99797821044922,74.5181655883789,21.4025936126709
-48.479496002197266,78.47171020507812,23.079261779785156
-47.48566436767578,70.37432861328125,21.242063522338867
-44.7315559387207,60.86771011352539,18.900110244750977
-44.52274703979492,55.74406814575195,17.850542068481445
-25.208473205566406,29.084447860717773,9.630269050598145
-36.12989044189453,38.449092864990234,13.201334953308105
-37.20156478881836,36.530975341796875,13.045738220214844
-39.4995231628418,35.78679275512695,13.336284637451172
-43.62165451049805,36.440364837646484,14.221914291381836
-47.56965255737305,36.59688186645508,15.017250061035156
-50.86427688598633,35.9739875793457,15.58816146850586
-54.393428802490234,35.27998733520508,16.221940994262695
-30.87212371826172,16.66692543029785,8.77835750579834
-31.836055755615234,15.569457054138184,8.867300033569336
-34.183448791503906,15.047325134277344,9.345073699951172
-36.77421951293945,14.453512191772461,9.886493682861328
-82.85997009277344,28.780757904052734,21.94751739501953
-15.037149429321289,-42.779415130615234,11.345887184143066
-12.962157249450684,-42.22705078125,11.05224895477295
-43.419151306152344,-85.67374420166016,24.882282257080078
-15.146678924560547,-41.68533706665039,11.489842414855957
-13.3969144821167,-42.062252044677734,11.436041831970215
-11.30203914642334,-41.13126754760742,11.050455093383789
-9.97415542602539,-42.98947525024414,11.432720184326172
-10.44682502746582,-54.97251510620117,14.496108055114746
-8.063302993774414,-54.226078033447266,14.202322006225586
-6.366326332092285,-59.02954864501953,15.380928993225098
-3.936002731323242,-58.43728256225586,15.17312240600586
-1.686391830444336,-62.28030014038086,16.14031219482422
0.7778948545455933,-59.330936431884766,15.371657371520996
3.016387462615967,-56.54676818847656,14.669885635375977
5.054100513458252,-53.9117431640625,14.027667045593262
6.923781394958496,-51.49409484863281,13.460153579711914
8.624712944030762,-49.11299133300781,12.917953491210938
10.181381225585938,-46.843658447265625,12.418695449829102
11.607787132263184,-44.67604446411133,11.958101272583008
12.916543006896973,-42.60188674926758,11.532602310180664
14.118570327758789,-40.61350631713867,11.138993263244629
15.223539352416992,-38.70390701293945,10.774410247802734
16.23519515991211,-36.85608673095703,10.433286666870117
17.170448303222656,-35.086673736572266,10.119634628295898
18.031442642211914,-33.37890625,9.828227996826172
12.036697387695312,-20.28795051574707,6.1112213134765625
13.045260429382324,-20.101301193237305,6.207963943481445
20.23217010498047,-28.59096336364746,9.073736190795898
9.965312004089355,-12.946247100830078,4.2324018478393555
21.41756820678711,-25.624801635742188,8.651790618896484
21.330392837524414,-23.531116485595703,8.227787017822266
21.031055450439453,-21.405986785888672,7.77407693862915
17.95566177368164,-16.863811492919922,6.381492614746094
13.828179359436035,-11.97906494140625,4.739587783813477
17.360824584960938,-13.85870361328125,5.754777908325195
18.179672241210938,-13.352925300598145,5.843540668487549
19.303451538085938,-13.017867088317871,6.031660556793213
20.50452995300293,-12.660262107849121,6.242876052856445
18.582775115966797,-10.466790199279785,5.525189399719238
23.19173812866211,-11.861810684204102,6.748322486877441
24.711631774902344,-11.411054611206055,7.051393032073975
25.286876678466797,-10.46577262878418,7.089742660522461
25.419353485107422,-9.34317684173584,7.0159010887146
25.528242111206055,-8.235193252563477,6.948957920074463
25.038602828979492,-6.980081558227539,6.733859062194824
25.48614501953125,-6.012842655181885,6.783729076385498
25.528057098388672,-4.949458122253418,6.736477375030518
25.548978805541992,-3.89599609375,6.695260524749756
25.741779327392578,-2.8728771209716797,6.710093975067139
25.721715927124023,-1.8283263444900513,6.680307388305664
25.681493759155273,-0.7907270193099976,6.656228065490723
25.621301651000977,0.24088972806930542,6.6377739906311035
25.541248321533203,1.2674620151519775,6.624883651733398
25.441381454467773,2.2898919582366943,6.617513179779053
25.321678161621094,3.3091092109680176,6.615637302398682
25.182052612304688,4.325994968414307,6.619250774383545
25.022348403930664,5.341435432434082,6.628364562988281
24.65662384033203,6.308788299560547,6.593344688415527
24.45752716064453,7.316384792327881,6.613420009613037
24.237638473510742,8.325167655944824,6.639101028442383
22.6957950592041,8.829961776733398,6.308905124664307
23.912450790405273,10.42778491973877,6.758168697357178
23.6251220703125,11.453088760375977,6.801606178283691
23.314640045166016,12.48319149017334,6.851173400878906
22.980224609375,13.51902961730957,6.907040119171143
22.621042251586914,14.561573028564453,6.969403266906738
22.226850509643555,15.605259895324707,7.035577774047852
21.8153018951416,16.663732528686523,7.111627101898193
21.375810623168945,17.731937408447266,7.194936275482178
19.0044002532959,17.09906578063965,6.622771263122559
16.897159576416016,16.47848892211914,6.1143574714660645
