-32.8698616027832,12.699603080749512,3.9703550338745117
-32.99853515625,11.247956275939941,3.9281044006347656
-34.36061096191406,10.191146850585938,4.038205146789551
-35.7939338684082,9.069109916687012,4.160445213317871
-37.30892562866211,7.872805118560791,4.2962775230407715
-39.83400344848633,6.746939659118652,4.552138328552246
-41.504974365234375,5.325085639953613,4.71481990814209
-40.943782806396484,3.588481903076172,4.630941867828369
-40.40301513671875,1.9100216627120972,4.557415008544922
-39.87992477416992,0.2814542055130005,4.493502140045166
-39.3720588684082,-1.3046619892120361,4.438601493835449
-38.87721633911133,-2.855020761489868,4.392206192016602
-43.30951690673828,-4.936273097991943,4.911403179168701
-53.42035675048828,-8.274286270141602,6.090806007385254
-58.85744857788086,-11.554617881774902,6.758209228515625
-27.985551834106445,-6.671779155731201,3.2415833473205566
-44.470645904541016,-12.509605407714844,5.205108165740967
-56.94838333129883,-18.51852035522461,6.7472734451293945
-55.79990005493164,-20.658498764038086,6.704181671142578
-54.91975784301758,-22.88117027282715,6.703545093536377
-53.72757339477539,-24.962617874145508,6.675135612487793
-52.51423263549805,-27.014760971069336,6.6539459228515625
-51.207557678222656,-29.001081466674805,6.630759239196777
-49.75645446777344,-30.88279151916504,6.598299980163574
-47.69886779785156,-32.330135345458984,6.492563247680664
-47.3921012878418,-34.98072814941406,6.636862754821777
-46.04620361328125,-36.934547424316406,6.650961399078369
-44.66737365722656,-38.87809371948242,6.672177314758301
-44.81037902832031,-42.28367614746094,6.941861629486084
-43.99591064453125,-44.99073028564453,7.090170860290527
-43.14640808105469,-47.822792053222656,7.257250785827637
-25.726972579956055,-30.92782211303711,4.532770156860352
-23.64399528503418,-30.866117477416992,4.380866050720215
-21.711483001708984,-30.83452796936035,4.249065399169922
-19.983774185180664,-30.951391220092773,4.1511054039001465
-20.792373657226562,-35.23363494873047,4.609589576721191
-19.988906860351562,-37.21075439453125,4.759274005889893
-18.46270751953125,-37.95231628417969,4.755343437194824
-16.59539794921875,-37.91440963745117,4.6632304191589355
-16.8619441986084,-43.166019439697266,5.221548557281494
-14.853506088256836,-43.05264663696289,5.131457328796387
-13.818171501159668,-45.963348388671875,5.407797336578369
-14.861915588378906,-57.7562370300293,6.71956205368042
-12.225494384765625,-56.89069747924805,6.556380748748779
-10.198188781738281,-58.88283920288086,6.733273983001709
-8.767411231994629,-66.38356018066406,7.544581413269043
-6.492340087890625,-71.04521179199219,8.038229942321777
-4.112776279449463,-80.65396881103516,9.099326133728027
-0.8759427070617676,-81.35430145263672,9.166964530944824
2.362539529800415,-80.29413604736328,9.050888061523438
6.1796159744262695,-88.64867401123047,10.012541770935059
10.092968940734863,-91.569580078125,10.379899024963379
14.259963035583496,-94.37755584716797,10.754493713378906
26.150104522705078,-71.44570922851562,8.572269439697266
32.8385009765625,-79.6504898071289,9.707259178161621
36.66218566894531,-79.68083953857422,9.882614135742188
45.11747741699219,-88.5098648071289,11.19357967376709
28.336170196533203,-91.54592895507812,11.604911804199219
30.929412841796875,-87.33671569824219,11.219895362854004
31.408050537109375,-78.51238250732422,10.240206718444824
35.13685607910156,-78.52883911132812,10.418188095092773
25.158119201660156,-50.6633186340332,6.850001811981201
26.988868713378906,-49.275604248046875,6.803582191467285
31.061565399169922,-51.6699104309082,7.300692558288574
59.77531051635742,-70.68120574951172,11.209821701049805
31.675172805786133,47.1811637878418,6.881682872772217
-54.592506408691406,65.5326156616211,10.328761100769043
-49.8186149597168,55.138240814208984,8.998880386352539
-43.6554069519043,44.578224182128906,7.555768966674805
-41.952205657958984,39.52958297729492,6.980281829833984
-41.569149017333984,36.12881851196289,6.669480323791504
-42.42841720581055,33.98243713378906,6.582829475402832
-46.15141296386719,34.01363754272461,6.942685604095459
-48.91449737548828,33.10268783569336,7.152371406555176
-51.69923400878906,32.03709411621094,7.3652753829956055
-50.7036018371582,28.667457580566406,7.0535383224487305
-48.137271881103516,24.719310760498047,6.552987098693848
-33.94183349609375,15.74014949798584,4.530733108520508
-33.316673278808594,13.852538108825684,4.369417190551758
-32.73530960083008,12.09260368347168,4.225996971130371
-33.099308013916016,10.736892700195312,4.213855743408203
-34.45851516723633,9.66640567779541,4.333921909332275
-35.88948440551758,8.528746604919434,4.467164039611816
-37.40254592895508,7.314722061157227,4.615162372589111
-41.041107177734375,6.326592445373535,5.028687477111816
-41.307918548583984,4.677992820739746,5.034268379211426
-40.753089904785156,2.963303565979004,4.948133945465088
-40.28400421142578,1.3058260679244995,4.880856513977051
-39.699493408203125,-0.30878251791000366,4.807661056518555
-39.19572830200195,-1.8812317848205566,4.751975059509277
-38.8414192199707,-3.432420492172241,4.7219319343566895
-46.40850067138672,-5.9881978034973145,5.666545867919922
-57.48805618286133,-9.779705047607422,7.0616607666015625
-57.49424362182617,-12.175515174865723,7.116804599761963
-27.835147857666016,-7.073931694030762,3.4779207706451416
-56.47126007080078,-16.79331398010254,7.134490013122559
-55.07833480834961,-18.818429946899414,7.048418998718262
-54.244049072265625,-21.00266456604004,7.0440192222595215
-53.1010856628418,-23.05382537841797,7.0102949142456055
-51.936729431152344,-25.07402229309082,6.984023094177246
-50.749576568603516,-27.06653594970703,6.965081691741943
-49.2797737121582,-28.883087158203125,6.917135238647461
-48.04859161376953,-30.819412231445312,6.912655353546143
-45.36103057861328,-31.737642288208008,6.704148292541504
-45.71852111816406,-34.80485534667969,6.958169937133789
-44.39210891723633,-36.70314025878906,6.975242614746094
-42.94189453125,-38.5106086730957,6.985003471374512
-44.60264205932617,-43.356380462646484,7.532595634460449
-43.77613067626953,-46.115089416503906,7.699899196624756
-42.9127311706543,-49.00625228881836,7.888203144073486
-24.666719436645508,-30.5643253326416,4.7562642097473145
-22.687841415405273,-30.546091079711914,4.607761859893799
-20.82114028930664,-30.522050857543945,4.474246025085449
-19.0526180267334,-30.492616653442383,4.354135513305664
-20.334068298339844,-35.65510177612305,4.970551013946533
-19.504220962524414,-37.63743209838867,5.13344144821167
-17.609128952026367,-37.60594177246094,5.028526306152344
-15.838336944580078,-37.69758987426758,4.951637268066406
-15.97884750366211,-42.766788482666016,5.5286359786987305
-14.46529483795166,-44.03580856323242,5.612973690032959
-13.420656204223633,-47.16802215576172,5.938650131225586
-13.880792617797852,-57.46262741088867,7.158731937408447
-11.289593696594238,-56.61150360107422,6.990506172180176
-10.098926544189453,-63.936622619628906,7.838562965393066
-7.840965270996094,-67.01358032226562,8.170543670654297
-5.692371368408203,-74.46556854248047,9.043912887573242
-2.8460464477539062,-78.77667236328125,9.545886039733887
0.32963991165161133,-80.99946594238281,9.80893325805664
3.540090322494507,-79.94831085205078,9.691039085388184
6.948506832122803,-82.10027313232422,9.977699279785156
11.152708053588867,-89.03376007080078,10.866039276123047
15.277469635009766,-91.86447143554688,11.277359962463379
19.715816497802734,-94.83416748046875,11.729750633239746
30.059911727905273,-78.49996948242188,10.179292678833008
33.746341705322266,-78.52574157714844,10.35020637512207
37.184486389160156,-77.75694274902344,10.437482833862305
26.105785369873047,-49.38853454589844,6.764944553375244
31.242406845092773,-53.76120376586914,7.529855728149414
59.08769607543945,-72.0080795288086,11.279982566833496
-54.20034408569336,67.06031036376953,10.441654205322266
-52.78614044189453,60.19423294067383,9.695161819458008
-50.09322738647461,52.693763732910156,8.804359436035156
-27.553869247436523,26.745452880859375,4.650111675262451
-40.822532653808594,36.55699157714844,6.635988235473633
-41.25850296020508,34.062381744384766,6.479022979736328
-44.0850715637207,33.51128387451172,6.70590353012085
-47.87512969970703,33.44542694091797,7.07216739654541
-50.73305892944336,32.48982620239258,7.295499801635742
-49.67705535888672,29.067947387695312,6.969963550567627
-48.504798889160156,25.824459075927734,6.654440402984619
-34.185142517089844,16.473546981811523,4.595333576202393
-33.54203414916992,14.533550262451172,4.426763534545898
-32.94527053833008,12.728736877441406,4.277011871337891
-32.61374282836914,11.116791725158691,4.172579765319824
-33.948829650878906,10.069018363952637,4.28813362121582
-35.352149963378906,8.957173347473145,4.416338920593262
-36.83361053466797,7.772505760192871,4.558686256408691
-39.79457092285156,6.740261077880859,4.887664794921875
-41.58662414550781,5.3355607986450195,5.077322006225586
-41.02289581298828,3.5954136848449707,4.986820220947266
-40.479835510253906,1.9136528968811035,4.9074859619140625
-39.95468521118164,0.2819870710372925,4.8385419845581055
-39.44496536254883,-1.307078242301941,4.779314041137695
-38.94845199584961,-2.8602542877197266,4.72926664352417
-43.211769104003906,-4.925132751464844,5.2667236328125
-52.57353210449219,-8.1431245803833,6.442449569702148
-57.39627456665039,-11.267756462097168,7.083209037780762
-28.05562400817871,-6.6884846687316895,3.492687225341797
-44.51585388183594,-12.522319793701172,5.599987983703613
-55.486026763916016,-18.04298973083496,7.065555095672607
-54.37593460083008,-20.13131332397461,7.021589756011963
-53.525508880615234,-22.3002872467041,7.021869659423828
-52.36922836303711,-24.331512451171875,6.992863655090332
-51.190650939941406,-26.333881378173828,6.971227645874023
-49.98829650878906,-28.3105525970459,6.956863880157471
-48.506263732910156,-30.106826782226562,6.913479328155518
-45.364681243896484,-30.748031616210938,6.636544704437256
-46.22148895263672,-34.116695404052734,6.956918239593506
-44.88566207885742,-36.00364685058594,6.96809196472168
-43.53805923461914,-37.89514923095703,6.989761829376221
-44.899505615234375,-42.36778259277344,7.475754261016846
-44.085289001464844,-45.08214569091797,7.635796070098877
-43.23612976074219,-47.922245025634766,7.81610107421875
-25.428895950317383,-30.569486618041992,4.815247058868408
-23.404537200927734,-30.553524017333984,4.6607489585876465
-21.498159408569336,-30.53156852722168,4.521902084350586
-19.694969177246094,-30.50408172607422,4.397011756896973
-20.637601852416992,-34.971370697021484,4.917381286621094
-19.828323364257812,-36.91180419921875,5.074037551879883
-18.31684112548828,-37.6524658203125,5.070528507232666
-16.4254207611084,-37.526058197021484,4.960567474365234
-16.72111701965332,-42.80550003051758,5.565101146697998
-14.747849464416504,-42.746368408203125,5.475900173187256
-13.863014221191406,-46.112525939941406,5.831010341644287
-14.870171546936035,-57.788360595703125,7.226008415222168
-12.231790542602539,-56.91992950439453,7.050229549407959
-10.085406303405762,-58.231666564941406,7.156704425811768
-8.771951675415039,-66.41807556152344,8.112920761108398
-6.523767471313477,-71.38916778564453,8.681087493896484
-3.9723281860351562,-77.89964294433594,9.445711135864258
-0.8645949363708496,-80.29878997802734,9.724553108215332
2.363722324371338,-80.33336639404297,9.732396125793457
5.94814920425415,-85.32808685302734,10.358104705810547
9.70168399810791,-88.01947021484375,10.72350025177002
13.720083236694336,-90.80453491210938,11.121025085449219
18.037668228149414,-93.71812438964844,11.55733871459961
26.119470596313477,-71.36203002929688,9.202434539794922
32.37207794189453,-78.51912689208984,10.284893989562988
36.132171630859375,-78.5289306640625,10.467997550964355
25.30231475830078,-49.63716506958008,6.74683952331543
27.743091583251953,-49.41285705566406,6.86241340637207
30.101802825927734,-84.99977111816406,11.680876731872559
30.969186782836914,-77.41535186767578,10.80098819732666
34.317325592041016,-76.6972427368164,10.884495735168457
25.49386215209961,-51.339454650878906,7.425297737121582
26.771522521972656,-48.87876892089844,7.219243049621582
29.189456939697266,-48.55571746826172,7.338927745819092
59.80576705932617,-70.7172622680664,11.997364044189453
31.62530517578125,47.10687255859375,7.3498125076293945
-54.86050796508789,65.85432434082031,11.103014945983887
-50.04019546508789,55.38349914550781,9.669011116027832
-43.830711364746094,44.75724411010742,8.114933013916016
-42.109954833984375,39.678218841552734,7.494949817657471
-41.17367935180664,35.785125732421875,7.0665388107299805
-42.47084045410156,34.01641845703125,7.048755168914795
-46.12515640258789,33.99428939819336,7.422434329986572
-48.885841369628906,33.08328628540039,7.64647102355957
-51.20427322387695,31.73036766052246,7.803271770477295
-50.238529205322266,28.404512405395508,7.4760284423828125
-34.111629486083984,17.516895294189453,4.967361927032471
-34.024688720703125,15.778570175170898,4.8583984375
-33.39509582519531,13.885141372680664,4.6850080490112305
-32.80983352661133,12.120134353637695,4.530879497528076
-32.7132682800293,10.611677169799805,4.455034255981445
-34.04533004760742,9.550498008728027,4.5804443359375
-35.446075439453125,8.423373222351074,4.719526290893555
-37.782344818115234,7.389017105102539,4.987018585205078
-40.999271392822266,6.3201422691345215,5.373748302459717
-41.38894271850586,4.687170028686523,5.395766258239746
-40.8316535949707,2.969015121459961,5.303267955780029
-40.3604850769043,1.308311104774475,5.231016159057617
-39.77385330200195,-0.30936354398727417,5.152431011199951
-39.26829147338867,-1.8847135305404663,5.0926432609558105
-38.897735595703125,-3.4373974800109863,5.058422565460205
-46.29582977294922,-5.97365665435791,6.046843528747559
-55.94474792480469,-9.517173767089844,7.351144313812256
-56.109867095947266,-11.882355690002441,7.4296159744262695
-27.86884307861328,-7.082498550415039,3.7248668670654297
-55.0484619140625,-16.370201110839844,7.43955135345459
-53.699951171875,-18.347482681274414,7.351074695587158
-52.8942756652832,-20.48004913330078,7.347557067871094
-51.78593063354492,-22.48284912109375,7.3132476806640625
-50.65513229370117,-24.455289840698242,7.286516189575195
-49.50054931640625,-26.400388717651367,7.267246723175049
-48.06891632080078,-28.173397064208984,7.21751594543457
-46.86875534057617,-30.06263542175293,7.21295166015625
-44.969871520996094,-31.463970184326172,7.109653472900391
-44.593902587890625,-33.948699951171875,7.260128498077393
-43.29751205444336,-35.79813003540039,7.277502059936523
-41.967063903808594,-37.63636016845703,7.302301406860352
-44.2880859375,-43.05061721801758,8.00086498260498
-43.24622344970703,-45.556861877441406,8.136950492858887
-26.490463256835938,-30.252056121826172,5.208913326263428
-24.413904190063477,-30.251060485839844,5.035672664642334
-22.462495803833008,-30.242691040039062,4.880008697509766
-20.62027931213379,-30.227582931518555,4.7399702072143555
-18.87369728088379,-30.20626449584961,4.613914966583252
-20.181903839111328,-35.388309478759766,5.277259826660156
-19.346664428710938,-37.33338165283203,5.446928977966309
-17.471965789794922,-37.31300354003906,5.337158203125
-16.03949737548828,-38.17639923095703,5.364089012145996
-15.847082138061523,-42.414161682128906,5.865275859832764
-14.510719299316406,-44.17408752441406,6.0231032371521
-13.31228256225586,-46.78715133666992,6.301328659057617
-13.888446807861328,-57.4943733215332,7.6619977951049805
-12.241300582885742,-61.383785247802734,8.108185768127441
-9.698301315307617,-61.40036392211914,8.052369117736816
-7.876845359802246,-67.32026672363281,8.780106544494629
-5.65202522277832,-73.9376220703125,9.605762481689453
-2.7509231567382812,-76.14346313476562,9.870004653930664
0.3190789222717285,-78.41109466552734,10.157397270202637
3.5418214797973633,-79.98731231689453,10.371652603149414
6.885822772979736,-81.35966491699219,10.576953887939453
10.730337142944336,-85.66177368164062,11.183282852172852
14.677807807922363,-88.25872039794922,11.58999252319336
18.911312103271484,-90.96446990966797,12.035428047180176
23.337810516357422,-93.27925872802734,12.45577621459961
27.848941802978516,-94.93531036376953,12.816061019897461
29.642358779907227,-77.4095458984375,10.737629890441895
33.269813537597656,-77.41690063476562,10.915372848510742
35.716163635253906,-74.68647003173828,10.724187850952148
25.8967227935791,-48.993019104003906,7.1785736083984375
28.288028717041016,-48.67738723754883,7.293074607849121
57.900699615478516,-70.56150817871094,11.823904991149902
35.69347381591797,47.319095611572266,7.677999973297119
-54.229736328125,67.09668731689453,11.1755952835083
-53.029296875,60.471527099609375,10.418787956237793
-50.067543029785156,52.666725158691406,9.413272857666016
-27.525962829589844,26.718366622924805,4.9692277908325195
-40.42543029785156,36.201385498046875,7.029526233673096
-41.080284118652344,33.915252685546875,6.90073299407959
-44.06025314331055,33.49241638183594,7.1693267822265625
-47.84736633300781,33.42605209350586,7.5607829093933105
-50.853885650634766,32.567203521728516,7.822649955749512
-49.70116424560547,29.082054138183594,7.459453105926514
-48.6298828125,25.89105224609375,7.136675834655762
-34.26978302001953,16.51433753967285,4.9278411865234375
-33.622032165527344,14.568218231201172,4.746644973754883
-33.021175384521484,12.75806999206543,4.585701942443848
-32.23706817626953,10.988393783569336,4.411895751953125
-33.545997619628906,9.949546813964844,4.532629013061523
-34.920291900634766,8.847746849060059,4.666486740112305
-36.369319915771484,7.674534797668457,4.815003871917725
-39.7551383972168,6.733583927154541,5.22320032119751
-41.66875457763672,5.3460917472839355,5.441981315612793
-41.10246658325195,3.60239315032959,5.344796180725098
-40.557106018066406,1.9173074960708618,5.259605407714844
-40.02988052368164,0.2825162410736084,5.185569763183594
-39.518287658691406,-1.309507131576538,5.121979236602783
-39.02009201049805,-2.865513801574707,5.068249702453613
-43.11426544189453,-4.914021968841553,5.62114953994751
-52.316368103027344,-8.103290557861328,6.857839584350586
-55.97698211669922,-10.98913288116455,7.389614582061768
-28.126192092895508,-6.705307483673096,3.7455530166625977
-44.56124496459961,-12.535087585449219,5.9964704513549805
-54.09415054321289,-17.590375900268555,7.368497848510742
-53.020198822021484,-19.62938690185547,7.32378625869751
-52.19768524169922,-21.7470760345459,7.325030326843262
-51.07534408569336,-23.730356216430664,7.2955121994018555
-49.9296989440918,-25.685211181640625,7.27349853515625
-48.759422302246094,-27.61459732055664,7.258882522583008
-47.31503677368164,-29.36745834350586,7.21379280090332
-45.39865493774414,-30.771055221557617,7.104489326477051
-45.085227966308594,-33.27799606323242,7.25893497467041
-43.77997589111328,-35.116764068603516,7.270229339599609
-42.462345123291016,-36.9588623046875,7.292273044586182
-44.656410217285156,-42.13838577270508,7.953581809997559
-43.63859176635742,-44.625335693359375,8.08531379699707
-27.292341232299805,-30.250398635864258,5.277766227722168
-25.16507339477539,-30.252328872680664,5.097471714019775
-23.169429779052734,-30.246597290039062,4.93556022644043
-21.28856658935547,-30.233903884887695,4.789963722229004
-19.508209228515625,-30.214826583862305,4.658926010131836
-17.96297264099121,-30.4390869140625,4.578451156616211
-19.669981002807617,-36.617042541503906,5.384405136108398
-18.17296600341797,-37.35673904418945,5.3813886642456055
-16.2991886138916,-37.2376594543457,5.265589714050293
-16.582340240478516,-42.45024490356445,5.903634548187256
-14.623210906982422,-42.38510513305664,5.8081207275390625
-13.908246994018555,-46.26296615600586,6.257833003997803
-12.022581100463867,-46.722042083740234,6.249501705169678
-12.238442420959473,-56.95090103149414,7.5457987785339355
-10.738350868225098,-62.00160598754883,8.151215553283691
-8.776543617248535,-66.45271301269531,8.682994842529297
-6.568259239196777,-71.87593841552734,9.349552154541016
-3.840900421142578,-75.32219696044922,9.769851684570312
-0.8351614475250244,-77.56622314453125,10.04844856262207
2.3502562046051025,-79.87649536132812,10.351613998413086
5.476014137268066,-78.5550537109375,10.200663566589355
9.338868141174316,-84.72795867919922,11.042065620422363
13.188739776611328,-87.2878646850586,11.435551643371582
17.312774658203125,-89.95193481445312,11.866169929504395
21.74454689025879,-92.73326873779297,12.338427543640137
26.37796401977539,-95.123291015625,12.787193298339844
26.13960075378418,-71.41697692871094,9.851520538330078
31.917795181274414,-77.41728973388672,10.847464561462402
34.87245559692383,-75.79106140136719,10.807317733764648
25.090787887573242,-49.22219467163086,7.1568193435668945
27.396875381469727,-48.796234130859375,7.249180793762207
28.994699478149414,-93.67333984375,13.531928062438965
30.981393814086914,-87.48348236083984,12.807340621948242
33.724884033203125,-75.3731918334961,11.395156860351562
25.817550659179688,-51.991275787353516,8.01065731048584
26.55717658996582,-48.4874382019043,7.629136562347412
28.9519100189209,-48.160579681396484,7.7545881271362305
59.85942459106445,-70.7806625366211,12.792348861694336
31.57547378540039,47.032657623291016,7.8174729347229
-54.11300277709961,64.95695495605469,11.666942596435547
-50.26420211791992,55.63141632080078,10.34656810760498
-44.010292053222656,44.94062805175781,8.680315971374512
-42.28676223754883,39.84485626220703,8.017955780029297
-40.803436279296875,35.463321685791016,7.460343837738037
-42.44728469848633,33.99755859375,7.504929542541504
-44.99068832397461,33.15818405151367,7.712690353393555
-48.857154846191406,33.063865661621094,8.141057968139648
-50.7176628112793,31.428829193115234,8.233884811401367
-49.78093719482422,28.14577293395996,7.891721248626709
-34.74601745605469,17.842660903930664,5.390181541442871
-34.10812759399414,15.817268371582031,5.188381671905518
-33.47406768798828,13.917970657348633,5.002773284912109
-32.884864807128906,12.147856712341309,4.837820053100586
-32.335357666015625,10.489075660705566,4.69114875793457
-33.64106750488281,9.43709659576416,4.8216447830200195
-35.012550354003906,8.320358276367188,4.966257572174072
-37.746559143066406,7.382014274597168,5.307671546936035
-40.60006332397461,6.258599281311035,5.668949127197266
-41.470462799072266,4.696402072906494,5.759469509124756
-40.91069412231445,2.9747657775878906,5.660547256469727
-40.437416076660156,1.3108009099960327,5.583261489868164
-39.84865188598633,-0.30994588136672974,5.499246597290039
-39.34128189086914,-1.8882180452346802,5.43531608581543
-38.910587310791016,-3.4385323524475098,5.390556812286377
-46.18348693847656,-5.959161281585693,6.426116466522217
-54.502647399902344,-9.271843910217285,7.629362106323242
-54.619651794433594,-11.566774368286133,7.704612731933594
-27.902694702148438,-7.091098308563232,3.972947120666504
-53.692745208740234,-15.967041015625,7.730228424072266
-52.38612365722656,-17.898590087890625,7.639555931091309
-51.60733413696289,-19.981761932373047,7.636965274810791
-50.531707763671875,-21.938325881958008,7.602166175842285
-49.43265914916992,-23.8651065826416,7.575051307678223
-48.309051513671875,-25.76491355895996,7.555495262145996
-47.159576416015625,-27.640430450439453,7.543418884277344
-45.743064880371094,-29.34059715270996,7.499464988708496
-42.761695861816406,-29.918977737426758,7.202059745788574
-43.54121780395508,-33.14730453491211,7.5516862869262695
-42.25339889526367,-34.93485641479492,7.56581974029541
-40.95166778564453,-36.72574996948242,7.590978145599365
-43.07127380371094,-41.867794036865234,8.289196014404297
-42.03837585449219,-44.28448486328125,8.426247596740723
-26.211956024169922,-29.934003829956055,5.490756034851074
-24.165674209594727,-29.943498611450195,5.309997081756592
-22.241106033325195,-29.94462013244629,5.147472381591797
-20.422807693481445,-29.93812370300293,5.001176357269287
-18.717750549316406,-29.956682205200195,4.874628067016602
-20.031688690185547,-35.124900817871094,5.580057144165039
-19.19129753112793,-37.03356170654297,5.7560529708862305
-17.336620330810547,-37.02397155761719,5.641673564910889
-16.330364227294922,-38.86869430541992,5.81803035736084
-15.71722412109375,-42.066566467285156,6.197109222412109
-14.556526184082031,-44.313560485839844,6.436717510223389
-13.205429077148438,-46.41157531738281,6.658963203430176
-13.89614486694336,-57.52622985839844,8.166900634765625
-12.28868579864502,-61.6214714050293,8.671154022216797
-9.703459739685059,-61.43287658691406,8.582786560058594
-7.913132190704346,-67.63045501708984,9.39661693572998
-5.473569869995117,-71.6032485961914,9.910009384155273
-2.6617469787597656,-73.6755142211914,10.173784255981445
0.30844974517822266,-75.798095703125,10.460150718688965
3.452803134918213,-77.976806640625,10.77127742767334
6.753814697265625,-79.79995727539062,11.051700592041016
10.281341552734375,-82.07748413085938,11.415135383605957
14.122299194335938,-84.91839599609375,11.879616737365723
18.169166564941406,-87.39466094970703,12.318259239196777
22.509483337402344,-89.96853637695312,12.798269271850586
27.179166793823242,-92.652099609375,13.324684143066406
31.61298179626465,-93.6595687866211,13.641339302062988
32.55470275878906,-75.75284576416016,11.378280639648438
35.73312759399414,-74.72196197509766,11.429985046386719
25.6905517578125,-48.60295867919922,7.586503982543945
28.059261322021484,-48.28370666503906,7.706531524658203
29.403827667236328,-46.21784973144531,7.559374809265137
57.85667419433594,-70.50786590576172,12.586518287658691
35.64781951904297,47.258575439453125,8.168967247009277
-54.15339660644531,67.0022201538086,11.888680458068848
-53.18296432495117,60.64669418334961,11.131355285644531
-50.04179000854492,52.63966369628906,10.022879600524902
-27.56753921508789,26.758705139160156,5.301748752593994
-40.931941986083984,36.65498352050781,7.58243465423584
-41.5417594909668,34.29623031616211,7.433980464935303
-44.03541946411133,33.4735221862793,7.633230209350586
-47.81962203979492,33.40665054321289,8.049882888793945
-50.2318000793457,32.16883850097656,8.231587409973145
-49.83112716674805,29.158109664916992,7.9673871994018555
-48.75588607788086,25.958141326904297,7.622450828552246
-34.35503005981445,16.55541229248047,5.262724876403809
-33.70258712768555,14.603117942810059,5.068748474121094
-33.09760284423828,12.787593841552734,4.896487236022949
-31.982168197631836,10.901510238647461,4.662863731384277
-33.15178680419922,9.832618713378906,4.771899223327637
-34.49794006347656,8.740747451782227,4.911120414733887
-36.67384719848633,7.738806247711182,5.172410488128662
-39.715694427490234,6.726905822753906,5.558795928955078
-41.75139617919922,5.356706142425537,5.80888557434082
-41.182525634765625,3.6094064712524414,5.704944133758545
-40.63483810424805,1.9209823608398438,5.61383581161499
-40.10551834106445,0.28304535150527954,5.534665107727051
-39.592044830322266,-1.3119492530822754,5.466670513153076
-39.09215545654297,-2.870806932449341,5.409212112426758
-42.96196365356445,-4.896661758422852,5.967100620269775
-52.17051696777344,-8.080699920654297,7.285340309143066
-54.53783416748047,-10.706607818603516,7.669817924499512
-22.532100677490234,-5.371669292449951,3.1965479850769043
-39.01952362060547,-10.976202011108398,5.593651294708252
-52.76762390136719,-17.159013748168945,7.657217025756836
-51.72770309448242,-19.15087127685547,7.611887454986572
-50.9315185546875,-21.219554901123047,7.614112854003906
-49.84125518798828,-23.15697479248047,7.584176540374756
-48.72684860229492,-25.066431045532227,7.5618391036987305
-47.587066650390625,-26.950639724731445,7.5470099449157715
-46.17852783203125,-28.66204833984375,7.500310897827148
-44.989986419677734,-30.49405288696289,7.500330924987793
-42.319637298583984,-31.236690521240234,7.258652210235596
-42.72526168823242,-34.270751953125,7.558440685272217
-41.43634033203125,-36.06583023071289,7.580807685852051
-40.02832794189453,-37.77125930786133,7.5948805809021
-42.42729187011719,-43.38665008544922,8.37426471710205
-27.00166893005371,-29.9282169342041,5.562560081481934
-24.90610694885254,-29.941011428833008,5.374490737915039
-22.938495635986328,-29.945125579833984,5.205484390258789
-21.082571029663086,-29.941364288330078,5.053410053253174
-19.32457160949707,-29.930395126342773,4.916465759277344
-18.420196533203125,-31.213876724243164,5.001605987548828
-19.513813018798828,-36.326332092285156,5.690505027770996
-18.031042098999023,-37.06499099731445,5.688065052032471
-16.19260025024414,-36.99415588378906,5.572785377502441
-16.445554733276367,-42.100093841552734,6.237309455871582
-14.889050483703613,-43.155635833740234,6.299917697906494
-13.953869819641113,-46.414737701416016,6.6883864402771
-12.28339672088623,-47.735595703125,6.802068710327148
-12.245113372802734,-56.981971740722656,8.04298210144043
-10.782095909118652,-62.25420379638672,8.718926429748535
-8.781106948852539,-66.48744201660156,9.25489330291748
-6.474483013153076,-70.84986114501953,9.817957878112793
-3.7176172733306885,-72.90481567382812,10.073866844177246
-0.8076083660125732,-75.00816345214844,10.351658821105957
2.2705016136169434,-77.16547393798828,10.653371810913086
5.358248710632324,-76.86550903320312,10.633125305175781
8.952258110046387,-81.22022247314453,11.276205062866211
12.69599723815918,-84.02667999267578,11.727228164672852
16.642528533935547,-86.4695816040039,12.151729583740234
20.870561599731445,-89.00605773925781,12.615917205810547
25.274995803833008,-91.1458740234375,13.052699089050293
30.150150299072266,-93.90067291259766,13.609797477722168
31.90970802307129,-87.18177032470703,12.811563491821289
35.23637771606445,-85.46659088134766,12.757376670837402
34.55610275268555,-75.10358428955078,11.408674240112305
24.8823299407959,-48.81322479248047,7.560867786407471
27.1766300201416,-48.40394973754883,7.660521507263184
27.793724060058594,-89.7933349609375,13.768460273742676
28.444353103637695,-80.31951904296875,12.48105239868164
34.55132293701172,-86.3698501586914,13.626075744628906
33.97468185424805,-75.93144989013672,12.184913635253906
25.576526641845703,-51.50593948364258,8.42348861694336
26.345754623413086,-48.101436614990234,8.033439636230469
28.648195266723633,-47.65534973144531,8.144718170166016
59.947200775146484,-70.88447570800781,13.598276138305664
35.47563934326172,48.510807037353516,8.80312442779541
31.52569007873535,46.95851135253906,8.2847318649292
-53.418121337890625,64.12283325195312,12.224791526794434
-50.490760803222656,55.882164001464844,11.031814575195312
-44.1917724609375,45.125953674316406,9.251670837402344
-28.395198822021484,26.755464553833008,5.71480131149292
-40.52579116821289,35.222015380859375,7.864853858947754
-42.42371368408203,33.978675842285156,7.961642265319824
-44.96500015258789,33.139259338378906,8.181921005249023
-48.447608947753906,32.786705017089844,8.56884765625
-50.2391242980957,31.132280349731445,8.657350540161133
-49.3305778503418,27.891151428222656,8.300844192504883
-34.88375473022461,17.91338539123535,5.744057655334473
-34.192176818847656,15.856246948242188,5.520749568939209
-33.553592681884766,13.951041221618652,5.322783946990967
-32.96040725708008,12.175760269165039,5.146873474121094
-31.965213775634766,10.369014739990234,4.922399520874023
-33.24540710449219,9.32610034942627,5.057712554931641
-34.58855438232422,8.219597816467285,5.2075700759887695
-37.71076202392578,7.375010013580322,5.628456115722656
-40.558570861816406,6.252204895019531,6.011131286621094
-41.552486419677734,4.705689907073975,6.125448703765869
-40.99022674560547,2.980546474456787,6.020040512084961
-40.51482009887695,1.3133084774017334,5.9376606941223145
-39.92390060424805,-0.31052958965301514,5.848169326782227
-39.414710998535156,-1.8917438983917236,5.780051231384277
-38.98249435424805,-3.4448890686035156,5.732349395751953
-46.07142639160156,-5.944701194763184,6.804416656494141
-52.89454650878906,-8.99827766418457,7.859204292297363
-52.984092712402344,-11.22040843963623,7.9331254959106445
-27.936702728271484,-7.099740982055664,4.22220516204834
-52.399322509765625,-15.582414627075195,8.00755500793457
-51.13225173950195,-17.470182418823242,7.914872169494629
-50.11613845825195,-19.404386520385742,7.871984481811523
-49.3341064453125,-21.41838836669922,7.878041744232178
-48.26521301269531,-23.301483154296875,7.85059928894043
-47.170989990234375,-25.15795135498047,7.830812454223633
-46.05034637451172,-26.990304946899414,7.818587303161621
-44.66779327392578,-28.650894165039062,7.77314567565918
-42.832359313964844,-29.968420028686523,7.657217502593994
-42.5159912109375,-32.36680221557617,7.826958179473877
-41.256229400634766,-34.11040496826172,7.841174602508545
-39.982051849365234,-35.856204986572266,7.866636276245117
-41.91695022583008,-40.7457275390625,8.562718391418457
-28.09108543395996,-29.591981887817383,5.976598262786865
-25.938629150390625,-29.621871948242188,5.767360687255859
-23.92190933227539,-29.641435623168945,5.579409599304199
-22.023536682128906,-29.65169906616211,5.410313606262207
-20.228654861450195,-29.653514862060547,5.258002281188965
-18.542835235595703,-29.676738739013672,5.125795841217041
-17.846736907958984,-31.29365348815918,5.276881217956543
-19.038053512573242,-36.73785400390625,6.060947895050049
-17.20306396484375,-36.738739013671875,5.9421892166137695
-16.382415771484375,-38.99260330200195,6.1952033042907715
-15.589166641235352,-41.723838806152344,6.524293899536133
-14.602733612060547,-44.454227447509766,6.853902816772461
-13.100025177001953,-46.04114532470703,7.011706829071045
-11.659767150878906,-48.26822280883789,7.2736101150512695
-12.336565017700195,-61.86149978637695,9.2398042678833
-9.719881057739258,-61.53689956665039,9.125580787658691
-7.897043228149414,-67.49285125732422,9.953678131103516
-5.305677890777588,-69.40692138671875,10.196268081665039
-2.578000545501709,-71.35733032226562,10.459126472473145
0.29848408699035645,-73.3481674194336,10.744010925292969
3.215216875076294,-72.6114273071289,10.6464262008667
6.522401809692383,-77.06604766845703,11.328869819641113
9.972436904907227,-79.61148071289062,11.752498626708984
13.60617446899414,-81.81488037109375,12.14870548248291
17.48152732849121,-84.08712768554688,12.580312728881836
21.625699996948242,-86.43614196777344,13.05128288269043
26.06378173828125,-88.84979248046875,13.56299114227295
30.850788116455078,-91.4014663696289,14.130424499511719
33.23697280883789,-86.79668426513672,13.614116668701172
32.795799255371094,-76.31387329101562,12.166858673095703
35.75015640258789,-74.75758361816406,12.138079643249512
25.487171173095703,-48.21818542480469,7.988903045654297
27.833627700805664,-47.895469665527344,8.114277839660645
28.65460968017578,-45.040225982666016,7.819408416748047
57.81260681152344,-70.45417022705078,13.349716186523438
35.60216522216797,47.19806671142578,8.65980339050293
-54.43405532836914,67.34944915771484,12.68456745147705
-52.165714263916016,59.486698150634766,11.589326858520508
-50.01603317260742,52.6125602722168,10.633252143859863
-27.60933494567871,26.799287796020508,5.636044979095459
-41.469078063964844,37.136009216308594,8.153949737548828
-41.5189208984375,34.27735900878906,7.886412620544434
-44.010528564453125,33.454620361328125,8.097672462463379
-47.79182052612305,33.38722229003906,8.539530754089355
-49.79615783691406,31.88984489440918,8.661598205566406
-49.658687591552734,29.057209014892578,8.427675247192383
-48.82013702392578,25.992341995239258,8.101472854614258
-34.44090270996094,16.596797943115234,5.600053787231445
-33.783714294433594,14.638277053833008,5.393149375915527
-33.174556732177734,12.817323684692383,5.2094340324401855
-32.606689453125,11.114392280578613,5.046019554138184
-32.765838623046875,9.718155860900879,5.006143093109131
-34.08476257324219,8.636058807373047,5.150445938110352
-36.63995361328125,7.731651782989502,5.485149383544922
-39.67625427246094,6.72022008895874,5.894491672515869
-41.83455276489258,5.367370128631592,6.178088188171387
-41.26307678222656,3.6164638996124268,6.067320823669434
-40.713050842285156,1.924674153327942,5.970241546630859
-40.18162155151367,0.28358590602874756,5.885887622833252
-39.6662483215332,-1.31441068649292,5.8134355545043945
-39.107662200927734,-2.871947765350342,5.7438554763793945
-42.86559295654297,-4.885679721832275,6.319535255432129
-52.025169372558594,-8.058189392089844,7.711434364318848
-52.951072692871094,-10.39510726928711,7.904224872589111
-22.554039001464844,-5.376901149749756,3.396259307861328
-39.03300857543945,-10.979994773864746,5.9394001960754395
-51.50175094604492,-16.747377395629883,7.932735919952393
-50.49393844604492,-18.69409942626953,7.886896133422852
-49.722591400146484,-20.715879440307617,7.8901262283325195
-48.66276168823242,-22.609434127807617,7.859834671020508
-47.578006744384766,-24.475439071655273,7.837234020233154
-46.46726989746094,-26.316442489624023,7.822222709655762
-45.0928955078125,-27.988218307495117,7.7740044593811035
-43.93228530883789,-29.777149200439453,7.7740254402160645
-41.32183837890625,-30.500194549560547,7.52299690246582
-41.71791458129883,-33.46274185180664,7.833707332611084
-40.4565544128418,-35.21303939819336,7.856342315673828
-39.1599006652832,-36.951820373535156,7.886663436889648
-28.924083709716797,-29.57810401916504,6.059797286987305
-26.716463088989258,-29.612104415893555,5.841981887817383
-24.65184211730957,-29.635347366333008,5.646483421325684
-22.711597442626953,-29.648935317993164,5.470682621002197
-20.880090713500977,-29.653785705566406,5.312394142150879
-19.143936157226562,-29.650634765625,5.169778347015381
-18.412668228149414,-31.20111846923828,5.306758880615234
-19.351531982421875,-36.02422332763672,5.989921569824219
-17.8909969329834,-36.7771110534668,5.990667343139648
-16.651546478271484,-38.042694091796875,6.082863807678223
-16.31071662902832,-41.75489044189453,6.566267967224121
-14.935303688049316,-43.28970718383789,6.707787036895752
-13.851348876953125,-46.07366943359375,7.047179222106934
-12.326664924621582,-47.903770446777344,7.245455265045166
-12.251821517944336,-57.01315689086914,8.541851043701172
-10.826297760009766,-62.50947570800781,9.292606353759766
-8.785734176635742,-66.52230072021484,9.828700065612793
-6.277695178985596,-68.69621276855469,10.104432106018066
-3.6017770767211914,-70.63270568847656,10.35960578918457
-0.7817730903625488,-72.60812377929688,10.63613510131836
2.195800304412842,-74.62681579589844,10.935941696166992
5.3183674812316895,-76.29376220703125,11.202507019042969
8.64171028137207,-78.40303039550781,11.553899765014648
12.2377347946167,-80.99372863769531,11.998490333557129
16.020889282226562,-83.23965454101562,12.41659164428711
20.062381744384766,-85.55931854248047,12.872529029846191
24.39191436767578,-87.96129608154297,13.370645523071289
29.04387664794922,-90.45525360107422,13.915979385375977
31.9248104095459,-87.22299194335938,13.605192184448242
34.71427536010742,-84.20020294189453,13.340604782104492
34.81208419799805,-75.65989685058594,12.199373245239258
24.67682456970215,-48.41007614135742,7.959163665771484
26.959407806396484,-48.01704406738281,8.066225051879883
26.679380416870117,-86.19329071044922,13.983372688293457
25.5440731048584,-72.12987518310547,11.858854293823242
34.42906188964844,-86.06417846679688,14.365754127502441
33.990875244140625,-75.96764373779297,12.898134231567383
25.33936882019043,-51.02836227416992,8.829656600952148
26.137184143066406,-47.720619201660156,8.432320594787598
27.905757904052734,-46.42035675048828,8.394021034240723
28.70035743713379,-43.667938232421875,8.098416328430176
60.10666275024414,-71.07304382324219,14.425641059875488
35.381107330322266,48.38154220581055,9.289139747619629
31.475948333740234,46.88440704345703,8.751653671264648
-55.39700698852539,66.4983139038086,13.413338661193848
-50.71991729736328,56.13576126098633,11.72494125366211
-50.71860885620117,51.7907600402832,11.23423957824707
-28.328882217407227,26.69297981262207,6.032303810119629
-41.08285140991211,35.7061882019043,8.435627937316895
-42.40010452270508,33.959774017333984,8.418957710266113
-44.93929672241211,33.120304107666016,8.651759147644043
-48.03446960449219,32.50712203979492,8.988779067993164
-50.15825653076172,31.08217430114746,9.144978523254395
-48.750633239746094,27.563270568847656,8.679289817810059
-34.97364044189453,17.959548950195312,6.0930376052856445
-34.27684783935547,15.895514488220215,5.855578422546387
-33.63369369506836,13.984347343444824,5.645101070404053
-33.03647994995117,12.203858375549316,5.458106994628906
-32.47882080078125,10.535616874694824,5.291719913482666
-32.858001708984375,9.217426300048828,5.288851737976074
-34.89944076538086,8.293490409851074,5.559284210205078
-37.67493438720703,7.368005752563477,5.949416160583496
-40.51706314086914,6.245809555053711,6.35343599319458
-41.122581481933594,4.657006740570068,6.413849830627441
-40.574337005615234,2.9503021240234375,6.304747581481934
-40.03717803955078,1.2978265285491943,6.20815896987915
-39.509193420410156,-0.3073056936264038,6.123256206512451
-38.98858642578125,-1.871293306350708,6.049344539642334
-39.054840087890625,-3.4512805938720703,6.076243877410889
-45.95964431762695,-5.930279731750488,7.18179988861084
-51.404441833496094,-8.744784355163574,8.081018447875977
-51.539894104003906,-10.91457462310791,8.16469669342041
-27.97087860107422,-7.108431339263916,4.472679138183594
-51.163818359375,-15.214996337890625,8.27245807647705
-49.93414306640625,-17.06083106994629,8.177943229675293
-48.948062896728516,-18.952119827270508,8.134661674499512
-48.18926239013672,-20.921354293823242,8.141761779785156
-47.148956298828125,-22.762577056884766,8.11406421661377
-46.08275604248047,-24.577552795410156,8.094080924987793
-44.98957061767578,-26.36857795715332,8.081741333007812
-43.63947296142578,-27.991304397583008,8.034876823425293
-42.49462890625,-29.73210906982422,8.037676811218262
-39.76313400268555,-30.271100997924805,7.744956970214844
-40.302772521972656,-33.32210159301758,8.10445785522461
-39.063987731933594,-35.032867431640625,8.132006645202637
-37.7801628112793,-36.72452926635742,8.165515899658203
-27.79007339477539,-29.274879455566406,6.255648136138916
-25.670299530029297,-29.315439224243164,6.0389084815979
-23.68242645263672,-29.344696044921875,5.844081878662109
-21.80968475341797,-29.363767623901367,5.668677806854248
-20.03770637512207,-29.373598098754883,5.510604381561279
-18.432130813598633,-29.499542236328125,5.3908538818359375
-18.249744415283203,-32.00032424926758,5.709170341491699
-18.886873245239258,-36.44612503051758,6.361733436584473
-17.07121467590332,-36.45718765258789,6.238828182220459
-16.998424530029297,-40.45879364013672,6.801169395446777
-15.454179763793945,-41.36257553100586,6.843125820159912
-14.649349212646484,-44.596126556396484,7.274773120880127
-12.996038436889648,-45.67569351196289,7.359698295593262
-11.823429107666016,-48.945743560791016,7.803709983825684
-12.351812362670898,-61.938026428222656,9.788071632385254
-9.215496063232422,-58.34364318847656,9.154104232788086
-7.658346176147461,-65.45291900634766,10.212990760803223
-5.1473894119262695,-67.33642578125,10.466129302978516
-2.4991984367370605,-69.17546081542969,10.727686882019043
0.28912782669067383,-71.04624938964844,11.010723114013672
3.103416681289673,-70.08601379394531,10.872464179992676
6.305870056152344,-74.50725555419922,11.588294982910156
9.631108283996582,-76.88648986816406,12.008871078491211
13.125308990478516,-78.92339324951172,12.39941120147705
16.84256362915039,-81.01362609863281,12.823821067810059
20.80677032470703,-83.16297912597656,13.285728454589844
25.03937339782715,-85.35771179199219,13.786028861999512
28.403568267822266,-84.15115356445312,13.764472961425781
32.63129806518555,-85.21501922607422,14.141639709472656
32.811405181884766,-76.35018920898438,12.879008293151855
25.82453155517578,-54.002010345458984,9.276881217956543
25.286497116088867,-47.83854675292969,8.385940551757812
27.611082077026367,-47.51249694824219,8.516495704650879
27.996503829956055,-44.00579071044922,8.083149909973145
57.768516540527344,-70.40042114257812,14.113611221313477
35.556541442871094,47.137569427490234,9.150579452514648
-29.153017044067383,77.85592651367188,12.884143829345703
-54.71834182739258,67.70121002197266,13.490735054016113
-51.53679275512695,58.76953125,12.114014625549316
-49.9902229309082,52.585426330566406,11.244486808776855
-27.651363372802734,26.84008026123047,5.972176551818848
-41.620635986328125,37.2717399597168,8.658647537231445
-41.496028900146484,34.25846862792969,8.339454650878906
-43.985633850097656,33.43568420410156,8.562725067138672
-47.26507568359375,33.019256591796875,8.93549633026123
-49.36699676513672,31.614986419677734,9.085232734680176
-49.8309440612793,29.157991409301758,8.947653770446777
-34.95709228515625,18.61150550842285,6.137587547302246
-34.52741241455078,16.638484954833984,5.939901828765869
-33.86542892456055,14.67367935180664,5.719908714294434
-33.25205993652344,12.84726619720459,5.524609088897705
-32.68047332763672,11.139531135559082,5.350912570953369
-32.38788986206055,9.606050491333008,5.235542297363281
-33.680389404296875,8.533600807189941,5.384669303894043
-36.60602951049805,7.724493503570557,5.798073768615723
-39.636775970458984,6.713534355163574,6.2303385734558105
-41.328243255615234,5.302404880523682,6.45748233795166
-40.77534484863281,3.573716640472412,6.3435258865356445
-40.234336853027344,1.9020423889160156,6.242412567138672
-39.70317840576172,0.28020453453063965,6.153285980224609
-39.18003463745117,-1.2983036041259766,6.075390815734863
-38.663211822509766,-2.839308738708496,6.008096694946289
-42.823055267333984,-4.880828857421875,6.679619789123535
-51.04798126220703,-7.906818866729736,8.005657196044922
-51.46772384643555,-10.103893280029297,8.128617286682129
-22.576068878173828,-5.382153511047363,3.596850633621216
-39.103763580322266,-10.999897003173828,6.295450687408447
-50.29235076904297,-16.35410499572754,8.195961952209473
-49.314876556396484,-18.25758171081543,8.149713516235352
-48.56698989868164,-20.234420776367188,8.153963088989258
-47.53603744506836,-22.085941314697266,8.123385429382324
-46.47949981689453,-23.910335540771484,8.100565910339355
-45.39640426635742,-25.709964752197266,8.085408210754395
-44.0546875,-27.343820571899414,8.035741806030273
-42.9207763671875,-29.091550827026367,8.035768508911133
-40.98879623413086,-30.25438117980957,7.895397186279297
-40.75468826293945,-32.69011688232422,8.096918106079102
-39.51982116699219,-34.39771270751953,8.119770050048828
-38.258453369140625,-36.1011962890625,8.152227401733398
-28.60985565185547,-29.256778717041016,6.341788291931152
-26.436552047729492,-29.301851272583008,6.116225719451904
-24.402122497558594,-29.33513641357422,5.913622856140137
-22.48862648010254,-29.357847213745117,5.731311798095703
-20.680959701538086,-29.370990753173828,5.567061901092529
-18.981828689575195,-29.39956283569336,5.423457622528076
-18.45814323425293,-31.278181076049805,5.628569602966309
-19.206275939941406,-35.75382614135742,6.289941310882568
-18.168872833251953,-37.348304748535156,6.43674373626709
-16.698341369628906,-38.14958953857422,6.4539265632629395
-16.177745819091797,-41.41447067260742,6.890660762786865
-14.981964111328125,-43.424930572509766,7.119199752807617
-13.740839004516602,-45.70612716674805,7.396639347076416
-12.370343208312988,-48.07354736328125,7.6930694580078125
