-84.1972427368164,-6.719289302825928,-2.457679271697998
-82.53235626220703,-9.936335563659668,-2.4187891483306885
-83.77787780761719,-13.519909858703613,-2.4692277908325195
-91.12947082519531,-18.489967346191406,-2.705631732940674
-65.99754333496094,-16.1760196685791,-1.9771671295166016
-81.28924560546875,-23.422956466674805,-2.4615068435668945
-45.351531982421875,-85.72235870361328,-2.821822166442871
15.988639831542969,59.27741622924805,-1.2758588790893555
-19.388351440429688,73.20466613769531,-1.5737009048461914
-23.21000862121582,75.2746810913086,-1.6369338035583496
-27.302324295043945,77.36224365234375,-1.704824447631836
-30.055437088012695,75.36900329589844,-1.6861634254455566
-32.89506912231445,73.73383331298828,-1.6778178215026855
-58.835872650146484,75.69603729248047,-1.9923033714294434
-61.312984466552734,67.00252532958984,-1.887343406677246
-65.42923736572266,65.97179412841797,-1.9308509826660156
-66.26197814941406,61.648536682128906,-1.8807811737060547
-66.98971557617188,57.48227310180664,-1.8343522548675537
-40.91250991821289,32.345401763916016,-1.0838017463684082
-56.3725471496582,40.998600006103516,-1.4485156536102295
-56.48143768310547,37.70458984375,-1.4112255573272705
-59.979591369628906,36.64496994018555,-1.4606361389160156
-62.605316162109375,34.875572204589844,-1.4892358779907227
-63.03163146972656,31.865310668945312,-1.4677095413208008
-45.79431915283203,20.885494232177734,-1.0459380149841309
-44.552005767822266,18.19417953491211,-1.000046730041504
-45.14725875854492,16.35370635986328,-0.997844934463501
-47.1137809753418,14.954099655151367,-1.0271892547607422
-49.20452880859375,13.467679977416992,-1.060111403465271
-51.439247131347656,11.880572319030762,-1.0970876216888428
-53.61262893676758,10.133069038391113,-1.133833885192871
-52.94691467285156,7.819193363189697,-1.1122066974639893
-49.35503387451172,5.273160457611084,-1.0314699411392212
-49.786861419677734,3.3035383224487305,-1.0368789434432983
-52.53310012817383,1.3700976371765137,-1.092044472694397
-92.40863037109375,-1.3037352561950684,-1.9205167293548584
-85.42791748046875,-4.642324924468994,-1.7778749465942383
-83.72284698486328,-7.932980537414551,-1.7476165294647217
-82.07168579101562,-11.118388175964355,-1.7210866212844849
-88.7496566772461,-15.676513671875,-1.8728355169296265
-89.18295288085938,-19.476848602294922,-1.896970510482788
-71.2491455078125,-18.58786392211914,-1.5301659107208252
-77.80960083007812,-46.268707275390625,-1.881218433380127
-22.177534103393555,75.90762329101562,-1.6433653831481934
-24.901615142822266,74.04179382324219,-1.6233339309692383
-29.04583168029785,76.09964752197266,-1.6926774978637695
-31.763317108154297,74.1337661743164,-1.6759953498840332
-63.0970573425293,77.06510925292969,-2.0697803497314453
-64.513671875,72.63499450683594,-2.018825054168701
-65.126220703125,67.64449310302734,-1.9513044357299805
-65.95233917236328,63.21150207519531,-1.8983879089355469
-66.65670013427734,58.935874938964844,-1.8489785194396973
-67.4468765258789,54.96895980834961,-1.8081374168395996
-57.45938491821289,43.10670471191406,-1.4927091598510742
-55.66834259033203,38.36778259277344,-1.4049770832061768
-58.33402633666992,36.8389892578125,-1.4337172508239746
-61.623756408691406,35.536800384521484,-1.4782586097717285
-63.94800567626953,33.52886962890625,-1.5004668235778809
-62.419620513916016,29.594247817993164,-1.4355297088623047
-45.0654411315918,19.188751220703125,-1.017849326133728
-44.44919967651367,16.85089874267578,-0.987834095954895
-46.37415313720703,15.480326652526855,-1.0159589052200317
-48.41694259643555,14.02744197845459,-1.0475119352340698
-50.59598922729492,12.479273796081543,-1.0829280614852905
-52.92644500732422,10.818981170654297,-1.1225948333740234
-53.16790771484375,8.659619331359863,-1.1194239854812622
-49.764610290527344,6.064894676208496,-1.0417909622192383
-48.841644287109375,3.9693779945373535,-1.0183120965957642
-51.485496520996094,2.1074576377868652,-1.0708000659942627
-54.42405319213867,0.039669036865234375,-1.13097083568573
-86.07271575927734,-3.397616386413574,-1.7900457382202148
-84.34566497802734,-6.731136798858643,-1.758333683013916
-82.675537109375,-9.95357608795166,-1.7304643392562866
-84.35834503173828,-13.613591194152832,-1.7757112979888916
-90.12557220458984,-18.286270141601562,-1.9110352993011475
-66.1259536743164,-16.207487106323242,-1.414815902709961
-81.43560028076172,-23.465133666992188,-1.76114022731781
-45.23150634765625,-85.49546813964844,-2.009972095489502
15.989496231079102,59.28053283691406,-0.7654838562011719
-18.921567916870117,71.44233703613281,-0.9214015007019043
-21.468299865722656,69.62602996826172,-0.9083719253540039
-27.128894805908203,76.87079620361328,-1.0162935256958008
-29.866580963134766,74.89543151855469,-1.0052423477172852
-32.69026184082031,73.27478790283203,-1.000328540802002
-60.900726318359375,78.35255432128906,-1.2372145652770996
-62.40803146362305,73.95747375488281,-1.2064743041992188
-61.435516357421875,67.13642120361328,-1.134556770324707
-63.809417724609375,64.33853912353516,-1.1297268867492676
-64.5389175415039,60.04542541503906,-1.099024772644043
-65.2768325805664,56.012516021728516,-1.0723845958709717
-59.7662239074707,47.2511100769043,-0.9498598575592041
-56.577457427978516,41.147621154785156,-0.872183084487915
-56.60742950439453,37.78870391845703,-0.8485426902770996
-59.788612365722656,36.528289794921875,-0.8735113143920898
-63.965579986572266,35.63332748413086,-0.912872314453125
-63.285701751708984,31.993755340576172,-0.8841004371643066
-46.10777282714844,21.02845573425293,-0.6318004131317139
-44.66387939453125,18.2398738861084,-0.6014798879623413
-44.80236053466797,16.22877311706543,-0.5940777063369751
-46.743370056152344,14.836529731750488,-0.611411452293396
-48.805389404296875,13.358428955078125,-0.6308493614196777
-51.00754165649414,11.780861854553223,-0.6526656150817871
-53.23509216308594,10.061717987060547,-0.6754460334777832
-50.58509063720703,7.470381736755371,-0.6374976634979248
-49.45133972167969,5.283461570739746,-0.6200300455093384
-49.29867172241211,3.2711424827575684,-0.6159684658050537
-51.99085998535156,1.3559565544128418,-0.6484030485153198
-54.98890686035156,-0.7757964134216309,-0.6856274604797363
-85.58039855957031,-4.650613784790039,-1.0685288906097412
-83.86974334716797,-7.946893692016602,-1.050309658050537
-82.21348571777344,-11.13759994506836,-1.0343434810638428
-89.24980926513672,-15.764852523803711,-1.129927396774292
-89.28260803222656,-19.498613357543945,-1.1393473148345947
-71.46633911132812,-18.6445255279541,-0.9208128452301025
-77.77345275878906,-46.247215270996094,-1.1281073093414307
-21.542736053466797,73.73494720458984,-0.957709789276123
-23.048730850219727,68.5325698852539,-0.9014439582824707
-28.862619400024414,75.61965942382812,-1.0091018676757812
-31.564939498901367,73.67073822021484,-0.9992256164550781
-62.028167724609375,75.7596435546875,-1.220712661743164
-62.92525100708008,70.8466567993164,-1.1813488006591797
-63.56513977050781,66.02305603027344,-1.142618179321289
-64.21964263916016,61.55082702636719,-1.1090102195739746
-65.11260986328125,57.57063293457031,-1.083601951599121
-65.95401000976562,53.752235412597656,-1.0607848167419434
-57.72517395019531,43.30610275268555,-0.8996844291687012
-55.86099624633789,38.50054931640625,-0.8458266258239746
-58.46624755859375,36.9224739074707,-0.8620996475219727
-61.2772102355957,35.336952209472656,-0.8818869590759277
-64.21790313720703,33.67036437988281,-0.9039969444274902
-45.99704360961914,21.80801010131836,-0.6346466541290283
-45.18061447143555,19.2377872467041,-0.6122149229049683
-44.1130256652832,16.72344970703125,-0.5881643295288086
-46.013511657714844,15.359931945800781,-0.6047803163528442
-48.028812408447266,13.914981842041016,-0.6234092712402344
-50.176795959472656,12.375874519348145,-0.6443114280700684
-52.48698043823242,10.72914981842041,-0.6679009199142456
-52.80332946777344,8.60024356842041,-0.6669876575469971
-49.86267852783203,6.076845645904541,-0.6262503862380981
-48.34960174560547,3.929382801055908,-0.6047724485397339
-50.96431350708008,2.08612060546875,-0.6359144449234009
-53.84246826171875,0.03925609588623047,-0.6712632179260254
-86.2273941040039,-3.4037280082702637,-1.0758612155914307
-84.49455261230469,-6.743023872375488,-1.0567736625671387
-82.81916809082031,-9.97085952758789,-1.0399832725524902
-84.94668579101562,-13.708526611328125,-1.0727579593658447
-89.93258666992188,-18.247112274169922,-1.144063949584961
-91.27474212646484,-22.371471405029297,-1.1716334819793701
-45.112152099609375,-85.26985168457031,-1.202690601348877
19.253019332885742,61.44709014892578,-0.26758718490600586
15.990324020385742,59.283653259277344,-0.2551689147949219
-18.42974853515625,69.58538055419922,-0.299135684967041
-21.35067367553711,69.24451446533203,-0.301116943359375
-26.876718521118164,76.1562728881836,-0.3356032371520996
-29.68012237548828,74.42788696289062,-0.3329753875732422
-32.48802947998047,72.82151794433594,-0.33136749267578125
-57.48642349243164,80.43128204345703,-0.41083240509033203
-59.01108932495117,75.92145538330078,-0.3995943069458008
-60.68899917602539,71.92032623291016,-0.39106225967407227
-61.55851364135742,67.27082824707031,-0.37892866134643555
-62.249263763427734,62.76545715332031,-0.36736011505126953
-62.95305252075195,58.56998825073242,-0.35733556747436523
-63.784122467041016,54.73162841796875,-0.34926819801330566
-60.00351333618164,47.438724517822266,-0.31786465644836426
-56.83356475830078,41.3338737487793,-0.29203224182128906
-56.733970642089844,37.87317657470703,-0.28346776962280273
-60.904781341552734,37.2102165222168,-0.29659128189086914
-64.11641693115234,35.71736145019531,-0.3049964904785156
-63.54954147338867,32.12712097167969,-0.2959165573120117
-46.229679107666016,21.084056854248047,-0.21114444732666016
-44.776275634765625,18.285764694213867,-0.20098590850830078
-44.4627685546875,16.105762481689453,-0.19651401042938232
-46.37879943847656,14.720817565917969,-0.20220184326171875
-48.4127311706543,13.25096321105957,-0.20857810974121094
-50.58308792114258,11.682836532592773,-0.21573364734649658
-52.86289978027344,9.991371154785156,-0.2235623598098755
-50.68675994873047,7.485401630401611,-0.2129141092300415
-49.54798126220703,5.293777942657471,-0.20707166194915771
-48.820072174072266,3.239382743835449,-0.20331978797912598
-51.45981216430664,1.3421111106872559,-0.21391451358795166
-54.39534378051758,-0.7674241065979004,-0.22606444358825684
-85.7333984375,-4.6589250564575195,-0.35680174827575684
-84.01712036132812,-7.960859775543213,-0.35070061683654785
-82.35575866699219,-11.15687084197998,-0.34536242485046387
-88.7140884399414,-15.670223236083984,-0.37436556816101074
-89.43325805664062,-19.531511306762695,-0.3804067373275757
-77.73735046386719,-46.22574996948242,-0.375840425491333
-17.195112228393555,69.0467758178711,-0.29569053649902344
-20.418588638305664,69.88739776611328,-0.3025631904602051
-22.92340087890625,68.15989685058594,-0.29883289337158203
-28.68175506591797,75.14578247070312,-0.33424949645996094
-31.36907196044922,73.21356201171875,-0.3309922218322754
-56.814151763916016,82.03656005859375,-0.41467761993408203
-58.60752868652344,77.75597381591797,-0.40462493896484375
-60.078670501708984,73.37852478027344,-0.394101619720459
-61.278785705566406,68.99293518066406,-0.3834710121154785
-61.96992492675781,64.36614990234375,-0.37131643295288086
-62.649986267089844,60.046409606933594,-0.36063385009765625
-63.380245208740234,56.03894805908203,-0.35158443450927734
-63.18928527832031,51.498992919921875,-0.3387446403503418
-57.94218826293945,43.46888732910156,-0.3010087013244629
-56.054962158203125,38.63422393798828,-0.2829113006591797
-58.59901428222656,37.00634002685547,-0.2880086898803711
-62.90961456298828,36.27832794189453,-0.30177855491638184
-64.40082550048828,33.76628494262695,-0.30217576026916504
-46.804508209228516,22.190841674804688,-0.21525287628173828
-45.296363830566406,19.28708839416504,-0.20458102226257324
-43.78196334838867,16.597938537597656,-0.19457554817199707
-45.65851974487305,15.241424560546875,-0.20002853870391846
-47.64692306518555,13.804346084594727,-0.2061406373977661
-49.764564514160156,12.274201393127441,-0.21299612522125244
-52.03200912475586,10.636141777038574,-0.2206897735595703
-51.123870849609375,8.326685905456543,-0.2152484655380249
-49.96111297607422,6.088841438293457,-0.2091512680053711
-48.86058807373047,3.9709110260009766,-0.20370972156524658
-50.453670501708984,2.065218925476074,-0.20983457565307617
-53.27333068847656,0.03883838653564453,-0.22137677669525146
-84.72834777832031,-3.3445396423339844,-0.3523683547973633
-84.6439437866211,-6.754940032958984,-0.352863073348999
-82.96326446533203,-9.988216400146484,-0.3472501039505005
-85.39688110351562,-13.781174659729004,-0.3594614267349243
-90.08495330810547,-18.27802276611328,-0.38198256492614746
-92.34957885742188,-22.634912490844727,-0.39512765407562256
-44.993446350097656,-85.04546356201172,-0.3998241424560547
19.136127471923828,61.07404708862305,0.265963077545166
16.04051399230957,59.46973419189453,0.2559542655944824
-17.958515167236328,67.8061294555664,0.2914876937866211
-19.971298217773438,64.77094268798828,0.2816658020019531
-25.391948699951172,71.94916534423828,0.3170638084411621
-29.580110549926758,74.17704772949219,0.33185815811157227
-33.5083122253418,75.10845184326172,0.3417701721191406
-41.541038513183594,83.88426971435547,0.3889904022216797
-53.86903381347656,82.15704345703125,0.4082469940185547
-55.704158782958984,77.93769073486328,0.39809274673461914
-57.22445297241211,73.62284851074219,0.3874983787536621
-58.89105987548828,69.78968048095703,0.37947511672973633
-60.002159118652344,65.570068359375,0.3693265914916992
-60.68438720703125,61.187618255615234,0.3581089973449707
-61.3686408996582,57.095882415771484,0.34830379486083984
-61.21870040893555,52.530296325683594,0.3352177143096924
-60.2426643371582,47.627784729003906,0.31913232803344727
-57.04161834716797,41.48518753051758,0.2931027412414551
-56.86104202270508,37.9580192565918,0.2841029167175293
-61.04474639892578,37.295745849609375,0.297271728515625
-64.26797485351562,35.801788330078125,0.3057112693786621
-63.727298736572266,32.217010498046875,0.2967371940612793
-46.352210998535156,21.139925003051758,0.21170926094055176
-44.88924789428711,18.33190155029297,0.20149993896484375
-44.12831497192383,15.984603881835938,0.19504129886627197
-46.01990509033203,14.606905937194824,0.200644850730896
-48.02638244628906,13.145214080810547,0.20692086219787598
-50.165679931640625,11.58643627166748,0.2139577865600586
-52.49591827392578,9.922005653381348,0.2220144271850586
-50.788818359375,7.500470161437988,0.21334528923034668
-49.64501953125,5.304156303405762,0.2074817419052124
-48.31462097167969,3.205833911895752,0.20122265815734863
-50.93952941894531,1.3285398483276367,0.21175932884216309
-53.81449890136719,-0.7592315673828125,0.22365069389343262
-84.1295394897461,-4.571764945983887,0.35012173652648926
-84.16499328613281,-7.974873065948486,0.3513205051422119
-46.45366668701172,-6.293151378631592,0.19480884075164795
-88.04631042480469,-15.55226993560791,0.3715416193008423
-62.24721145629883,-13.594291687011719,0.2647743225097656
19.902847290039062,60.367244720458984,0.2641453742980957
-16.576295852661133,66.56189727783203,0.2850513458251953
-19.098934173583984,65.37055969238281,0.28300905227661133
-22.799436569213867,67.79130554199219,0.2972135543823242
-28.503145217895508,74.67784881591797,0.3321647644042969
-31.774953842163086,74.160888671875,0.33527660369873047
-53.16603469848633,83.76922607421875,0.4123053550720215
-55.038673400878906,79.4728775024414,0.4017176628112793
-56.81742858886719,75.38099670410156,0.3922696113586426
-58.28399658203125,71.18655395507812,0.3823223114013672
-59.69624328613281,67.21116638183594,0.37357044219970703
-60.4383430480957,62.775360107421875,0.36211681365966797
-61.0963134765625,58.55729675292969,0.35165834426879883
-61.92981719970703,54.75651931762695,0.34351062774658203
-61.83574295043945,50.39588928222656,0.33147692680358887
-58.16083526611328,43.6329231262207,0.30214405059814453
-56.250282287597656,38.768856048583984,0.2838900089263916
-58.73240280151367,37.09056854248047,0.28865718841552734
-63.056766510009766,36.3631591796875,0.30248308181762695
-64.58477783203125,33.86273956298828,0.3030397891998291
-46.930992126464844,22.250804901123047,0.2158362865447998
-45.412681579589844,19.33660888671875,0.20511257648468018
-43.45585632324219,16.47431182861328,0.19312500953674316
-45.3089485168457,15.124751091003418,0.1985023021697998
-47.271095275878906,13.69546127319336,0.20451760292053223
-49.359073638916016,12.174195289611816,0.2112654447555542
-51.59288024902344,10.546365737915039,0.2188323736190796
-51.227935791015625,8.34363079071045,0.21568620204925537
-50.0599250793457,6.100884914398193,0.20956909656524658
-48.95470428466797,3.9785547256469727,0.20410692691802979
-49.95320129394531,2.0447330474853516,0.20776057243347168
-52.716121673583984,0.03843355178833008,0.2190699577331543
-55.80198669433594,-2.2027125358581543,0.23206782341003418
-82.94137573242188,-6.619063854217529,0.3457679748535156
-83.10785675048828,-10.005622863769531,0.3478529453277588
-86.00071716308594,-13.87862491607666,0.3620039224624634
-56.54834747314453,-11.473529815673828,0.23977887630462646
-93.09080505371094,-22.816587448120117,0.3982919454574585
-44.90258026123047,-84.87372589111328,0.399017333984375
19.020639419555664,60.70542907714844,0.7931103706359863
-17.49178695678711,66.04395294189453,0.8517823219299316
-19.86305046081543,64.4198989868164,0.8404545783996582
-25.227998733520508,71.48455810546875,0.945091724395752
-29.752649307250977,74.60973358154297,1.0014104843139648
-32.909385681152344,73.7659912109375,1.007035255432129
-41.42047119140625,83.64083862304688,1.163640022277832
-45.38999938964844,83.08650207519531,1.1803598403930664
-50.048484802246094,83.45979309082031,1.2132625579833984
-52.2078742980957,79.62358093261719,1.1870570182800293
-54.030189514160156,75.59554290771484,1.1584491729736328
-55.76553726196289,71.74583435058594,1.1328954696655273
-52.59292984008789,62.325950622558594,1.016718864440918
-58.4982795715332,63.9266242980957,1.080307960510254
-59.202972412109375,59.69391632080078,1.0481624603271484
-59.95984649658203,55.78517150878906,1.021026611328125
-60.53099822998047,51.94020080566406,0.9943819046020508
-60.4837646484375,47.818397521972656,0.961270809173584
-57.25120544433594,41.63761901855469,0.8825767040252686
-56.98871612548828,38.043243408203125,0.8542599678039551
-61.185394287109375,37.38166809082031,0.893916130065918
-64.42024230957031,35.886619567871094,0.9193570613861084
-63.90604019165039,32.3073616027832,0.8927597999572754
-46.47541427612305,21.196128845214844,0.6368405818939209
-45.002784729003906,18.37826919555664,0.6060458421707153
-43.798824310302734,15.86525821685791,0.5807726383209229
-45.66649627685547,14.494731903076172,0.5973293781280518
-47.646121978759766,13.04112720489502,0.615869402885437
-49.75508499145508,11.491604804992676,0.6366450786590576
-52.01401138305664,9.830906867980957,0.6599545478820801
-50.89129638671875,7.515606880187988,0.6413604021072388
-49.74242401123047,5.314558029174805,0.6236855983734131
-48.65370559692383,3.22833251953125,0.6079176664352417
-50.429656982421875,1.3152341842651367,0.6289347410202026
-53.24586868286133,-0.7512092590332031,0.6639015674591064
-56.39741516113281,-3.064742088317871,0.7041614055633545
-82.28685760498047,-7.796904563903809,1.0304901599884033
-46.286521911621094,-6.270509719848633,0.5823384523391724
-51.64057159423828,-9.12165355682373,0.6537833213806152
-61.937416076660156,-13.526638984680176,0.7903939485549927
-77.61282348632812,-20.248058319091797,1.0000046491622925
19.926490783691406,60.43898391723633,0.7934064865112305
-16.17518424987793,64.95121765136719,0.8344974517822266
-18.994930267333984,65.01458740234375,0.8444452285766602
-22.073760986328125,65.63361358642578,0.8633098602294922
-28.66918182373047,75.11286926269531,1.0023512840270996
-31.6422176361084,73.85107421875,1.0016756057739258
-44.283164978027344,83.99879455566406,1.1838526725769043
-49.31461715698242,85.07240295410156,1.2259407043457031
-51.51368713378906,81.165771484375,1.1985130310058594
-53.36811828613281,77.06066131591797,1.1686363220214844
-55.134273529052734,73.14789581298828,1.1419892311096191
-56.59330749511719,69.12162017822266,1.1137518882751465
-58.158790588378906,65.48014831542969,1.0918560028076172
-58.98707962036133,61.26799774169922,1.0603179931640625
-59.642696380615234,57.1640625,1.0299463272094727
-59.87482833862305,52.939544677734375,0.9964163303375244
-60.477420806884766,49.28886413574219,0.9726676940917969
-58.38115692138672,43.79821014404297,0.9099080562591553
-56.44697570800781,38.9044189453125,0.854698657989502
-58.86639404296875,37.17518615722656,0.8679986000061035
-63.20459747314453,36.44841003417969,0.9096212387084961
-64.76979064941406,33.959747314453125,0.911768913269043
-47.058170318603516,22.311100006103516,0.6492893695831299
-45.52961730957031,19.38640022277832,0.6169507503509521
-44.14426803588867,16.735300064086914,0.58858323097229
-44.96468734741211,15.009822845458984,0.5910012722015381
-46.901126861572266,13.588272094726562,0.6087813377380371
-48.96012496948242,12.075793266296387,0.6286962032318115
-51.16104507446289,10.458097457885742,0.6510323286056519
-51.332454681396484,8.360668182373047,0.6484150886535645
-50.15914535522461,6.112979888916016,0.629977822303772
-49.04920196533203,3.986236095428467,0.6135296821594238
-49.4625244140625,2.0246481895446777,0.6171820163726807
-52.1704216003418,0.038030147552490234,0.6504256725311279
-55.1904182434082,-2.178567886352539,0.6886098384857178
-83.02755737304688,-6.625942230224609,1.0384197235107422
-83.25296783447266,-10.023093223571777,1.0454354286193848
-86.61323547363281,-13.977472305297852,1.0938000679016113
-90.3912353515625,-18.340173721313477,1.1498923301696777
-94.10043334960938,-23.064048767089844,1.2079029083251953
-78.61756896972656,-45.18412399291992,1.1304974555969238
-44.97637939453125,-85.0132064819336,1.1990737915039062
18.945940017700195,60.46704864501953,1.316779613494873
-17.850305557250977,80.30529022216797,1.7095327377319336
-17.08466339111328,64.50672912597656,1.3867130279541016
-19.755950927734375,64.07255554199219,1.393333911895752
-25.06610107421875,71.02584075927734,1.5651884078979492
-29.809871673583984,74.75320434570312,1.6723823547363281
-33.0203742980957,74.01476287841797,1.6842074394226074
-41.504493713378906,83.81050109863281,1.943509578704834
-45.3540153503418,83.02062225341797,1.9658842086791992
-48.54977035522461,80.96052551269531,1.9617352485656738
-50.6479606628418,77.24451446533203,1.9194769859313965
-52.453575134277344,73.3896484375,1.8745779991149902
-54.17314910888672,69.69713592529297,1.8344125747680664
-55.593868255615234,65.88227844238281,1.7913818359375
-57.05329895019531,62.34754180908203,1.756211757659912
-57.78917694091797,58.26839065551758,1.7053718566894531
-57.9859504699707,53.948692321777344,1.6458721160888672
-59.17680358886719,50.77821731567383,1.6203904151916504
-59.420921325683594,46.978126525878906,1.5740869045257568
-57.46238327026367,41.791202545166016,1.4765162467956543
-57.117000579833984,38.12887191772461,1.4271016120910645
-60.132728576660156,36.73853302001953,1.4643607139587402
-64.52497100830078,35.94495391845703,1.534891128540039
-64.08584594726562,32.398258209228516,1.492250919342041
-46.71549606323242,21.30563735961914,1.06697678565979
-45.116920471191406,18.424877166748047,1.0127311944961548
-43.474151611328125,15.747650146484375,0.9608697891235352
-45.31840896606445,14.384246826171875,0.9880493879318237
-47.271751403808594,12.9386625289917,1.0184763669967651
-49.351070404052734,11.398287773132324,1.0525537729263306
-52.2018928527832,9.866436004638672,1.1040009260177612
-50.99421310424805,7.530801773071289,1.0711930990219116
-49.84023666381836,5.325005054473877,1.041613221168518
-48.74696350097656,3.2345190048217773,1.0152262449264526
-49.92975616455078,1.3022046089172363,1.0379301309585571
-52.689029693603516,-0.7433538436889648,1.0950239896774292
-55.772254943847656,-3.0307726860046387,1.1606934070587158
-82.41650390625,-7.809187889099121,1.7203469276428223
-46.3670539855957,-6.281414985656738,0.9723453521728516
-51.81203842163086,-9.15194320678711,1.0933586359024048
-62.05099105834961,-13.551443099975586,1.319861650466919
-77.5867919921875,-20.24127197265625,1.6662760972976685
-95.19612884521484,-28.966339111328125,2.0677947998046875
-15.845800399780273,63.62865447998047,1.3626341819763184
-18.89203643798828,64.66238403320312,1.3999085426330566
-22.99979019165039,68.38707733154297,1.4993529319763184
-28.724374771118164,75.25745391845703,1.673947811126709
-31.660499572753906,73.89375305175781,1.670579433441162
-40.877471923828125,85.71900939941406,1.973482608795166
-27.913097381591797,52.94712829589844,1.2438185214996338
-48.01438522338867,82.82943725585938,1.989527702331543
-49.757659912109375,78.39895629882812,1.9296073913574219
-51.797542572021484,74.79281616210938,1.890578269958496
-53.54761505126953,71.04289245605469,1.8487167358398438
-54.99760437011719,67.1727066040039,1.8040900230407715
-56.67911911010742,63.814186096191406,1.7736234664916992
-57.602561950683594,59.829917907714844,1.725874423980713
-57.16459655761719,54.78895568847656,1.64544677734375
-58.97602081298828,52.14482879638672,1.6358990669250488
-59.02253723144531,48.1031379699707,1.5822763442993164
-58.60322189331055,43.96481704711914,1.522428274154663
-56.64508819580078,39.04096984863281,1.4296278953552246
-59.00102615356445,37.26021957397461,1.4501070976257324
-62.789573669433594,36.20909118652344,1.506232738494873
-64.95590209960938,34.05731201171875,1.5241127014160156
-47.30373001098633,22.427547454833984,1.0878909826278687
-45.64717483520508,19.436450958251953,1.0309909582138062
-44.25299835205078,16.77651023864746,0.9834766387939453
-44.62555694580078,14.896615982055664,0.977657675743103
-46.53682327270508,13.482728004455566,1.0068416595458984
-48.56748962402344,11.978946685791016,1.0395171642303467
-50.73630142211914,10.371272087097168,1.0761431455612183
-51.43740463256836,8.377761840820312,1.082991123199463
-50.25878143310547,6.125118255615234,1.052143931388855
-49.144081115722656,3.9939451217651367,1.0246169567108154
-48.981300354003906,2.0049519538879395,1.0187196731567383
-51.63578796386719,0.0376439094543457,1.0730295181274414
-54.59199142456055,-2.154947280883789,1.1353410482406616
-81.98838806152344,-6.543004035949707,1.709195852279663
-81.17166900634766,-9.77251148223877,1.6989859342575073
-85.00817108154297,-13.718446731567383,1.7893860340118408
-86.59212493896484,-17.5693359375,1.8360966444015503
-91.40925598144531,-22.404436111450195,1.9557782411575317
-94.13485717773438,-27.12434196472168,2.0357742309570312
-78.58099365234375,-45.16310119628906,1.8834528923034668
-45.0504264831543,-85.15319061279297,2.001932144165039
18.968395233154297,60.538719177246094,1.8459382057189941
-14.775613784790039,81.87548065185547,2.420809268951416
-14.444995880126953,64.98541259765625,1.9370331764221191
-16.907657623291016,63.83839416503906,1.9215521812438965
-19.649978637695312,63.72882080078125,1.9404611587524414
-25.670047760009766,72.73707580566406,2.2443666458129883
-29.867319107055664,74.89729309082031,2.3461785316467285
-33.050411224365234,74.08207702636719,2.3603572845458984
-41.99845504760742,84.80791473388672,2.753671169281006
-45.1733512878418,82.68989562988281,2.7416462898254395
-47.10504150390625,78.5513687133789,2.6650710105895996
-46.16996383666992,70.41500854492188,2.4500174522399902
-50.96585464477539,71.30815887451172,2.550327777862549
-52.66869354248047,67.76153564453125,2.4971938133239746
-54.07929229736328,64.08740234375,2.4399428367614746
-55.62501907348633,60.786746978759766,2.3974661827087402
-55.30168533325195,55.76025390625,2.285090446472168
-57.20018768310547,53.21764373779297,2.273284435272217
-57.810462951660156,49.605777740478516,2.216484546661377
-57.77877426147461,45.67985534667969,2.14312481880188
-57.675209045410156,41.945987701416016,2.0750675201416016
-57.245887756347656,38.214927673339844,2.0027289390563965
-60.27199172973633,36.823612213134766,2.055140972137451
-63.013389587402344,35.1028938293457,2.0988008975982666
-64.02230072021484,32.36614990234375,2.087376594543457
-46.840396881103516,21.362600326538086,1.4979679584503174
-45.23169708251953,18.471752166748047,1.4216282367706299
-43.242401123046875,15.663700103759766,1.3382258415222168
-44.9754638671875,14.275390625,1.3729948997497559
-46.903099060058594,12.83775806427002,1.4149421453475952
-48.95342254638672,11.306449890136719,1.4618985652923584
-52.375308990478516,9.899208068847656,1.550947666168213
-51.14501190185547,7.553093433380127,1.5043104887008667
-49.938472747802734,5.335501670837402,1.46133553981781
-48.840599060058594,3.2407331466674805,1.4242428541183472
-49.43950271606445,1.2894210815429688,1.439035177230835
-52.143524169921875,-0.7356548309326172,1.5173773765563965
-56.155479431152344,-3.051600933074951,1.6363658905029297
-80.232177734375,-7.602226257324219,2.344970703125
-46.44789505004883,-6.292368412017822,1.3638442754745483
-83.07611083984375,-14.674346923828125,2.454686164855957
-62.20792007446289,-13.585714340209961,1.852731466293335
-77.56078338623047,-20.234485626220703,2.3323235511779785
-92.40118408203125,-28.115886688232422,2.810314655303955
-94.24861907958984,-32.86918640136719,2.9043397903442383
18.738609313964844,93.43414306640625,2.772794723510742
3.631885051727295,97.58146667480469,2.8412952423095703
-16.65288543701172,80.54135131835938,2.393080711364746
-16.002946853637695,64.25968170166016,1.9268765449523926
-18.79020881652832,64.31385803222656,1.9495725631713867
-22.92405891418457,68.16190338134766,2.092471122741699
-27.793834686279297,72.81946563720703,2.267920970916748
-31.721466064453125,74.03602600097656,2.343637466430664
-40.64656066894531,85.23478698730469,2.7476444244384766
-27.801328659057617,52.73509979248047,1.7346107959747314
-46.57156753540039,80.34043884277344,2.7020254135131836
-48.300537109375,76.10307312011719,2.622708320617676
-50.316226959228516,72.6539306640625,2.5714802742004395
-52.04924011230469,69.05494689941406,2.516127586364746
-53.48896026611328,65.33003234863281,2.4567713737487793
-49.425750732421875,55.647705078125,2.1656408309936523
-56.17284393310547,58.344932556152344,2.356583595275879
-56.88489532470703,54.52088928222656,2.2926418781280518
-57.632080078125,50.95657730102539,2.2383835315704346
-57.70048522949219,47.02565002441406,2.165865898132324
-58.65214538574219,44.001522064208984,2.1334519386291504
-56.844669342041016,39.17853546142578,2.0088095664978027
-59.13632583618164,37.34565734863281,2.0350852012634277
-62.6357421875,36.1203727722168,2.103842258453369
-63.65204620361328,33.373695373535156,2.0912184715270996
-47.43268585205078,22.488679885864258,1.5274109840393066
-45.8795051574707,19.535381317138672,1.4509360790252686
-44.3623046875,16.817956924438477,1.3804583549499512
-44.29138946533203,14.78506088256836,1.3586539030075073
-46.17802429199219,13.378767013549805,1.3988990783691406
-48.180973052978516,11.88361644744873,1.4439393281936646
-51.29903030395508,10.486312866210938,1.5235134363174438
-51.59065246582031,8.402734756469727,1.5209167003631592
-50.35884475708008,6.137307643890381,1.4761368036270142
-49.239356994628906,4.001690864562988,1.4374452829360962
-48.50917053222656,1.9856290817260742,1.4126601219177246
-51.11182403564453,0.03726005554199219,1.4872040748596191
-54.00619888305664,-2.131824493408203,1.5726447105407715
-79.75133514404297,-6.364490985870361,2.3278982639312744
-81.07968139648438,-9.761438369750977,2.376216411590576
-51.943939208984375,-8.382611274719238,1.5309665203094482
-84.12214660644531,-17.068172454833984,2.497558355331421
-72.70297241210938,-17.81951904296875,2.1780552864074707
-91.41267395019531,-26.33995819091797,2.7680490016937256
-93.61053466796875,-31.096948623657227,2.8701484203338623
-78.83568572998047,-45.30948257446289,2.6457526683807373
-45.12474822998047,-85.29368591308594,2.8077139854431152
18.990930557250977,60.610595703125,2.376607894897461
-11.624503135681152,83.47887420654297,3.153693675994873
-14.676654815673828,81.32713317871094,3.09220027923584
-14.473535537719727,65.11377716064453,2.495851516723633
-16.940786361694336,63.9635009765625,2.4758663177490234
-19.860231399536133,64.41075897216797,2.5220422744750977
-25.38560676574707,71.93114471435547,2.854170322418213
-29.27261734008789,73.406005859375,2.956995964050293
-33.081539154052734,74.1518325805664,3.0381641387939453
-40.796390533447266,82.38063049316406,3.439742088317871
-43.73060607910156,80.04899597167969,3.4130311012268066
-45.743186950683594,76.28036499023438,3.3280720710754395
-45.633670806884766,69.59708404541016,3.114011764526367
-49.559539794921875,69.34052276611328,3.1891026496887207
-51.24484634399414,65.9296646118164,3.1244640350341797
-52.605621337890625,62.34099578857422,3.0521488189697266
-53.40327835083008,58.35884094238281,2.9599180221557617
-55.143287658691406,55.60055160522461,2.930084228515625
-55.936073303222656,52.04153823852539,2.8587148189544678
-56.52888488769531,48.506065368652344,2.7871086597442627
-56.55622863769531,44.71331787109375,2.697648048400879
-57.806392669677734,42.041404724121094,2.6744985580444336
-57.37543487548828,38.30140686035156,2.5812432765960693
-60.55426025390625,36.99606704711914,2.655189037322998
-61.570335388183594,34.29899597167969,2.637144088745117
-62.563941955566406,31.628868103027344,2.623117446899414
-46.96602249145508,21.419891357421875,1.9314813613891602
-45.46017837524414,18.565073013305664,1.8373767137527466
-43.983238220214844,15.93205451965332,1.7503794431686401
-44.63751220703125,14.16812515258789,1.7523349523544312
-46.539974212646484,12.738370895385742,1.8054558038711548
-49.47709655761719,11.427412033081055,1.9000388383865356
-52.48553466796875,9.9200439453125,1.9986382722854614
-51.248939514160156,7.568431854248047,1.938398838043213
-50.03715515136719,5.34605073928833,1.882919192314148
-48.93465042114258,3.2469735145568848,1.8350367546081543
-48.95857238769531,1.2768731117248535,1.8325265645980835
-51.60894012451172,-0.7281107902526855,1.931267261505127
-56.451690673828125,-3.0676956176757812,2.1153883934020996
-78.19393920898438,-7.409084320068359,2.9389190673828125
-46.529056549072266,-6.303365707397461,1.756901741027832
-80.8570556640625,-14.282367706298828,3.072274684906006
-82.6985092163086,-18.060686111450195,3.1672792434692383
-77.53515625,-20.227794647216797,2.998265266418457
-89.73784637451172,-27.305492401123047,3.5097551345825195
-91.29779052734375,-31.84008026123047,3.6179141998291016
-92.93797302246094,-36.66260528564453,3.7382912635803223
-72.54210662841797,-51.44240188598633,3.327550172805786
-71.18760681152344,-54.9093017578125,3.3639626502990723
-69.7818832397461,-58.442832946777344,3.4058103561401367
14.535706520080566,59.888065338134766,2.305910587310791
18.627086639404297,92.8780746459961,3.544452667236328
3.637899875640869,97.74348449707031,3.659834861755371
-13.563871383666992,82.11293029785156,3.1140809059143066
-16.542621612548828,80.00807189941406,3.0570168495178223
-16.034393310546875,64.3859634399414,2.482738971710205
-18.48785972595215,63.27898406982422,2.4667162895202637
-22.337873458862305,66.41889953613281,2.622006893157959
-27.614517211914062,72.34967041015625,2.897617816925049
-31.7943115234375,74.2060317993164,3.0207204818725586
-39.87385177612305,83.61443328857422,3.466172218322754
-27.890844345092773,52.9049072265625,2.237806797027588
-45.21231460571289,77.99555206298828,3.373257637023926
-46.92570495605469,73.93684387207031,3.2766685485839844
-33.961360931396484,49.03838348388672,2.2319509983062744
-50.631778717041016,67.17436981201172,3.1475024223327637
-52.268985748291016,63.840003967285156,3.087238311767578
-49.535552978515625,55.77134704589844,2.7910985946655273
-54.04045486450195,56.130035400390625,2.915426731109619
-55.61152648925781,53.300411224365234,2.882239818572998
-56.40140151977539,49.86843490600586,2.8169875144958496
-56.634422302246094,46.15683364868164,2.7337374687194824
-57.12236785888672,42.85386657714844,2.6719717979431152
-57.04573440551758,39.31709289550781,2.592367649078369
-59.27232360839844,37.43153762817383,2.6230392456054688
-61.19794845581055,35.29124450683594,2.6433396339416504
-62.199493408203125,32.612091064453125,2.6278388500213623
-47.562416076660156,22.55019187927246,1.9695544242858887
-45.998680114746094,19.586124420166016,1.8706789016723633
-44.472198486328125,16.85961151123047,1.779599905014038
-43.96202087402344,14.675119400024414,1.7341718673706055
-45.82453155517578,13.276355743408203,1.7851468324661255
-47.91792297363281,11.818737030029297,1.8466962575912476
-51.18255615234375,10.462506294250488,1.9547185897827148
-51.696651458740234,8.420000076293945,1.9598394632339478
-50.50619125366211,6.155280113220215,1.9037898778915405
-49.33506774902344,4.009475231170654,1.8520764112472534
-47.982601165771484,1.9640593528747559,1.7968899011611938
-50.598140716552734,0.0368800163269043,1.893251657485962
-54.42926788330078,-2.1485233306884766,2.0381875038146973
-77.6577377319336,-6.197413444519043,2.9149868488311768
-79.267333984375,-9.54324722290039,2.9873862266540527
-51.964569091796875,-8.38593578338623,1.9695295095443726
-81.64025115966797,-16.564611434936523,3.1169843673706055
-72.67802429199219,-17.813411712646484,2.799914836883545
-88.84227752685547,-25.59931755065918,3.4594874382019043
-90.71316528320312,-30.134462356567383,3.5766243934631348
-92.32234191894531,-34.8460578918457,3.692331075668335
-73.0302734375,-50.17709732055664,3.3154261112213135
-71.69342041015625,-53.622074127197266,3.349896192550659
-70.30720520019531,-57.12971496582031,3.3897104263305664
19.013504028320312,60.68267822265625,2.9088616371154785
17.430442810058594,94.13377380371094,4.379145622253418
-11.543628692626953,82.89801025390625,3.8285770416259766
-14.578950881958008,80.78575897216797,3.755065441131592
-14.502208709716797,65.24273681640625,3.0572257041931152
-16.974071502685547,64.08916473388672,3.0326995849609375
-19.372953414916992,62.83037567138672,3.0075607299804688
-25.196826934814453,71.39620208740234,3.4632816314697266
-28.834325790405273,72.30686950683594,3.560807704925537
-33.14552688598633,74.29527282714844,3.7213501930236816
-39.651397705078125,80.06851196289062,4.087064743041992
-42.46831512451172,77.73838806152344,4.052001953125
-44.45709991455078,74.13569641113281,3.9541845321655273
-45.26810073852539,69.03955841064453,3.77639102935791
-48.22795867919922,67.47747039794922,3.793940544128418
-49.895145416259766,64.1932144165039,3.7190637588500977
-51.24504470825195,60.7286262512207,3.6347670555114746
-52.7652587890625,57.661598205566406,3.57527494430542
-53.91640090942383,54.36349868774414,3.5023398399353027
-54.64455032348633,50.839962005615234,3.414109468460083
-55.3969841003418,47.53483581542969,3.3390355110168457
-55.80451965332031,44.118988037109375,3.2540481090545654
-56.446067810058594,41.05208206176758,3.192640781402588
-57.5709342956543,38.43191909790039,3.166325092315674
-59.188663482666016,36.161746978759766,3.172776699066162
-60.1910400390625,33.5306396484375,3.1517038345336914
-61.16967010498047,30.92400360107422,3.1353108882904053
-47.0924186706543,21.477542877197266,2.3676013946533203
-45.5765266418457,18.612581253051758,2.2519495487213135
-44.09074020385742,15.970998764038086,2.145078182220459
-44.30438232421875,14.062393188476562,2.1262524127960205
-46.257774353027344,12.6611328125,2.1937966346740723
-49.63391876220703,11.463624000549316,2.3301634788513184
-52.59580993652344,9.940887451171875,2.448481321334839
-51.353370666503906,7.583857536315918,2.374528169631958
-50.18281173706055,5.361617088317871,2.308572769165039
-49.029117584228516,3.2532405853271484,2.2476694583892822
-48.48660659790039,1.2645626068115234,2.2186717987060547
-51.08489227294922,-0.7207159996032715,2.3370087146759033
-56.75123596191406,-3.0839738845825195,2.5997962951660156
-76.2645263671875,-7.226265907287598,3.504183053970337
-46.61055374145508,-6.314408302307129,2.151578187942505
-78.75367736816406,-13.910842895507812,3.658191204071045
-81.1965103149414,-17.73265838623047,3.8016765117645264
-77.77700805664062,-20.290889739990234,3.676821231842041
-86.72806549072266,-26.389671325683594,4.146786689758301
-88.52450561523438,-30.872894287109375,4.288556098937988
-90.02384948730469,-35.513023376464844,4.42678165435791
-69.98046875,-49.625850677490234,3.9242959022521973
-68.64725494384766,-52.94984817504883,3.9657068252563477
-67.26185607910156,-56.33230972290039,4.013260841369629
14.53646469116211,59.891231536865234,2.8191332817077637
18.630456924438477,92.89495086669922,4.33389949798584
14.303569793701172,89.92117309570312,4.1649675369262695
-10.394559860229492,83.7205810546875,3.859020233154297
-13.472944259643555,81.56246948242188,3.7814598083496094
-13.471830368041992,65.1562271118164,3.0434751510620117
-16.06599235534668,64.51280212402344,3.0411367416381836
-18.514692306518555,63.370826721191406,3.019947052001953
-21.793088912963867,64.7990951538086,3.127241611480713
-27.43739128112793,71.88558197021484,3.519629955291748
-31.855817794799805,74.34961700439453,3.6999902725219727
-38.746337890625,81.25009155273438,4.117587566375732
-27.980995178222656,53.075927734375,2.744569778442383
-43.90913772583008,75.74746704101562,4.0049614906311035
-45.62615203857422,71.88927459716797,3.8948135375976562
-34.038997650146484,49.15047836303711,2.7348062992095947
-49.288665771484375,65.39241027832031,3.745758533477783
-50.91109085083008,62.18152618408203,3.676112651824951
-52.21117401123047,58.783782958984375,3.5964341163635254
-52.397132873535156,54.42320251464844,3.455732822418213
-54.4036865234375,52.14278030395508,3.4470160007476807
-55.13832473754883,48.75168228149414,3.3666558265686035
-55.66276168823242,45.364933013916016,3.2846710681915283
-55.927589416503906,41.95752716064453,3.198180913925171
-57.305084228515625,39.49584197998047,3.183570146560669
-58.81195831298828,37.140811920166016,3.181771993637085
-59.82386779785156,34.49884033203125,3.158928394317627
-60.810909271240234,31.884033203125,3.14082670211792
-47.692928314208984,22.6120662689209,2.414395332336426
-46.118560791015625,19.637176513671875,2.292870283126831
-44.69388961791992,16.94367218017578,2.1864125728607178
-43.63731002807617,14.566728591918945,2.104379415512085
-45.4761962890625,13.175436019897461,2.165761947631836
-48.52316665649414,11.968029022216797,2.286104679107666
-51.35039520263672,10.496809005737305,2.39748477935791
-51.727508544921875,8.425024032592773,2.397343158721924
-50.60726547241211,6.1676025390625,2.332048177719116
-49.47707748413086,4.021029472351074,2.2706899642944336
-48.35905838012695,1.979466438293457,2.213939666748047
-50.0943603515625,0.036515235900878906,2.2914631366729736
-54.707489013671875,-2.1595077514648438,2.504424571990967
-75.74472045898438,-6.044737815856934,3.475801944732666
-77.33521270751953,-9.310628890991211,3.563076972961426
-51.9852294921875,-8.389269828796387,2.4087204933166504
-80.45584106445312,-16.324295043945312,3.755247116088867
-72.65311431884766,-17.807292938232422,3.421729564666748
-86.27193450927734,-24.858665466308594,4.106865406036377
-87.98812103271484,-29.229215621948242,4.241091728210449
-89.46199798583984,-33.76645278930664,4.374037265777588
-91.00806427001953,-38.594520568847656,4.521839618682861
-70.46045684814453,-48.41145324707031,3.910503625869751
-69.14533233642578,-51.716278076171875,3.9497172832489014
-67.77976989746094,-55.075984954833984,3.994965076446533
19.036176681518555,60.75499725341797,3.442800521850586
17.336091995239258,93.62435913085938,5.14876651763916
-11.43326187133789,82.10554504394531,4.482673645019531
-13.835245132446289,76.66463470458984,4.212579727172852
-14.531003952026367,65.372314453125,3.6212658882141113
-17.00750732421875,64.21542358398438,3.5921568870544434
-19.44881820678711,63.07646179199219,3.56929874420166
-24.923297882080078,70.62120056152344,4.04966402053833
-28.408531188964844,71.23915100097656,4.147237777709961
-33.20980453491211,74.43937683105469,4.407707214355469
-38.52964782714844,77.80332946777344,4.694815158843994
-41.30128860473633,75.60211181640625,4.658413410186768
-43.240440368652344,72.10682678222656,4.546494960784912
-45.054325103759766,68.71353912353516,4.443168640136719
-46.96512985229492,65.7105712890625,4.367547035217285
-48.615806579589844,62.547264099121094,4.283749580383301
-50.191959381103516,59.480682373046875,4.208530426025391
-51.45521926879883,56.22999954223633,4.121566295623779
-52.73754119873047,53.174861907958984,4.049753189086914
-53.54441833496094,49.816410064697266,3.954728364944458
-54.3079833984375,46.60038375854492,3.8696157932281494
-54.953346252441406,43.446075439453125,3.7880923748016357
-55.82460021972656,40.6001091003418,3.7326202392578125
-56.86555099487305,37.961021423339844,3.697192668914795
-57.880306243896484,35.362388610839844,3.6677627563476562
-58.87123107910156,32.79541015625,3.644066333770752
-59.835205078125,30.24938201904297,3.625537872314453
-47.21957778930664,21.53553581237793,2.806408166885376
-45.693572998046875,18.660385131835938,2.6689682006835938
-44.30905532836914,16.05008888244629,2.5483477115631104
-43.9759521484375,13.958149909973145,2.494900703430176
-46.86064910888672,12.826152801513672,2.6271791458129883
-49.51707077026367,11.436637878417969,2.7481110095977783
-52.706634521484375,9.961833953857422,2.9005565643310547
-51.45830154418945,7.599357604980469,2.812769889831543
-50.282501220703125,5.372271537780762,2.734489917755127
-49.16963577270508,3.262578010559082,2.664684295654297
-47.94590759277344,1.2504405975341797,2.593543767929077
-51.79108810424805,-0.7306842803955078,2.800869941711426
-57.05421447753906,-3.100440502166748,3.0897388458251953
-74.64649963378906,-7.072955131530762,4.054567337036133
-46.69240188598633,-6.325493812561035,2.5479443073272705
-78.4397201538086,-13.855374336242676,4.3072509765625
-79.64058685302734,-17.392860412597656,4.408036708831787
-78.02058410644531,-20.354433059692383,4.360144138336182
-84.24181365966797,-25.633153915405273,4.761567115783691
-85.91278076171875,-29.962055206298828,4.9201273918151855
-87.28487396240234,-34.43253707885742,5.073885917663574
-88.71868133544922,-39.1864128112793,5.244575500488281
-67.5918197631836,-47.931968688964844,4.480744361877441
-66.28026580810547,-51.12411117553711,4.526392936706543
-64.9157485961914,-54.367427825927734,4.5787811279296875
14.537232398986816,59.894405364990234,3.3328022956848145
18.657108306884766,93.02789306640625,5.130626678466797
14.300840377807617,89.90386199951172,4.922654151916504
-10.323882102966309,83.15130615234375,4.5309038162231445
-13.383169174194336,81.01893615722656,4.440445423126221
-13.605938911437988,65.80484008789062,3.6336445808410645
-16.09773063659668,64.64025115966797,3.602166175842285
-18.550996780395508,63.49515914916992,3.5770254135131836
-21.24995231628418,63.18408966064453,3.6047134399414062
-27.262380599975586,71.42708587646484,4.1341753005981445
-31.917634963989258,74.49386596679688,4.382411003112793
-37.220699310302734,78.0508804321289,4.675922870635986
-28.071800231933594,53.248146057128906,3.255005359649658
