-18.33654022216797,29.022052764892578,6.791481018066406
-19.455366134643555,28.21529197692871,6.780246734619141
-20.435447692871094,27.227577209472656,6.734881401062012
-21.523677825927734,26.39813804626465,6.738317489624023
-22.602800369262695,25.55295181274414,6.749078750610352
-23.471323013305664,24.478654861450195,6.709138870239258
-23.90806007385254,23.008243560791016,6.564270973205566
-24.548948287963867,21.794797897338867,6.494407653808594
-24.82737159729004,20.318607330322266,6.346832275390625
-24.037269592285156,18.10977554321289,5.953919410705566
-24.56836700439453,17.00701904296875,5.911334991455078
-26.22208595275879,16.634639739990234,6.1433610916137695
-27.937833786010742,16.187036514282227,6.3877034187316895
-28.362688064575195,14.944780349731445,6.342341423034668
-31.021240234375,14.785268783569336,6.798425674438477
-30.300521850585938,12.974939346313477,6.520888328552246
-32.80464553833008,12.512958526611328,6.945919990539551
-33.83707046508789,11.372014999389648,7.062010765075684
-34.928688049316406,10.196844100952148,7.198466777801514
-36.04143142700195,8.967462539672852,7.347555160522461
-37.549415588378906,7.755475044250488,7.585288047790527
-38.47490692138672,6.347085475921631,7.714468002319336
-38.41665267944336,4.761422157287598,7.658214569091797
-37.861480712890625,3.154772996902466,7.516190528869629
-41.64260482788086,1.7896592617034912,8.245856285095215
-43.533042907714844,0.12054228782653809,8.61226749420166
-45.696598052978516,-1.7104544639587402,9.04659652709961
-26.457733154296875,-2.057116985321045,5.249993801116943
-37.66766357421875,-4.456996917724609,7.503872871398926
-52.649696350097656,-8.386338233947754,10.547115325927734
-54.03077697753906,-10.84799575805664,10.90235710144043
-56.05583572387695,-13.618127822875977,11.412227630615234
-57.902976989746094,-16.556495666503906,11.914169311523438
-59.86790084838867,-19.752286911010742,12.471793174743652
-61.9610481262207,-23.24214744567871,13.09192180633545
-64.20806884765625,-27.0747013092041,13.785552978515625
-66.62238311767578,-31.30184555053711,14.562335968017578
-67.98087310791016,-35.34076690673828,15.157599449157715
-52.33913803100586,-29.939144134521484,11.928727149963379
-60.65066909790039,-38.00590896606445,14.159832000732422
-61.01198959350586,-41.73670959472656,14.624116897583008
-60.043067932128906,-44.7176513671875,14.810827255249023
-59.05012130737305,-47.782867431640625,15.027623176574707
-58.01390838623047,-50.933753967285156,15.272703170776367
-58.71046447753906,-55.8779411315918,16.034523010253906
-62.430423736572266,-69.7964096069336,18.525726318359375
84.7743148803711,47.66172409057617,19.2399959564209
79.86310577392578,49.22394561767578,18.559520721435547
48.80134201049805,32.85501480102539,11.638582229614258
60.023048400878906,44.01432800292969,14.724957466125488
56.06539535522461,44.68355941772461,14.183307647705078
52.802886962890625,45.66954803466797,13.81129264831543
45.450862884521484,42.620033264160156,12.32649040222168
56.23625564575195,57.1490592956543,15.86184310913086
43.48567199707031,47.896644592285156,12.798246383666992
45.781837463378906,54.68796157836914,14.10970687866211
41.29703903198242,53.5633430480957,13.380382537841797
37.209835052490234,52.49546813964844,12.729640007019043
33.46424102783203,51.47626876831055,12.146438598632812
18.32599639892578,30.833498001098633,7.095953941345215
26.821765899658203,49.558204650878906,11.14803695678711
23.854747772216797,48.64891815185547,10.719107627868652
21.086294174194336,47.76716232299805,10.329684257507324
18.493568420410156,46.90937423706055,9.97535514831543
9.55215835571289,27.408348083496094,5.74212646484375
8.491494178771973,27.928024291992188,5.774812698364258
7.497847557067871,28.764907836914062,5.880779266357422
6.4629011154174805,29.623273849487305,5.998298645019531
5.2043962478637695,29.500274658203125,5.926238536834717
3.9279770851135254,29.04102325439453,5.797574520111084
2.9078330993652344,30.758037567138672,6.112072467803955
1.7354586124420166,32.06104278564453,6.3520050048828125
0.44391149282455444,31.945619583129883,6.320496082305908
-0.8364640474319458,31.813472747802734,6.295919418334961
-2.1084327697753906,31.674036026000977,6.280025482177734
-4.027283191680908,37.61832809448242,7.48465633392334
-5.455460071563721,36.88710403442383,7.376847743988037
-6.840271949768066,36.148963928222656,7.278352737426758
-8.18848705291748,35.419349670410156,7.191915512084961
-9.44813346862793,34.49024200439453,7.074679374694824
-10.719635009765625,33.74795913696289,7.005162715911865
-12.026684761047363,33.17977523803711,6.981947898864746
-13.249031066894531,32.42317199707031,6.929224014282227
-14.447216033935547,31.6596736907959,6.884620666503906
-15.623616218566895,30.88819694519043,6.847919464111328
-16.780454635620117,30.107641220092773,6.818926811218262
-17.919864654541016,29.316858291625977,6.797496795654297
-19.043861389160156,28.514625549316406,6.783530235290527
-20.03099250793457,27.530120849609375,6.73546028137207
-21.123044967651367,26.706134796142578,6.736196517944336
-22.20531463623047,25.866941452026367,6.744248390197754
-22.361351013183594,24.02456283569336,6.493039131164551
-23.76070213317871,23.555294036865234,6.619037628173828
-24.279298782348633,22.208187103271484,6.509523868560791
-24.33591651916504,20.52672576904297,6.298358917236328
-24.21001625061035,18.80938148498535,6.065166473388672
-23.919845581054688,17.088523864746094,5.815662384033203
-25.596052169799805,16.775142669677734,6.05433464050293
-27.337465286254883,16.38562774658203,6.305322647094727
-28.46834373474121,15.5443696975708,6.416836738586426
-30.70484161376953,15.197484970092773,6.777756690979004
-30.67483139038086,13.677254676818848,6.644383907318115
-32.43953323364258,12.9281644821167,6.908469200134277
-33.43886184692383,11.793102264404297,7.014647006988525
-34.52332305908203,10.636816024780273,7.146658420562744
-35.62795639038086,9.427996635437012,7.290978908538818
-37.116329193115234,8.241971969604492,7.521681785583496
-38.13002014160156,6.872759819030762,7.664916038513184
-38.62757110595703,5.370551109313965,7.7152934074401855
-38.0638427734375,3.7409720420837402,7.5665459632873535
-40.14986801147461,2.32269549369812,7.95623254776001
-42.44778060913086,0.7473382949829102,8.398842811584473
-44.81582260131836,-1.0119693279266357,8.86827278137207
-20.563804626464844,-1.2922635078430176,4.076213836669922
-38.09747314453125,5.705658912658691,7.954227924346924
-38.25730514526367,4.166429042816162,7.946203708648682
-39.08430480957031,2.6734707355499268,8.089118003845215
-41.164772033691406,1.1576423645019531,8.503183364868164
-43.587215423583984,-0.5259995460510254,9.0006685256958
-20.474712371826172,-1.0707529783248901,4.233462810516357
-26.268022537231445,-2.4349117279052734,5.447159290313721
-43.53438949584961,-5.807280540466309,9.068753242492676
-51.80795669555664,-9.042263984680176,10.859190940856934
-53.405269622802734,-11.549158096313477,11.28220272064209
-55.36767578125,-14.32403564453125,11.808894157409668
-57.14870834350586,-17.26193618774414,12.326805114746094
-59.03681564331055,-20.4541015625,12.901022911071777
-61.04926681518555,-23.939176559448242,13.540164947509766
-63.20189666748047,-27.76190185546875,14.25363540649414
-65.50889587402344,-31.973608016967773,15.051671981811523
-68.0256576538086,-36.65612030029297,15.955649375915527
-58.8671875,-34.84249496459961,14.12464714050293
-59.88420104980469,-38.7746467590332,14.730804443359375
-60.7293815612793,-42.879669189453125,15.35036849975586
-59.75188446044922,-45.89445877075195,15.557104110717773
-58.74882507324219,-48.9990234375,15.796083450317383
-57.7155647277832,-52.208194732666016,16.06963348388672
-58.85147476196289,-57.70011520385742,17.01803207397461
-50.23123550415039,-81.16487121582031,19.709070205688477
85.8160171508789,45.42441177368164,20.048851013183594
81.70870971679688,47.54711151123047,19.520095825195312
79.79399871826172,50.830074310302734,19.53509521484375
70.80508422851562,49.210906982421875,17.80441665649414
58.101280212402344,43.94528579711914,15.042076110839844
53.61899948120117,44.050228118896484,14.328554153442383
52.70161437988281,46.96664047241211,14.576214790344238
51.316650390625,49.571556091308594,14.732467651367188
52.41473388671875,54.87044906616211,15.668359756469727
47.38068389892578,53.76836013793945,14.79776668548584
42.822757720947266,52.72298812866211,14.024914741516113
38.670654296875,51.725990295410156,13.335369110107422
34.867244720458984,50.77058410644531,12.717388153076172
18.771108627319336,29.833972930908203,7.278126239776611
17.751523971557617,30.901653289794922,7.358545303344727
25.11794662475586,48.10127258300781,11.204729080200195
22.31188201904297,47.26343536376953,10.791894912719727
19.685142517089844,46.44611358642578,10.416152954101562
17.217775344848633,45.646671295166016,10.073484420776367
9.05657958984375,27.282196044921875,5.935596466064453
8.049033164978027,27.95646095275879,6.007038116455078
7.049283504486084,28.78722381591797,6.119706630706787
6.007228851318359,29.639480590820312,6.244492530822754
4.703743934631348,29.18684959411621,6.104358673095703
3.457303524017334,28.768085479736328,5.982874870300293
2.524629592895508,31.72031593322754,6.570432662963867
1.2384188175201416,31.54291534423828,6.518108367919922
-0.02956247329711914,31.42526626586914,6.488801002502441
-1.287482738494873,31.290637969970703,6.466464519500732
-3.054330825805664,37.48406219482422,7.765488147735596
-4.488743305206299,36.766845703125,7.648111343383789
-5.880191802978516,36.05474090576172,7.543064117431641
-7.2281646728515625,35.322105407714844,7.444570541381836
-8.49889850616455,34.42654800415039,7.321923732757568
-9.811041831970215,33.83682632446289,7.274511337280273
-11.077560424804688,33.16148376464844,7.2192301750183105
-12.299782752990723,32.42361068725586,7.160467624664307
-13.496716499328613,31.678876876831055,7.110086441040039
-14.670713424682617,30.92629623413086,7.067845344543457
-15.824013710021973,30.164833068847656,7.0335283279418945
-16.95870018005371,29.393409729003906,7.00697135925293
-18.076791763305664,28.610942840576172,6.98804235458374
-19.180217742919922,27.81625747680664,6.976647853851318
-20.146652221679688,26.84280014038086,6.930044651031494
-21.21935272216797,26.024898529052734,6.933527946472168
-22.282716751098633,25.191089630126953,6.944446563720703
-22.667497634887695,23.64032554626465,6.7627058029174805
-23.650938034057617,22.760791778564453,6.777629852294922
-24.282041549682617,21.55783462524414,6.704689979553223
-24.332984924316406,19.914005279541016,6.4924540519714355
-24.08681297302246,18.147098541259766,6.22707986831665
-24.68445587158203,17.087387084960938,6.19897985458374
-26.350881576538086,16.71634864807129,6.443490028381348
-28.080957412719727,16.26996612548828,6.701177597045898
-28.278411865234375,14.900365829467773,6.600007057189941
-30.654613494873047,14.610527038574219,7.011846542358398
-30.144662857055664,12.908205032348633,6.771022796630859
-32.249053955078125,12.301034927368164,7.126866340637207
-33.266719818115234,11.18033218383789,7.246578693389893
-34.328758239746094,10.021705627441406,7.384194850921631
-35.40979766845703,8.810304641723633,7.534449100494385
-36.932796478271484,7.628115653991699,7.7869744300842285
-37.54227066040039,6.193231582641602,7.856626033782959
-38.46552276611328,4.767475128173828,8.00325870513916
-37.908756256103516,3.1587107181549072,7.854653358459473
-40.653038024902344,1.7471251487731934,8.401905059814453
-42.69402313232422,0.11821937561035156,8.815627098083496
-20.79207992553711,-0.7782635688781738,4.296224117279053
-26.39525604248047,-2.0522587299346924,5.466627597808838
-37.71172332763672,-4.462210655212402,7.84116268157959
-51.50059127807617,-8.203304290771484,10.768057823181152
-52.80659103393555,-10.602210998535156,11.121272087097168
-54.73440933227539,-13.297100067138672,11.630472183227539
-56.47945022583008,-16.149459838867188,12.129433631896973
-58.326271057128906,-19.24365234375,12.681962966918945
-60.29163360595703,-22.615930557250977,13.296244621276855
-62.38905715942383,-26.307676315307617,13.980741500854492
-64.63084411621094,-30.36614227294922,14.744776725769043
-67.07145690917969,-34.86800003051758,15.608768463134766
-58.51487350463867,-33.471805572509766,13.91942024230957
-59.48004150390625,-37.272342681884766,14.493755340576172
-60.5560417175293,-41.42479705810547,15.14953327178955
-60.11553955078125,-44.77162170410156,15.477128982543945
-59.12244415283203,-47.84136962890625,15.703948974609375
-58.10090255737305,-51.010101318359375,15.964437484741211
-57.03146743774414,-54.27994918823242,16.25707244873047
-62.38791275024414,-69.7488784790039,19.322649002075195
87.20335388183594,44.51531982421875,20.216440200805664
83.48189544677734,46.935096740722656,19.775169372558594
80.25782775878906,49.46723937988281,19.466827392578125
48.74642562866211,32.81803512573242,12.133842468261719
59.199459075927734,43.410404205322266,15.157968521118164
47.122440338134766,37.55613708496094,12.442205429077148
52.77302551269531,45.64372634887695,14.40707778930664
45.63161849975586,42.78953170776367,12.916667938232422
54.410491943359375,55.29364013671875,16.017961502075195
43.58543395996094,48.00654602050781,13.388534545898438
44.45491027832031,53.10291290283203,14.299857139587402
40.160240173339844,52.08890151977539,13.581048965454102
36.23405838012695,51.118865966796875,12.9378662109375
32.62590026855469,50.186683654785156,12.359977722167969
18.096899032592773,30.44805145263672,7.31365966796875
26.20379638671875,48.41637420654297,11.367432594299316
23.325817108154297,47.570220947265625,10.9397554397583
20.63534927368164,46.74565505981445,10.55081558227539
18.11136245727539,45.939903259277344,10.196382522583008
9.40870189666748,26.99671173095703,5.903206825256348
8.408350944519043,27.65457534790039,5.968318939208984
7.423098087310791,28.4781494140625,6.0767436027526855
6.397202968597412,29.322111129760742,6.196943283081055
5.178981304168701,29.35614776611328,6.155159950256348
3.9091949462890625,28.902202606201172,6.022162914276123
2.900317430496216,30.678476333618164,6.3628435134887695
1.7095284461975098,31.582056045532227,6.530716896057129
0.43731629848480225,31.470687866210938,6.498798370361328
-0.8240774869918823,31.342317581176758,6.473906517028809
-2.5128095149993896,37.74881362915039,7.81174898147583
-3.9644856452941895,37.031707763671875,7.690126419067383
-5.371612071990967,36.32014083862305,7.581079483032227
-6.736528396606445,35.60065460205078,7.481389045715332
-8.065771102905273,34.88854217529297,7.393907070159912
-9.308395385742188,33.980167388916016,7.274834632873535
-10.61939525604248,33.4323844909668,7.243109703063965
-11.851611137390137,32.69678497314453,7.181168079376221
-13.057594299316406,31.95470428466797,7.127727508544922
-14.239799499511719,31.20513343811035,7.082507133483887
-15.400479316711426,30.447067260742188,7.045285701751709
-16.541799545288086,29.6794490814209,7.015881538391113
-17.665786743164062,28.901201248168945,6.994150161743164
-18.77440643310547,28.111167907714844,6.979982376098633
-19.747896194458008,27.14103126525879,6.930633544921875
-20.82447624206543,26.328655242919922,6.9313788414001465
-21.891075134277344,25.50089454650879,6.939548015594482
-22.203214645385742,23.85466194152832,6.729038238525391
-23.478513717651367,23.275556564331055,6.826430797576904
-23.967023849487305,21.92254638671875,6.706787109375
-24.7767333984375,20.898536682128906,6.69285249710083
-24.368410110473633,18.93243408203125,6.371800422668457
-24.031370162963867,17.16819190979004,6.098267555236816
-25.71994972229004,16.856338500976562,6.349666118621826
-27.475296020507812,16.46824836730957,6.614224433898926
-28.516822814941406,15.570839881896973,6.708837509155273
-30.355791091918945,15.024715423583984,6.993711471557617
-30.72290802001953,13.698692321777344,6.945797920227051
-31.89303970336914,12.710367202758789,7.089089870452881
-32.87894058227539,11.595632553100586,7.198789596557617
-33.93453598022461,10.455411911010742,7.331957817077637
-35.00828552246094,9.264019966125488,7.477439880371094
-36.10260772705078,8.016871452331543,7.636168479919434
-37.51246643066406,6.761446952819824,7.870522975921631
-38.31184768676758,5.326658248901367,7.986859321594238
-38.111690521240234,3.745675563812256,7.907342433929443
-40.410614013671875,2.337794065475464,8.358049392700195
-41.8184928894043,0.7362580299377441,8.636150360107422
-44.06935119628906,-0.9951214790344238,9.101893424987793
-20.66545867919922,-1.2986531257629395,4.275487899780273
-37.05833053588867,5.550036430358887,8.062539100646973
-38.30585479736328,4.171710014343262,8.290766716003418
-39.43422317504883,2.697410821914673,8.504631042480469
-40.56603240966797,1.1408038139343262,8.731779098510742
-42.81657028198242,-0.5167138576507568,9.213244438171387
-20.575769424438477,-1.07603919506073,4.4332098960876465
-26.37452507019043,-2.4447824954986572,5.6991729736328125
-43.76759719848633,-5.838389873504639,9.500628471374512
-50.68282699584961,-8.845890998840332,11.069962501525879
-52.20128631591797,-11.288789749145508,11.491464614868164
-54.069091796875,-13.988081932067871,12.016727447509766
-55.7509765625,-16.839746475219727,12.530869483947754
-57.52739334106445,-19.93114471435547,13.099664688110352
-59.41350555419922,-23.297744750976562,13.731348991394043
-61.4217643737793,-26.97996711730957,14.434507369995117
-63.562625885009766,-31.023670196533203,15.218457221984863
-62.32481384277344,-33.58417510986328,15.23305606842041
-66.12217712402344,-39.136592864990234,16.53239631652832
-58.69611358642578,-38.00536346435547,15.04554557800293
-59.69448471069336,-42.148956298828125,15.723121643066406
-58.86339569091797,-45.2120475769043,15.970081329345703
-57.70237350463867,-48.126258850097656,16.166967391967773
-57.788238525390625,-52.27394104003906,16.766286849975586
-56.70521545410156,-55.59585952758789,17.08675193786621
-50.083858489990234,-80.9267807006836,20.477401733398438
71.8578872680664,34.41475296020508,17.1429500579834
84.50537109375,44.73065948486328,20.5726318359375
80.46418762207031,46.822914123535156,20.030908584594727
79.70457458496094,50.77312088012695,20.333538055419922
60.264652252197266,41.88508987426758,15.791030883789062
57.318138122558594,43.35295486450195,15.46316909790039
53.588748931884766,44.0253791809082,14.922504425048828
52.6716194152832,46.93990707397461,15.180354118347168
45.00971984863281,43.479103088378906,13.465045928955078
50.79601287841797,53.17589569091797,15.822830200195312
43.091285705566406,48.900691986083984,14.02389907836914
41.63513946533203,51.260799407958984,14.20921516418457
37.6495475769043,50.360130310058594,13.52905559539795
33.978431701660156,49.47637176513672,12.91421890258789
18.60529327392578,29.570425033569336,7.5171003341674805
17.540382385253906,30.53411102294922,7.576695442199707
24.558292388916016,47.029541015625,11.415623664855957
21.832664489746094,46.248329162597656,11.004055976867676
19.276763916015625,45.48258590698242,10.628872871398926
9.942350387573242,26.35852813720703,6.061448097229004
8.96884536743164,27.017902374267578,6.125211238861084
7.970217704772949,27.682720184326172,6.198280334472656
6.978981018066406,28.500118255615234,6.313375473022461
5.946109771728516,29.337894439697266,6.440802574157715
4.680989742279053,29.045629501342773,6.330208778381348
3.439988136291504,28.624034881591797,6.203180313110352
2.481182098388672,31.174480438232422,6.728837966918945
1.220155119895935,31.077913284301758,6.691999435424805
-0.029130399227142334,30.964054107666016,6.662352561950684
-1.2686454057693481,30.832962036132812,6.639754772186279
-3.006819248199463,36.90099334716797,7.966075897216797
-4.420713901519775,36.209590911865234,7.848845481872559
-5.297236919403076,32.48030090332031,7.080921173095703
-6.6853203773498535,32.66933822631836,7.174931526184082
-8.418837547302246,34.102256774902344,7.557864189147949
-9.683928489685059,33.39845657348633,7.482127666473389
-10.917243957519531,32.68156814575195,7.4138593673706055
-12.123209953308105,31.958141326904297,7.354373931884766
-13.304301261901855,31.22726058959961,7.303367614746094
-14.462787628173828,30.487974166870117,7.260594367980957
-15.600808143615723,29.739349365234375,7.2258405685424805
-16.720386505126953,28.980363845825195,7.198940277099609
-17.82344627380371,28.209957122802734,7.179764747619629
-18.911836624145508,27.42702865600586,7.168222427368164
-19.864953994750977,26.467477798461914,7.120412826538086
-20.92251205444336,25.66083526611328,7.123940467834473
-21.97050666809082,24.83814239501953,7.135003089904785
-22.117586135864258,23.06679916381836,6.876039505004883
-23.29563331604004,22.418861389160156,6.95645809173584
-23.871910095214844,21.193710327148438,6.868555545806885
-24.100433349609375,19.723684310913086,6.700738430023193
-24.13672637939453,18.184694290161133,6.502310752868652
-24.802061080932617,17.16879653930664,6.490357398986816
-26.481407165527344,16.79914665222168,6.747634410858154
-28.122846603393555,16.29423713684082,6.99330997467041
-28.32602882385254,14.925455093383789,6.889050483703613
-30.321596145629883,14.451805114746094,7.227248191833496
-29.989837646484375,12.841900825500488,7.019440650939941
-31.71015167236328,12.095479965209961,7.302380084991455
-32.71341323852539,10.99437427520752,7.425629615783691
-33.74713134765625,9.851909637451172,7.5642547607421875
-34.797855377197266,8.658047676086426,7.71551513671875
-36.335628509521484,7.504775524139404,7.98313570022583
-37.18387985229492,6.1341094970703125,8.108766555786133
-38.080406188964844,4.719742774963379,8.256224632263184
-37.95630645751953,3.1626758575439453,8.1951265335083
-40.107669830322266,1.7236950397491455,8.637676239013672
-42.02398681640625,0.11636090278625488,9.042060852050781
-20.765859603881836,-0.7772842645645142,4.47119140625
-26.33285903930664,-2.0474066734313965,5.682980060577393
-37.75604248046875,-4.4674530029296875,8.18040943145752
-50.396873474121094,-8.02749252319336,10.980273246765137
-51.632713317871094,-10.366525650024414,11.331192970275879
-53.4696159362793,-12.989836692810059,11.839363098144531
-55.11967849731445,-15.760653495788574,12.335057258605957
-56.85970687866211,-18.75979232788086,12.88282299041748
-58.702674865722656,-22.019893646240234,13.490070343017578
-60.33803939819336,-25.44281578063965,14.089556694030762
-62.74869155883789,-29.481834411621094,14.917197227478027
-65.00727081298828,-33.7949104309082,15.76439380645752
-67.45392608642578,-38.58513641357422,16.720388412475586
-58.34994125366211,-36.56419372558594,14.816121101379395
-59.321189880371094,-40.58006286621094,15.464499473571777
-59.26896667480469,-44.141143798828125,15.900674819946289
-58.14181900024414,-47.04789733886719,16.09273910522461
-58.1735725402832,-51.07392120361328,16.656396865844727
-57.1186408996582,-54.3629264831543,16.96641731262207
-62.345314025878906,-69.70124816894531,20.121219635009766
85.86058044433594,43.82985305786133,20.74195098876953
82.22402954101562,46.227909088134766,20.296030044555664
80.168212890625,49.41199493408203,20.262556076049805
48.88862991333008,32.91377639770508,12.680835723876953
58.395450592041016,42.82082748413086,15.5806884765625
46.89411163330078,37.37416076660156,12.902458190917969
53.17543411254883,45.99180603027344,15.127218246459961
51.80191421508789,48.57552719116211,15.279699325561523
52.693817138671875,53.549129486083984,16.16473388671875
43.801944732666016,48.24500274658203,14.0206880569458
43.198509216308594,51.602115631103516,14.47989273071289
39.080772399902344,50.688804626464844,13.771600723266602
35.29375076293945,49.79228973388672,13.131915092468262
18.9928035736084,29.21561050415039,7.497710227966309
17.936262130737305,30.17778205871582,7.553472995758057
25.611665725708008,47.322296142578125,11.577653884887695
22.8181095123291,46.53483200073242,11.151542663574219
20.201854705810547,45.76362991333008,10.763406753540039
17.743412017822266,45.006587982177734,10.409172058105469
9.318053245544434,26.736600875854492,6.092111587524414
8.355766296386719,27.48162078857422,6.180330276489258
7.349576950073242,28.19609832763672,6.269493103027344
6.3326005935668945,29.02601432800293,6.392254829406738
5.153712749481201,29.212928771972656,6.382634162902832
3.890540838241577,28.764230728149414,6.245379447937012
2.8928017616271973,30.599096298217773,6.613178253173828
1.6842817068099976,31.115583419799805,6.70475435256958
0.4308941960334778,31.008102416992188,6.672471046447754
-0.8120120763778687,30.88336753845215,6.647283554077148
-2.4734864234924316,37.15818405151367,8.012791633605957
-3.9034132957458496,36.46117401123047,7.88995885848999
-4.876713752746582,32.97382354736328,7.1719512939453125
-6.072658061981201,32.0922737121582,7.027633190155029
-7.476712226867676,32.3405647277832,7.142059803009033
-9.221155166625977,33.66167449951172,7.509618759155273
-10.465209007263184,32.94696044921875,7.43802547454834
-11.680985450744629,32.22604751586914,7.375334739685059
-12.87098217010498,31.49802589416504,7.321229934692383
-14.03756332397461,30.761959075927734,7.275444984436035
-15.18289852142334,30.01689910888672,7.237747669219971
-16.309059143066406,29.261857986450195,7.207965850830078
-17.417984008789062,28.49580192565918,7.18595027923584
-18.51157569885254,27.717639923095703,7.171596527099609
-19.59160804748535,26.92624282836914,7.164841175079346
-20.533254623413086,25.960447311401367,7.121764183044434
-21.58456802368164,25.14385223388672,7.130040645599365
-22.09889030456543,23.742584228515625,6.97898006439209
-23.1522274017334,22.95207405090332,7.014548301696777
-23.601362228393555,21.588075637817383,6.882115840911865
-24.521320343017578,20.68310546875,6.902325630187988
-24.420087814331055,18.97258758544922,6.653749465942383
-24.14433479309082,17.248884201049805,6.384507656097412
-25.845476150512695,16.938608169555664,6.648897171020508
-27.615009307861328,16.551986694335938,6.92733097076416
-28.565637588500977,15.597492218017578,7.002842426300049
-28.094188690185547,13.905330657958984,6.7447662353515625
-30.425729751586914,13.566198348999023,7.167790412902832
-31.362869262695312,12.499076843261719,7.264312267303467
-32.33563995361328,11.404022216796875,7.377468585968018
-33.36358642578125,10.279498100280762,7.511647701263428
-34.40778732299805,9.105109214782715,7.658137321472168
-35.470420837402344,7.8764848709106445,7.817855358123779
-36.93395233154297,6.657174110412598,8.074915885925293
-37.61386489868164,5.229610443115234,8.171000480651855
-38.15981674194336,3.750401496887207,8.250168800354004
-39.822547912597656,2.303771495819092,8.582682609558105
-41.143035888671875,0.724372386932373,8.853856086730957
-43.3858528137207,-0.979686975479126,9.337441444396973
-20.768476486206055,-1.3051267862319946,4.477438926696777
-36.71635437011719,5.498819351196289,8.311562538146973
-37.71247482299805,4.107091903686523,8.492827415466309
-38.72273254394531,2.6487462520599365,8.68932056427002
-40.2022819519043,1.1305773258209229,9.003849029541016
-42.052467346191406,-0.5074853897094727,9.415193557739258
-20.67819595336914,-1.0813928842544556,4.635667324066162
-32.29063415527344,-2.9931766986846924,7.260072708129883
-48.444183349609375,-6.462225914001465,10.941522598266602
-49.60175323486328,-8.657206535339355,11.272482872009277
-51.0463752746582,-11.039034843444824,11.692197799682617
-52.82567596435547,-13.666403770446777,12.215729713439941
-54.41536331176758,-16.436323165893555,12.72586441040039
-56.08821487426758,-19.43252182006836,13.289060592651367
-57.85615158081055,-22.687061309814453,13.91280460357666
-59.412052154541016,-26.097187042236328,14.527525901794434
-61.722293853759766,-30.125436782836914,15.376164436340332
-53.607242584228516,-28.886655807495117,13.632863998413086
-65.61539459228516,-38.836631774902344,17.069929122924805
-57.55025100708008,-37.263427734375,15.349105834960938
-58.35709762573242,-41.20466995239258,15.99321174621582
-57.29745101928711,-44.00925827026367,16.17462921142578
-56.14891052246094,-46.83060836791992,16.368671417236328
-57.861351013183594,-52.34008026123047,17.46720314025879
-56.79277801513672,-55.681705474853516,17.80602264404297
-50.14326095581055,-81.02268981933594,21.33173942565918
71.31703186035156,34.15572738647461,17.702787399291992
83.22967529296875,44.05540084838867,21.08244514465332
81.03355407714844,47.154239654541016,20.989404678344727
79.61503601074219,50.716087341308594,21.133041381835938
48.343597412109375,33.59973907470703,13.180256843566895
56.50666809082031,42.73918914794922,15.86146354675293
53.558433532714844,44.00047302246094,15.517905235290527
52.64154815673828,46.913108825683594,15.78596305847168
44.95546340942383,43.42669677734375,13.99333381652832
49.269012451171875,51.57734298706055,15.968555450439453
43.00321960449219,48.800750732421875,14.56188678741455
40.507694244384766,49.87270736694336,14.384172439575195
36.665836334228516,49.0443229675293,13.709025382995605
33.139896392822266,48.25536346435547,13.105484008789062
18.441797256469727,29.310569763183594,7.752725124359131
17.385034561157227,30.2636775970459,7.8136420249938965
24.01348304748535,45.986209869384766,11.614327430725098
21.37200927734375,45.27250671386719,11.208011627197266
18.88361358642578,44.554969787597656,10.83366584777832
9.864349365234375,26.15172576904297,6.25738525390625
8.882489204406738,26.757768630981445,6.311849117279053
7.899792671203613,27.43810272216797,6.392250061035156
6.909811019897461,28.217687606811523,6.5038957595825195
5.886004447937012,29.041349411010742,6.6338396072387695
4.658370494842529,28.90526580810547,6.554679870605469
3.4227867126464844,28.480913162231445,6.422063827514648
2.4448137283325195,30.71752166748047,6.898653030395508
1.20237135887146,30.624834060668945,6.861437797546387
-0.028705716133117676,30.514606475830078,6.831477642059326
-1.2502894401550293,30.386905670166016,6.808643341064453
-2.960601329803467,36.33379364013672,8.16120719909668
-4.354000568389893,35.66306686401367,8.043368339538574
-5.218904495239258,32.0000114440918,7.258671760559082
-6.572099208831787,32.11602783203125,7.338994026184082
-8.295995712280273,33.60466003417969,7.74912166595459
-9.544038772583008,32.91598892211914,7.672607421875
-10.760950088500977,32.21369552612305,7.603602409362793
-11.951032638549805,31.50424575805664,7.543459415435791
-13.116636276245117,30.786773681640625,7.491879940032959
-14.259958267211914,30.060407638549805,7.448617935180664
-15.383054733276367,29.324247360229492,7.413459777832031
-16.48785400390625,28.57733917236328,7.386246681213379
-17.576231002807617,27.818681716918945,7.366843223571777
-18.649940490722656,27.047224044799805,7.355164051055908
-19.59006118774414,26.10122299194336,7.306183815002441
-20.63284683227539,25.305566787719727,7.309751987457275
-21.665861129760742,24.493738174438477,7.320947170257568
-21.9353084564209,22.876720428466797,7.095485687255859
-23.021587371826172,22.155132293701172,7.152966499328613
-23.54888916015625,20.906932830810547,7.0499467849731445
-24.367355346679688,19.942140579223633,7.049263000488281
-24.18703269958496,18.222599029541016,6.7796831130981445
-24.921218872070312,17.251279830932617,6.785585880279541
-26.61369514465332,16.883068084716797,7.055907249450684
-27.69357681274414,16.0455265045166,7.165393352508545
-28.373979568481445,14.950723648071289,7.180113792419434
-28.008005142211914,13.349105834960938,6.946086406707764
-29.83608627319336,12.776069641113281,7.266204833984375
-31.1871337890625,11.895974159240723,7.472719192504883
-32.17633056640625,10.813871383666992,7.599431991577148
-33.18290710449219,9.687191009521484,7.7389302253723145
-34.20462417602539,8.510446548461914,7.89104700088501
-35.24359893798828,7.279231071472168,8.056715965270996
-36.57554626464844,6.033754348754883,8.299046516418457
-37.33156967163086,4.626932621002197,8.421574592590332
-38.08167266845703,3.173121929168701,8.555105209350586
-39.57918930053711,1.7009785175323486,8.868976593017578
-41.32411575317383,0.11442255973815918,9.25147819519043
-20.739614486694336,-0.7763011455535889,4.646341323852539
-26.270532608032227,-2.0425620079040527,5.89907693862915
-37.800621032714844,-4.472726821899414,8.521671295166016
-49.083091735839844,-7.818218231201172,11.127028465270996
-50.50593566894531,-10.140298843383789,11.53268814086914
-52.25772476196289,-12.695419311523438,12.03951644897461
-53.8193244934082,-15.388834953308105,12.531699180603027
-55.46017837524414,-18.298038482666016,13.074501037597656
-57.19146728515625,-21.45302963256836,13.674915313720703
-58.70899200439453,-24.755897521972656,14.264226913452148
-60.96685791015625,-28.64466094970703,15.080428123474121
-63.05961608886719,-32.78239059448242,15.911233901977539
-65.3143081665039,-37.36122512817383,16.84552574157715
-62.18140411376953,-38.965118408203125,16.428266525268555
-58.13151550292969,-39.766239166259766,15.767937660217285
-57.698890686035156,-42.97182083129883,16.106199264526367
-56.583526611328125,-45.786922454833984,16.295528411865234
-58.24669647216797,-51.138126373291016,17.35257911682129
-57.1917724609375,-54.43252944946289,17.675962448120117
-55.618228912353516,-57.365966796875,17.887981414794922
84.55391693115234,43.16283416748047,21.25331687927246
80.0784683227539,49.35667419433594,21.059350967407227
60.53346252441406,40.7535285949707,16.337020874023438
57.61021423339844,42.24502182006836,15.9935302734375
46.93632888793945,37.407798767089844,13.436941146850586
53.145179748535156,45.965633392333984,15.730744361877441
51.77214431762695,48.547611236572266,15.889215469360352
51.076576232910156,51.90563201904297,16.30301856994629
45.11002731323242,49.68577575683594,15.024018287658691
42.007083892822266,50.17891311645508,14.650627136230469
38.054237365722656,49.35736846923828,13.95280647277832
34.40842056274414,48.54325485229492,13.320852279663086
18.82632827758789,28.95954132080078,7.732900619506836
17.777889251708984,29.911317825317383,7.789906978607178
16.738239288330078,30.927000045776367,7.872809410095215
22.330337524414062,45.540077209472656,11.355022430419922
19.784727096557617,44.81871032714844,10.967962265014648
17.38886070251465,44.107269287109375,10.614208221435547
9.228816986083984,26.480554580688477,6.278066158294678
8.28081226348877,27.235078811645508,6.372875213623047
7.277242660522461,27.918598175048828,6.459132194519043
6.269064903259277,28.734813690185547,6.5843400955200195
5.128593444824219,29.070587158203125,6.608698844909668
3.871983289718628,28.6270809173584,6.467259883880615
2.8853094577789307,30.519813537597656,6.863102912902832
1.6596803665161133,30.661102294921875,6.874325275421143
0.42462754249572754,30.557340621948242,6.841702938079834
-0.8002530336380005,30.43608283996582,6.816254138946533
-2.435241460800171,36.5837287902832,8.208330154418945
-3.844829559326172,35.91401672363281,8.086213111877441
-4.780661582946777,32.324398040771484,7.3153581619262695
-5.9879889488220215,31.644807815551758,7.210214614868164
-7.353927135467529,31.809415817260742,7.309187889099121
-9.087461471557617,33.173648834228516,7.700385570526123
-10.314911842346191,32.47378158569336,7.62802791595459
-11.51461410522461,31.76706314086914,7.564651012420654
-12.68898868560791,31.052656173706055,7.509944915771484
-13.840310096740723,30.32967758178711,7.4636335372924805
-14.970627784729004,29.59724998474121,7.425508499145508
-16.081966400146484,28.854419708251953,7.395378112792969
-17.176189422607422,28.100217819213867,7.373104572296143
-18.255104064941406,27.333620071411133,7.358580589294434
-19.32042694091797,26.55353546142578,7.351743221282959
-20.249053955078125,25.60114288330078,7.307550430297852
-21.285476684570312,24.795448303222656,7.315925598144531
-21.995174407958984,23.631153106689453,7.227468490600586
-22.86101722717285,22.663389205932617,7.206753730773926
-23.353845596313477,21.361669540405273,7.085663795471191
-24.026756286621094,20.265954971313477,7.036940574645996
-24.56406021118164,19.08443832397461,6.963964462280273
-24.25874900817871,17.330638885498047,6.6744890213012695
-25.972692489624023,17.02198600769043,6.952155113220215
-27.365386962890625,16.402374267578125,7.14265251159668
-28.25373649597168,15.427190780639648,7.206818580627441
-27.98067283630371,13.84914779663086,6.989496231079102
-29.93299674987793,13.346489906311035,7.337222099304199
-30.84823226928711,12.293977737426758,7.4344024658203125
-31.808135986328125,11.217985153198242,7.550950050354004
-32.809593200683594,10.108806610107422,7.686000347137451
-33.82548522949219,8.951025009155273,7.833354949951172
-34.85784149169922,7.740458965301514,7.9939045906066895
-36.30990219116211,6.544692039489746,8.259896278381348
-37.04743957519531,5.150863170623779,8.373797416687012
-38.016632080078125,3.7363312244415283,8.55200481414795
-39.024635314941406,2.2576069831848145,8.751251220703125
-40.619544982910156,0.7151508331298828,9.09511947631836
-42.60199737548828,-0.9619817733764648,9.539965629577637
-20.872900009155273,-1.3116881847381592,4.682147026062012
-36.175880432128906,5.417876720428467,8.509078025817871
-37.027549743652344,4.032495498657227,8.66426944732666
-38.14234161376953,2.6090455055236816,8.893372535705566
-15.5283784866333,0.43668878078460693,3.6136341094970703
-41.237457275390625,-0.49765634536743164,9.593334197998047
-20.78203582763672,-1.0868228673934937,4.840916633605957
-32.33811569213867,-2.9975788593292236,7.554731845855713
-47.48011779785156,-6.333622455596924,11.142620086669922
-48.56205368041992,-8.475744247436523,11.467249870300293
-49.937400817871094,-10.799212455749512,11.884943008422852
-51.63385772705078,-13.358070373535156,12.406478881835938
-53.13759231567383,-16.050365447998047,12.912413597106934
-54.714298248291016,-18.95650863647461,13.469864845275879
-56.37411117553711,-22.105915069580078,14.08590316772461
-57.831321716308594,-25.402835845947266,14.693319320678711
-59.99318313598633,-29.28148651123047,15.529143333435059
-36.08922576904297,-19.446941375732422,9.5363130569458
-64.10681915283203,-37.94373321533203,17.328859329223633
-61.90690994262695,-40.0843391418457,17.155948638916016
-57.3052978515625,-40.461997985839844,16.31835174560547
-55.80727005004883,-42.864681243896484,16.36928367614746
-54.67152786254883,-45.598419189453125,16.56049346923828
-57.93492889404297,-52.40662384033203,18.172504425048828
-56.866397857666016,-55.753868103027344,18.52546501159668
-50.2030029296875,-81.11924743652344,22.191328048706055
71.30059814453125,34.14785385131836,18.389982223510742
81.98738861083984,43.3978271484375,21.57891082763672
83.51841735839844,48.6002082824707,22.47797393798828
61.565330505371094,39.21809387207031,16.980207443237305
48.288570404052734,33.56149673461914,13.679461479187012
54.92571258544922,41.54342269897461,16.019874572753906
53.96681213378906,44.336002349853516,16.246944427490234
52.61140441894531,46.88624572753906,16.39314079284668
44.901145935058594,43.37420654296875,14.522314071655273
45.80875015258789,47.9549560546875,15.426945686340332
42.91518783569336,48.70084762573242,15.099666595458984
39.43584442138672,48.553043365478516,14.55051040649414
35.740966796875,47.807212829589844,13.88516902923584
19.307640075683594,28.114059448242188,7.933611869812012
18.280559539794922,29.054306030273438,7.985095977783203
17.23185157775879,29.997011184692383,8.04728889465332
16.18058204650879,30.986068725585938,8.131538391113281
20.928768157958984,44.33359146118164,11.404251098632812
18.504804611206055,43.66116714477539,11.030996322631836
9.718405723571777,25.764814376831055,6.40559196472168
8.79747200012207,26.501651763916016,6.495603561401367
7.845459461212158,27.249359130859375,6.5962300300598145
6.841761112213135,27.93976593017578,6.691362380981445
5.8268890380859375,28.749658584594727,6.823714733123779
4.6358842849731445,28.7657413482666,6.777815341949463
3.4056925773620605,28.338687896728516,6.639571189880371
2.409367084503174,30.272146224975586,7.064167499542236
1.1850264072418213,30.183155059814453,7.026608467102051
-0.028293967247009277,30.0764102935791,6.996368408203125
-1.2323979139328003,29.95199203491211,6.973315238952637
-2.916254997253418,35.78972244262695,8.352988243103027
-4.034255027770996,33.044090270996094,7.743778228759766
-5.155470848083496,31.611083984375,7.45051383972168
-6.475205421447754,31.642547607421875,7.513215065002441
-8.17624568939209,33.11958694458008,7.935565948486328
-9.40762996673584,32.44554901123047,7.858333587646484
-10.60850715637207,31.75736427307129,7.788666725158691
-11.783062934875488,31.061437606811523,7.727923393249512
-12.93352222442627,30.356983184814453,7.675821304321289
-14.062017440795898,29.643138885498047,7.632112503051758
-15.170513153076172,28.919090270996094,7.596589088439941
-16.260889053344727,28.183931350708008,7.569081783294678
-17.33489227294922,27.436708450317383,7.54947566986084
-18.39426040649414,26.676420211791992,7.537671089172363
-18.342018127441406,24.4383602142334,7.107904434204102
-20.35004425048828,24.95871925354004,7.491159439086914
-21.368459701538086,24.157512664794922,7.502470970153809
-21.83432960510254,22.771400451660156,7.338677406311035
-22.858287811279297,21.997976303100586,7.3796281814575195
-23.385189056396484,20.761594772338867,7.274379730224609
-24.081899642944336,19.708513259887695,7.23878812789917
-24.237733840942383,18.26079559326172,7.059247970581055
-25.04197883605957,17.33487319946289,7.084781646728516
-26.40272331237793,16.749225616455078,7.273374557495117
-27.275691986083984,15.803404808044434,7.332912445068359
-28.146127700805664,14.830662727355957,7.400643825531006
-27.80556297302246,13.252618789672852,7.165215969085693
-29.683311462402344,12.71064567565918,7.511343955993652
-30.685787200927734,11.704750061035156,7.639774799346924
-31.654685974121094,10.638557434082031,7.768237113952637
-32.63523864746094,9.52730941772461,7.9084792137146
-33.629173278808594,8.367271423339844,8.061314582824707
-34.63844299316406,7.154240608215332,8.227651596069336
-35.9578857421875,5.931859016418457,8.477567672729492
-36.62484359741211,4.539341926574707,8.58484935760498
-37.729736328125,3.1438069343566895,8.807077407836914
-38.941410064697266,1.6735692024230957,9.066878318786621
-40.665245056152344,0.11259865760803223,9.459552764892578
-20.713340759277344,-0.7753176689147949,4.821704864501953
-26.362417221069336,-2.0497045516967773,6.150926113128662
-37.94459533691406,-4.489763259887695,8.888236999511719
-48.067256927490234,-7.656411647796631,11.322347640991211
-49.42335891723633,-9.922945022583008,11.726278305053711
-51.09532928466797,-12.413030624389648,12.231494903564453
-52.574378967285156,-15.032857894897461,12.719961166381836
-54.1230583190918,-17.856882095336914,13.2576322555542
-55.75088119506836,-20.91265296936035,13.851120948791504
-57.17481994628906,-24.108980178833008,14.434040069580078
-59.29109573364258,-27.857315063476562,15.238739013671875
-61.21861267089844,-31.82532501220703,16.050033569335938
-63.29897689819336,-36.208412170410156,16.963394165039062
-62.255760192871094,-39.01171875,17.090343475341797
-56.98445129394531,-38.9815673828125,16.060516357421875
-56.204444885253906,-41.85881423950195,16.301822662353516
-55.1011962890625,-44.58744430541992,16.488431930541992
-53.90906524658203,-47.32988739013672,16.687625885009766
-57.26536560058594,-54.5025749206543,18.389986038208008
-51.53203201293945,-80.57051849365234,22.2479305267334
83.2817611694336,42.51344299316406,21.751178741455078
79.98858642578125,49.30128860473633,21.857330322265625
59.710269927978516,40.19931411743164,16.744264602661133
56.843021392822266,41.682437896728516,16.396900177001953
46.97876739501953,37.44162368774414,13.974382400512695
53.11485290527344,45.93940353393555,16.335826873779297
51.74230194091797,48.51963424682617,16.500303268432617
49.55015563964844,50.35443115234375,16.433534622192383
45.015254974365234,49.58138656616211,15.578025817871094
40.87551498413086,48.82719802856445,14.812788009643555
37.0661506652832,48.07577133178711,14.121335983276367
33.55281448364258,47.33615493774414,13.496959686279297
18.662139892578125,28.706985473632812,7.964860916137695
17.621713638305664,29.64855194091797,8.02305793762207
16.584856033325195,30.643585205078125,8.105342864990234
21.861278533935547,44.583492279052734,11.55069351196289
19.38302230834961,43.90871810913086,11.164958000183105
10.09390640258789,25.60345458984375,6.402002334594727
9.140952110290527,26.228431701660156,6.461166858673096
8.200785636901855,26.971899032592773,6.557798385620117
7.206058502197266,27.64549446105957,6.6457648277282715
6.206565856933594,28.448331832885742,6.7733049392700195
5.103639602661133,28.929115295410156,6.833403587341309
3.853548526763916,28.490732192993164,6.6878557205200195
2.867833375930786,30.334957122802734,7.087973594665527
1.635697841644287,30.218088150024414,7.039615631103516
0.41852128505706787,30.117881774902344,7.006691932678223
-0.7887823581695557,29.999980926513672,6.980997085571289
-2.3985705375671387,36.03275680541992,8.400476455688477
-3.592505693435669,33.557029724121094,7.850632667541504
-4.721707344055176,31.92572021484375,7.507334232330322
-5.932888031005859,31.353618621826172,7.422897815704346
-7.24619197845459,31.343429565429688,7.483406066894531
-8.95711898803711,32.697818756103516,7.886382102966309
-10.168329238891602,32.01231002807617,7.813332557678223
-11.352331161499023,31.31932830810547,7.749328136444092
-12.511425018310547,30.61810874938965,7.69407320022583
-13.647802352905273,29.907840728759766,7.647285461425781
-14.763461112976074,29.187660217285156,7.608762741088867
-15.860309600830078,28.456714630126953,7.578312397003174
-16.940153121948242,27.71406364440918,7.5558013916015625
-18.004722595214844,26.958724975585938,7.541123867034912
-18.124500274658203,24.909889221191406,7.166045188903809
-18.845842361450195,23.827045440673828,7.0667924880981445
-20.99350357055664,24.45531463623047,7.4973931312561035
-22.006391525268555,23.643205642700195,7.513588905334473
-22.452810287475586,22.25872230529785,7.3545331954956055
-23.187040328979492,21.2091064453125,7.3098297119140625
-23.822309494018555,20.09351348876953,7.249577045440674
-24.02046775817871,18.662109375,7.075834274291992
-24.374706268310547,17.413475036621094,6.968334197998047
-26.079547882080078,17.09201431274414,7.2534098625183105
-26.953737258911133,16.155637741088867,7.309991359710693
-27.824974060058594,15.193072319030762,7.374662399291992
-28.02702522277832,13.872087478637695,7.274518966674805
-29.454219818115234,13.133011817932129,7.501854419708252
-30.34837532043457,12.094768524169922,7.599607467651367
-31.295700073242188,11.037260055541992,7.719474792480469
-32.271728515625,9.943084716796875,7.8552775382995605
-33.26051330566406,8.801517486572266,8.003361701965332
-34.26389694213867,7.608569145202637,8.164603233337402
-35.70438003540039,6.435551643371582,8.43938159942627
-36.09336471557617,5.01821231842041,8.476788520812988
-37.311363220214844,3.6670186519622803,8.72118091583252
-38.40430450439453,2.221722364425659,8.948509216308594
-40.082069396972656,0.7056889533996582,9.325302124023438
-41.78264617919922,-0.9434773921966553,9.721929550170898
-20.97877311706543,-1.3183406591415405,4.8897013664245605
-35.59590148925781,5.331014633178711,8.688603401184082
-36.33207321166992,3.9567575454711914,8.82234001159668
-37.57781982421875,2.570422410964966,9.092376708984375
-15.252631187438965,0.42893391847610474,3.6834044456481934
