14.839080810546875,14.752391815185547,4.5021843910217285
14.428683280944824,15.545822143554688,4.563605785369873
14.486688613891602,16.923812866210938,4.793280601501465
14.55388069152832,18.45415496826172,5.056907653808594
15.915518760681152,21.93894386291504,5.831783294677734
7.9246015548706055,11.901949882507324,3.076585054397583
16.19025993347168,26.5714054107666,6.69489860534668
16.313716888427734,29.367626190185547,7.228341102600098
16.485315322875977,32.70635223388672,7.880615234375
16.281715393066406,35.81358337402344,8.464746475219727
15.831384658813477,38.899478912353516,9.036383628845215
11.991832733154297,33.22996520996094,7.601212501525879
14.645722389221191,46.33478546142578,10.455744743347168
13.704535484313965,50.30672836303711,11.218637466430664
11.530255317687988,50.19693374633789,11.081839561462402
10.75913143157959,57.30162048339844,12.544692993164062
9.976149559020996,68.11808013916016,14.812896728515625
1.69749116897583,16.070350646972656,3.476997137069702
4.768877983093262,73.1986312866211,15.783092498779297
-22.212472915649414,84.72661590576172,18.84619903564453
-11.97323989868164,39.180606842041016,8.815103530883789
-20.715341567993164,59.17047119140625,13.48904037475586
-21.101062774658203,53.302860260009766,12.334834098815918
-23.98164939880371,54.119171142578125,12.736546516418457
-27.026803970336914,54.92168045043945,13.17049503326416
-28.6231632232666,52.70872497558594,12.905346870422363
-33.73740768432617,56.581153869628906,14.1741361618042
-21.771461486816406,30.623348236083984,8.084519386291504
-22.156612396240234,28.653959274291992,7.79347038269043
-23.292236328125,27.743701934814453,7.794289588928223
-25.7442626953125,28.275300979614258,8.22776985168457
-28.467838287353516,28.84831428527832,8.720499038696289
-12.82651138305664,7.187499046325684,3.1635663509368896
-10.442062377929688,5.311881065368652,2.5207531452178955
-18.320077896118164,7.5352678298950195,4.262228488922119
-23.956626892089844,7.670178413391113,5.412354946136475
-25.091266632080078,-17.698711395263672,6.606677055358887
-22.64808464050293,-17.37870979309082,6.142378330230713
-20.730510711669922,-17.27360725402832,5.805966377258301
-21.126379013061523,-19.0924129486084,6.126862525939941
-20.570158004760742,-20.148788452148438,6.195471286773682
-22.8140926361084,-24.217641830444336,7.158778667449951
-21.58748435974121,-24.843732833862305,7.081577301025391
-20.903030395507812,-26.104148864746094,7.195501327514648
-20.87724494934082,-28.3338565826416,7.572630882263184
-20.43695640563965,-30.20609474182129,7.847076892852783
-20.266653060913086,-32.71297073364258,8.2799711227417
-19.29046630859375,-34.12752151489258,8.434892654418945
-18.839710235595703,-36.69762420654297,8.875744819641113
-18.332189559936523,-39.54266357421875,9.378013610839844
-15.634400367736816,-37.61395263671875,8.764444351196289
-13.244462966918945,-35.86564254760742,8.22635555267334
-10.08446216583252,-31.09966278076172,7.03453254699707
-9.069258689880371,-32.34357452392578,7.227583408355713
-7.364040374755859,-31.003456115722656,6.856421947479248
-5.8989715576171875,-30.180845260620117,6.6167097091674805
-4.466769695281982,-28.997528076171875,6.312810897827148
-3.154895782470703,-27.88575553894043,6.038286209106445
-1.9484080076217651,-26.836666107177734,5.7894816398620605
-0.8348667621612549,-25.84364891052246,5.563523769378662
0.19640779495239258,-24.89920425415039,5.357576847076416
1.01744544506073,-21.14957618713379,4.555888652801514
1.765254020690918,-19.950586318969727,4.309416770935059
2.583308219909668,-20.00325584411621,4.339721202850342
3.610307455062866,-21.208232879638672,4.628894329071045
4.333036422729492,-20.44996452331543,4.4977827072143555
5.012970924377441,-19.71634864807129,4.377222537994385
5.185771942138672,-17.431230545043945,3.9130282402038574
5.954469680786133,-17.421428680419922,3.9613664150238037
6.9287028312683105,-17.889009475708008,4.127687454223633
7.479400157928467,-17.222450256347656,4.040008068084717
8.002238273620605,-16.570640563964844,3.9593777656555176
8.4993896484375,-15.932046890258789,3.8852972984313965
8.972786903381348,-15.305252075195312,3.817333221435547
9.424163818359375,-14.688997268676758,3.755093574523926
8.264140129089355,-11.808732032775879,3.1012160778045654
10.267010688781738,-13.483306884765625,3.6464407444000244
10.661184310913086,-12.891690254211426,3.599452495574951
11.038766860961914,-12.306207656860352,3.557023525238037
10.242005348205566,-10.534080505371094,3.1612679958343506
11.060832023620605,-10.497509002685547,3.281090021133423
11.939979553222656,-10.453008651733398,3.414461851119995
12.257046699523926,-9.88973331451416,3.3886945247650146
10.388077735900879,-12.833734512329102,3.696429491043091
10.765799522399902,-12.258691787719727,3.652517795562744
9.996832847595215,-10.500494956970215,3.245786666870117
10.836614608764648,-10.503366470336914,3.378614902496338
11.670075416564941,-10.435399055480957,3.5048396587371826
11.986879348754883,-9.881532669067383,3.477863311767578
12.29150390625,-9.329298973083496,3.4546310901641846
12.584572792053223,-8.777945518493652,3.4350430965423584
12.866686820983887,-8.226743698120117,3.419004440307617
13.138351440429688,-7.674952030181885,3.406451463699341
13.40006160736084,-7.121848106384277,3.3973238468170166
13.81468391418457,-6.644824504852295,3.4319424629211426
14.060606956481934,-6.080251216888428,3.429537773132324
14.297624588012695,-5.5121073722839355,3.430527687072754
14.526062965393066,-4.939610481262207,3.4349119663238525
14.746176719665527,-4.361983776092529,3.4427154064178467
14.958230018615723,-3.778404951095581,3.453964948654175
15.162410736083984,-3.1880342960357666,3.468715190887451
15.358903884887695,-2.5899698734283447,3.487030029296875
15.547847747802734,-1.9833106994628906,3.508988380432129
15.72934341430664,-1.3670804500579834,3.534691572189331
15.903473854064941,-0.7402485609054565,3.56425404548645
16.22974967956543,0.549596905708313,3.635526180267334
16.381872177124023,1.2150098085403442,3.6775734424591064
16.332231521606445,1.8735264539718628,3.6803674697875977
16.467788696289062,2.5629587173461914,3.7311196327209473
16.59575653076172,3.27054500579834,3.7868447303771973
16.715938568115234,3.9979419708251953,3.847834587097168
16.82808494567871,4.746955394744873,3.9144182205200195
15.62077808380127,5.092153549194336,3.6782357692718506
17.229639053344727,6.393099784851074,4.114258766174316
17.31666374206543,7.229422092437744,4.201056003570557
17.393962860107422,8.096892356872559,4.295306205749512
17.460906982421875,8.998443603515625,4.397623062133789
17.51682472229004,9.937390327453613,4.508677005767822
17.560884475708008,10.917396545410156,4.629254341125488
17.58060073852539,11.934732437133789,4.757111549377441
17.597976684570312,13.009073257446289,4.899372100830078
17.501195907592773,14.058967590332031,5.025730609893799
16.204132080078125,14.12463092803955,4.812436103820801
15.549980163574219,14.694543838500977,4.789741516113281
14.460219383239746,14.808693885803223,4.633713722229004
14.51651668548584,16.113388061523438,4.855423450469971
14.581544876098633,17.555217742919922,5.109109878540039
15.942567825317383,20.843626022338867,5.874857425689697
16.03844451904297,22.812885284423828,6.243119716644287
7.669463157653809,11.897653579711914,3.1690452098846436
16.28535270690918,27.642196655273438,7.182545185089111
16.28662872314453,30.3717041015625,7.715410232543945
15.933964729309082,32.814849853515625,8.166722297668457
15.50948715209961,35.50377655029297,8.673734664916992
15.005571365356445,38.49642562866211,9.249995231628418
14.40281867980957,41.845062255859375,9.907478332519531
13.69426441192627,45.67156982421875,10.674479484558105
11.976211547851562,46.68246841430664,10.789506912231445
7.711304187774658,36.01148986816406,8.244858741760254
10.150181770324707,58.86005783081055,13.371828079223633
8.851293563842773,67.39625549316406,15.217936515808105
4.089317798614502,45.1109733581543,10.140657424926758
3.6620235443115234,72.85645294189453,16.331369400024414
-11.797500610351562,77.69798278808594,17.594051361083984
-22.884469985961914,82.29300689697266,19.122480392456055
-12.573809623718262,39.062740325927734,9.18708324432373
-20.694286346435547,56.41253662109375,13.452356338500977
-21.889698028564453,52.984413146972656,12.834351539611816
-23.54639434814453,51.077396392822266,12.591553688049316
-27.56792640686035,53.9846076965332,13.570499420166016
-29.116209030151367,51.7701530456543,13.29735279083252
-34.59770202636719,56.1143913269043,14.75853157043457
-21.99956703186035,29.991880416870117,8.32713508605957
-22.09905433654785,27.719768524169922,7.936556816101074
-23.751296997070312,27.452959060668945,8.126995086669922
-26.228111267089844,27.961944580078125,8.582895278930664
-28.980751037597656,28.50949478149414,9.10124397277832
-12.778170585632324,7.59222412109375,3.327573537826538
-13.103163719177246,7.089189529418945,3.3352930545806885
-18.44866943359375,7.270073890686035,4.439329147338867
-23.85654067993164,7.249728679656982,5.582064628601074
-37.52962875366211,-7.107250213623047,8.551304817199707
-65.21810150146484,-36.36170959472656,16.716739654541016
-65.60994720458984,-40.117130279541016,17.216672897338867
-26.414649963378906,-17.646982192993164,7.111883163452148
-23.806415557861328,-17.326963424682617,6.591869831085205
-21.538393020629883,-17.040781021118164,6.148598670959473
-21.105199813842773,-18.123018264770508,6.227900981903076
-21.02222442626953,-19.572629928588867,6.430422782897949
-20.462879180908203,-20.647382736206055,6.507983684539795
-22.389602661132812,-24.484872817993164,7.427824974060059
-20.986141204833984,-24.887985229492188,7.288277626037598
-20.770530700683594,-26.74233627319336,7.580652236938477
-20.15521812438965,-28.22117805480957,7.7638936042785645
-20.285350799560547,-30.96187400817871,8.286823272705078
-20.102319717407227,-33.549415588378906,8.755987167358398
-18.881935119628906,-34.59280776977539,8.8230562210083
-18.652442932128906,-37.698997497558594,9.416433334350586
-16.602149963378906,-37.24930191040039,9.130011558532715
-14.164523124694824,-35.556861877441406,8.56869125366211
-10.983650207519531,-31.15817642211914,7.396275520324707
-9.908574104309082,-32.176429748535156,7.537339210510254
-8.151853561401367,-30.823625564575195,7.137906551361084
-6.570242404937744,-29.608367919921875,6.789833068847656
-5.2004594802856445,-28.876300811767578,6.568699359893799
-3.8596439361572266,-27.790021896362305,6.281227111816406
-2.6264216899871826,-26.763572692871094,6.020491600036621
-1.4882218837738037,-25.791017532348633,5.783585071563721
-0.43413400650024414,-24.865434646606445,5.5676116943359375
0.5450581312179565,-23.98162269592285,5.3702850341796875
1.2619537115097046,-20.034549713134766,4.494133949279785
2.0612130165100098,-19.923852920532227,4.484268665313721
3.063401699066162,-21.235599517822266,4.803346633911133
3.801623582839966,-20.489849090576172,4.665462970733643
4.495975017547607,-19.767980575561523,4.538586616516113
5.150376796722412,-19.067646026611328,4.421764850616455
5.255124092102051,-16.750980377197266,3.9303524494171143
5.882441997528076,-16.4110107421875,3.9029202461242676
7.004201889038086,-17.31665802001953,4.181890487670898
7.537291049957275,-16.674259185791016,4.096622467041016
8.043987274169922,-16.04478645324707,4.018178939819336
8.526278495788574,-15.426880836486816,3.946089744567871
8.98593521118164,-14.819310188293457,3.8799538612365723
8.070195198059082,-12.177287101745605,3.2705328464508057
9.843647003173828,-13.630647659301758,3.76411771774292
10.244474411010742,-13.047447204589844,3.7137999534606934
10.628215789794922,-12.470377922058105,3.6682052612304688
9.878303527832031,-10.689146995544434,3.258437156677246
10.502665519714355,-10.486323356628418,3.322638511657715
11.434456825256348,-10.53410816192627,3.480628252029419
11.871363639831543,-10.085796356201172,3.48738169670105
12.180405616760254,-9.533050537109375,3.4627809524536133
12.477675437927246,-8.981454849243164,3.44185733795166
12.763768196105957,-8.430280685424805,3.4245173931121826
13.039234161376953,-7.878791332244873,3.410684823989868
13.30456829071045,-7.326256275177002,3.4002976417541504
13.721569061279297,-6.8525190353393555,3.4336884021759033
13.970870971679688,-6.289073467254639,3.4300286769866943
14.211126327514648,-5.722348690032959,3.42976713180542
14.442694664001465,-5.151554584503174,3.432896852493286
14.665857315063477,-4.575911045074463,3.439434051513672
14.88086223602295,-3.994626760482788,3.4494059085845947
15.08792781829834,-3.4068593978881836,3.462857723236084
15.287239074707031,-2.8117430210113525,3.4798483848571777
15.478958129882812,-2.2083632946014404,3.500450372695923
15.66319465637207,-1.5957820415496826,3.5247583389282227
15.840035438537598,-0.9729926586151123,3.5528810024261475
16.009544372558594,-0.33892372250556946,3.584946632385254
16.171724319458008,0.30753666162490845,3.6211071014404297
16.32656478881836,0.9676059484481812,3.661531448364258
16.280296325683594,1.6232540607452393,3.662832021713257
16.418615341186523,2.306375503540039,3.71181583404541
16.549407958984375,3.0070736408233643,3.765672206878662
16.672483444213867,3.7269535064697266,3.824683427810669
16.787635803222656,4.467766284942627,3.8891592025756836
15.798439025878906,4.89200496673584,3.7025697231292725
17.195154190063477,6.0916523933410645,4.083996295928955
17.285642623901367,6.917172908782959,4.1681671142578125
17.366601943969727,7.7728095054626465,4.259600639343262
17.43743324279785,8.661418914794922,4.358863830566406
17.497514724731445,9.586152076721191,4.466609001159668
17.546049118041992,10.550527572631836,4.583580493927002
17.58216667175293,11.558531761169434,4.710599899291992
17.593252182006836,12.60629940032959,4.845455646514893
17.601228713989258,13.714727401733398,4.995471954345703
16.67013168334961,14.101157188415527,4.888162612915039
15.700560569763184,14.401997566223145,4.769785404205322
14.817144393920898,14.73058795928955,4.677544116973877
14.494793891906738,15.617048263549805,4.770134925842285
14.556421279907227,17.00527000427246,5.011356353759766
14.62781047821045,18.54789924621582,5.2883830070495605
16.00126075744629,22.0571346282959,6.100590229034424
7.914520740509033,11.88681697845459,3.197082281112671
16.290117263793945,26.73529815673828,7.008927822113037
16.401519775390625,29.525686264038086,7.561485290527344
16.071617126464844,31.885587692260742,7.993918418884277
15.673999786376953,34.476837158203125,8.478728294372559
15.202157020568848,37.3533935546875,9.028553009033203
12.020614624023438,33.30970764160156,7.92794942855835
13.97703742980957,44.219268798828125,10.382369041442871
12.675283432006836,46.528587341308594,10.796220779418945
12.038252830505371,52.40849685668945,12.038529396057129
10.571683883666992,56.30331039428711,12.82520866394043
9.3328218460083,63.72536849975586,14.418743133544922
1.6956429481506348,16.05288314819336,3.613842487335205
4.67762565612793,71.79824829101562,16.107952117919922
2.333254814147949,93.77558135986328,21.000566482543945
-22.284343719482422,85.00080871582031,19.672697067260742
-11.928762435913086,39.0350456237793,9.137939453125
-20.565982818603516,58.74382019042969,13.933985710144043
-20.8409481048584,52.64575958251953,12.676037788391113
-23.287174224853516,52.55192565917969,12.868461608886719
-26.673295974731445,54.203304290771484,13.524503707885742
-27.929542541503906,51.43144607543945,13.102469444274902
-33.2757682800293,55.80695724487305,14.546220779418945
-21.959278106689453,30.887516021728516,8.484415054321289
-22.063875198364258,28.534032821655273,8.07507610321045
-22.897464752197266,27.273481369018555,7.972418308258057
-25.28409767150879,27.769901275634766,8.40787410736084
-27.92908477783203,28.302379608154297,8.901862144470215
-30.883594512939453,28.878232955932617,9.465861320495605
-12.787933349609375,7.16588020324707,3.2817537784576416
-10.41650104522705,5.298878192901611,2.616393566131592
-18.268518447875977,7.514062404632568,4.422317981719971
-23.899999618530273,7.6520490646362305,5.618180751800537
-65.75082397460938,-38.87505340576172,17.10040283203125
-24.725553512573242,-17.440753936767578,6.773977756500244
-22.340862274169922,-17.142976760864258,6.304378032684326
-21.133813858032227,-17.60965919494629,6.158566474914551
-21.053829193115234,-19.026844024658203,6.353039741516113
-20.835947036743164,-20.409128189086914,6.529608249664307
-22.62871742248535,-24.02085304260254,7.388100624084473
-21.619789123535156,-24.880905151367188,7.379324436187744
-20.819517135620117,-25.999866485595703,7.45692253112793
-20.546703338623047,-27.885257720947266,7.754486560821533
-20.347164154052734,-30.073381423950195,8.12891674041748
-20.172718048095703,-32.56135177612305,8.57528305053711
-19.31560707092285,-34.171974182128906,8.787843704223633
-18.741153717041016,-36.50564956665039,9.186795234680176
-17.57790756225586,-37.9156608581543,9.356233596801758
-15.03157901763916,-36.163658142089844,8.767690658569336
-12.764006614685059,-34.5645866394043,8.248929023742676
-10.011873245239258,-30.87582015991211,7.26666259765625
-8.774961471557617,-31.294042587280273,7.276188373565674
-7.1369733810424805,-30.047496795654297,6.914051055908203
-5.725673675537109,-29.294204711914062,6.682353973388672
-4.3414106369018555,-28.183685302734375,6.384056091308594
-3.0700998306274414,-27.136219024658203,6.113895893096924
-1.8981422185897827,-26.144346237182617,5.868485450744629
-0.814140796661377,-25.20205307006836,5.645066738128662
0.1917087733745575,-24.30337905883789,5.441103458404541
0.9981065988540649,-20.747608184814453,4.650253772735596
1.761404037475586,-19.90709114074707,4.474122524261475
2.5799126625061035,-19.976966857910156,4.509495735168457
3.534397840499878,-20.76227569580078,4.715034008026123
4.24445104598999,-20.031883239746094,4.584214687347412
4.913177490234375,-19.3238582611084,4.463783264160156
5.258603572845459,-17.67604637145996,4.128641605377197
5.961784362792969,-17.44283103942871,4.1268181800842285
6.800263404846191,-17.557401657104492,4.2151994705200195
7.343648910522461,-16.909862518310547,4.127285480499268
7.8598504066467285,-16.275781631469727,4.046375751495361
8.350927352905273,-15.65375804901123,3.971993923187256
8.818748474121094,-15.042509078979492,3.903705358505249
9.264972686767578,-14.440872192382812,3.841132879257202
8.276056289672852,-11.825758934020996,3.231431484222412
10.098515510559082,-13.2620267868042,3.731818675994873
10.488439559936523,-12.682806015014648,3.6845054626464844
10.861982345581055,-12.109125137329102,3.641767740249634
10.179638862609863,-10.46993350982666,3.2692298889160156
11.080164909362793,-10.51585578918457,3.41990327835083
11.75415325164795,-10.290329933166504,3.497415781021118
12.067707061767578,-9.736964225769043,3.4714295864105225
10.221304893493652,-12.627689361572266,3.779142379760742
10.594987869262695,-12.064193725585938,3.7349600791931152
9.97357177734375,-10.476066589355469,3.364715576171875
10.855424880981445,-10.521600723266602,3.516669750213623
11.490205764770508,-10.274557113647461,3.585599660873413
11.803523063659668,-9.730379104614258,3.5584254264831543
12.104722023010254,-9.18753433227539,3.5350165367126465
12.394408226013184,-8.645302772521973,3.515275239944458
12.673151969909668,-8.103001594543457,3.4991090297698975
12.941450119018555,-7.559926986694336,3.4864532947540283
13.356828689575195,-7.098868370056152,3.518627405166626
13.608531951904297,-6.5456671714782715,3.5127735137939453
13.850933074951172,-5.989582061767578,3.5103492736816406
14.084354400634766,-5.429886817932129,3.5113465785980225
14.309109687805176,-4.865837097167969,3.515767812728882
14.525450706481934,-4.296691417694092,3.5236330032348633
14.733603477478027,-3.721665620803833,3.5349764823913574
14.933761596679688,-3.139958620071411,3.549844741821289
15.126089096069336,-2.5507102012634277,3.568303346633911
15.31070613861084,-1.9530600309371948,3.590430736541748
15.48770523071289,-1.346078634262085,3.616325616836548
15.657151222229004,-0.7287826538085938,3.6461029052734375
15.973420143127441,0.5409166812896729,3.7178611755371094
16.120195388793945,1.1956019401550293,3.7601733207702637
16.068098068237305,1.8432265520095825,3.7622690200805664
16.197847366333008,2.520946502685547,3.813300848007202
16.319725036621094,3.2161455154418945,3.869304656982422
16.433504104614258,3.9303925037384033,3.930570602416992
16.53891944885254,4.6653852462768555,3.997417449951172
15.414395332336426,5.024876594543457,3.771404266357422
16.92232322692871,6.279068470001221,4.198707103729248
17.00140380859375,7.097811698913574,4.28566837310791
17.070316314697266,7.946240425109863,4.3800249099731445
17.128427505493164,8.827108383178711,4.482372760772705
17.175006866455078,9.743483543395996,4.593367099761963
17.209232330322266,10.698777198791504,4.7137451171875
17.218807220458984,11.68912410736084,4.841192722320557
17.225221633911133,12.733519554138184,4.982902526855469
17.21587371826172,13.829764366149902,5.136887550354004
16.17854881286621,14.102328300476074,4.992506504058838
15.526392936706543,14.672253608703613,4.9692702293396
14.525110244750977,14.875152587890625,4.836304187774658
14.584790229797363,16.189172744750977,5.06879186630249
14.653726577758789,17.642114639282227,5.3349385261535645
16.02602195739746,20.952733993530273,6.136272430419922
8.33266544342041,11.852276802062988,3.3702569007873535
7.662225723266602,11.88642692565918,3.2897138595581055
16.067169189453125,27.271869659423828,7.363099098205566
15.755105018615723,29.38050079345703,7.755124092102051
15.384291648864746,31.68283462524414,8.192963600158691
14.937015533447266,34.193294525146484,8.679848670959473
14.416341781616211,36.984764099121094,9.233871459960938
13.798744201660156,40.09001159667969,9.862680435180664
13.064375877380371,43.570858001708984,10.581255912780762
11.914688110351562,46.44267654418945,11.153337478637695
11.11036491394043,51.885108947753906,12.343108177185059
9.623515129089355,55.805992126464844,13.173186302185059
8.276082992553711,63.016414642333984,14.78474235534668
4.078710556030273,44.99397277832031,10.509403228759766
3.6081724166870117,71.78472137451172,16.719621658325195
0.9045863151550293,90.10009002685547,20.960113525390625
-5.42937707901001,77.07846069335938,17.974397659301758
-11.784482955932617,77.61219024658203,18.26105499267578
-22.68895149230957,81.58982849121094,19.69959259033203
-12.581178665161133,39.08566665649414,9.55151081085205
-20.550701141357422,56.0211181640625,13.8807954788208
-21.627613067626953,52.35004425048828,13.175971031188965
-22.993783950805664,49.87864303588867,12.776299476623535
-26.8905086517334,52.65806198120117,13.754047393798828
-29.124391555786133,51.78470993041992,13.82060432434082
-34.122222900390625,55.34321594238281,15.124214172363281
-37.81854248046875,56.156105041503906,15.749147415161133
-21.904672622680664,29.86250877380371,8.615053176879883
-22.008182525634766,27.605785369873047,8.212631225585938
-23.346426010131836,26.98499298095703,8.300474166870117
-25.756393432617188,27.459047317504883,8.757730484008789
-28.428651809692383,27.966371536254883,9.276561737060547
-31.415283203125,28.513736724853516,9.869095802307129
-34.54090118408203,28.907167434692383,10.47744369506836
-12.739175796508789,7.569051742553711,3.446990966796875
-13.072576522827148,7.072639465332031,3.457472801208496
-18.39510726928711,7.248965263366699,4.599329471588135
-23.784934997558594,7.227968215942383,5.782679080963135
-34.67010498046875,7.5586371421813965,8.254393577575684
-79.65782928466797,-15.085367202758789,18.859331130981445
-65.85243225097656,-30.061939239501953,16.83926010131836
-65.71900177001953,-33.253475189208984,17.13317108154297
-65.572265625,-36.55915069580078,17.463987350463867
-65.42768859863281,-40.00569534301758,17.83942413330078
-26.015077590942383,-17.380041122436523,7.277875900268555
-23.472259521484375,-17.08376121520996,6.7531938552856445
-21.256139755249023,-16.817468643188477,6.305027961730957
-21.034128189086914,-18.061996459960938,6.4493584632873535
-20.94913673400879,-19.50457763671875,6.658351421356201
-20.7706356048584,-20.957910537719727,6.86387300491333
-22.053895950317383,-24.117752075195312,7.602219104766846
-21.01731300354004,-24.92495346069336,7.584191799163818
-20.686201095581055,-26.633750915527344,7.844753742218018
-20.32963752746582,-28.465404510498047,8.136945724487305
-20.194561004638672,-30.823307037353516,8.571951866149902
-20.007280349731445,-33.39080047607422,9.054963111877441
-18.78719139099121,-34.41923904418945,9.121665000915527
-18.551803588867188,-37.495609283447266,9.73143196105957
-15.958980560302734,-35.806297302246094,9.119105339050293
-13.648310661315918,-34.261043548583984,8.578890800476074
-10.399198532104492,-29.500171661376953,7.276217937469482
-9.571127891540527,-31.080642700195312,7.565017223358154
-7.899461269378662,-29.869264602661133,7.187063217163086
-6.467493534088135,-29.145336151123047,6.944699764251709
-5.053963661193848,-28.062877655029297,6.63299560546875
-3.7555456161499023,-27.040529251098633,6.350537300109863
-2.5584304332733154,-26.070714950561523,6.093696117401123
-1.4511663913726807,-25.148956298828125,5.8598737716674805
-0.42372286319732666,-24.268980026245117,5.646303176879883
0.532439112663269,-23.426280975341797,5.450820446014404
1.2617579698562622,-20.031530380249023,4.6689629554748535
2.057323694229126,-19.886274337768555,4.650627613067627
2.998922109603882,-20.788619995117188,4.88590145111084
3.7238547801971436,-20.070690155029297,4.748517990112305
4.406453609466553,-19.37436294555664,4.621955394744873
5.050408840179443,-18.69756507873535,4.505296230316162
5.224006175994873,-16.65177345275879,4.059675216674805
5.813124656677246,-16.21762466430664,4.007570266723633
6.877256870269775,-17.0028076171875,4.266470432281494
7.403415203094482,-16.37810707092285,4.181027889251709
7.903810024261475,-15.76516342163086,4.102356433868408
8.380308151245117,-15.162771224975586,4.030022144317627
8.834635734558105,-14.569794654846191,3.963615894317627
8.119182586669922,-12.251206398010254,3.4189014434814453
9.68277359008789,-13.407882690429688,3.847214460372925
10.079246520996094,-12.83700942993164,3.796617031097412
10.458876609802246,-12.271678924560547,3.750746488571167
9.722643852233887,-10.520708084106445,3.3323535919189453
10.52059555053711,-10.504226684570312,3.458310842514038
11.37132453918457,-10.475953102111816,3.596609592437744
11.689284324645996,-9.931108474731445,3.568014144897461
11.994882583618164,-9.387852668762207,3.5432286262512207
12.2887544631958,-8.845471382141113,3.522143602371216
12.571479797363281,-8.303276062011719,3.5046658515930176
12.843578338623047,-7.7605671882629395,3.490720748901367
13.105523109436035,-7.2166523933410645,3.4802513122558594
13.516702651977539,-6.750210762023926,3.5145342350006104
13.762497901916504,-6.195274829864502,3.510845184326172
13.99919319152832,-5.637009620666504,3.5105795860290527
14.227112770080566,-5.0746588706970215,3.513735771179199
14.446535110473633,-4.507479667663574,3.5203261375427246
14.657686233520508,-3.934718132019043,3.530380964279175
14.86077880859375,-3.355569362640381,3.543940782546997
15.05598258972168,-2.7692079544067383,3.5610642433166504
15.24343204498291,-2.174760580062866,3.5818278789520264
15.423233985900879,-1.5713350772857666,3.6063199043273926
15.595464706420898,-0.9579691886901855,3.634647846221924
15.760150909423828,-0.3336440622806549,3.666943073272705
15.917301177978516,0.30269855260849,3.7033491134643555
16.066890716552734,0.952215313911438,3.744032382965088
16.072185516357422,1.6025049686431885,3.7572429180145264
16.150850296020508,2.2687618732452393,3.7938926219940186
16.27565574645996,2.957331895828247,3.8480310440063477
16.392452239990234,3.6643552780151367,3.9073173999786377
16.500991821289062,4.391482353210449,3.97206449508667
15.588345527648926,4.826950550079346,3.79602313041687
15.119577407836914,5.3563361167907715,3.7312958240509033
16.97336769104004,6.792213439941406,4.25272274017334
17.046098709106445,7.629361629486084,4.3442912101745605
17.108274459838867,8.497915267944336,4.4436187744140625
17.159202575683594,9.400809288024902,4.551335334777832
17.198101043701172,10.341313362121582,4.668154716491699
17.224029541015625,11.323091506958008,4.794888496398926
17.224618911743164,12.342157363891602,4.92921257019043
17.22124481201172,13.418651580810547,5.078530788421631
16.643388748168945,14.078540802001953,5.070940971374512
15.767038345336914,14.462979316711426,4.97706937789917
14.795199394226074,14.70876407623291,4.853038787841797
14.561761856079102,15.689202308654785,4.979343414306641
14.627093315124512,17.08783721923828,5.23237419128418
14.702775001525879,18.64295196533203,5.523097515106201
16.088253021240234,22.177043914794922,6.373324394226074
7.904435157775879,11.871667861938477,3.317721366882324
16.169240951538086,26.536911010742188,7.228643417358398
15.876684188842773,28.580886840820312,7.605408191680908
15.523391723632812,30.79791831970215,8.022810935974121
15.11571979522705,33.24884033203125,8.496100425720215
14.618961334228516,35.92040252685547,9.021293640136719
14.039224624633789,38.90336608886719,9.620927810668945
13.350584983825684,42.23735427856445,10.304383277893066
12.542964935302734,46.04282760620117,11.100770950317383
8.289067268371582,36.086421966552734,8.613021850585938
10.254140853881836,54.61213302612305,12.925847053527832
8.812786102294922,60.17438888549805,14.147066116333008
7.065771579742432,66.89252471923828,15.647085189819336
4.638799667358398,71.20199584960938,16.598098754882812
2.1354589462280273,85.82588195800781,19.970970153808594
-22.259153366088867,84.90462493896484,20.417951583862305
-11.884442329406738,38.89002990722656,9.459571838378906
-20.418214797973633,58.32172393798828,14.374191284179688
-20.58621597290039,52.00230026245117,13.010153770446777
-22.59014129638672,50.97892761230469,12.970849990844727
-26.32765769958496,53.50090408325195,13.870641708374023
-28.1132755279541,51.769771575927734,13.703784942626953
-32.82495880126953,55.050880432128906,14.909599304199219
-36.421226501464844,55.85218048095703,15.510650634765625
-21.862773895263672,30.751787185668945,8.777055740356445
-21.97157096862793,28.414663314819336,8.355369567871094
-22.514448165893555,26.81727409362793,8.14523696899414
-24.83847427368164,27.280458450317383,8.582294464111328
-27.408466339111328,27.774795532226562,9.077131271362305
-30.272138595581055,28.306482315063477,9.640848159790039
-33.24973678588867,28.67596435546875,10.213719367980957
-31.79254722595215,19.533571243286133,8.679948806762695
-12.749444007873535,7.144315719604492,3.3996691703796387
-10.390971183776855,5.285891056060791,2.711920976638794
-18.217056274414062,7.492898464202881,4.5821027755737305
-23.843427658081055,7.633938789367676,5.823796272277832
-68.04978942871094,-29.853313446044922,17.285995483398438
-65.76976013183594,-32.06260681152344,17.020503997802734
-65.62806701660156,-35.32434844970703,17.337352752685547
-65.4890365600586,-38.72028350830078,17.69756507873535
-24.369050979614258,-17.189285278320312,6.937070369720459
-22.040775299072266,-16.912708282470703,6.462625026702881
-21.063432693481445,-17.551013946533203,6.3777971267700195
-20.981510162353516,-18.96149444580078,6.578500747680664
-20.890933990478516,-20.462989807128906,6.802546977996826
-22.29121208190918,-23.662588119506836,7.562167167663574
-21.637989044189453,-24.90184211730957,7.673998832702637
-20.736360549926758,-25.89601707458496,7.717228412628174
-20.225290298461914,-27.44905662536621,7.931319236755371
-20.257822036743164,-29.941335678100586,8.409331321716309
-20.079301834106445,-32.41056823730469,8.8689546585083
-19.340890884399414,-34.21670913696289,9.14302921295166
-18.643260955810547,-36.3149528503418,9.495750427246094
-16.8807430267334,-36.41189193725586,9.336097717285156
-14.471543312072754,-34.81626892089844,8.770709037780762
-11.257494926452637,-30.4849910736084,7.559481620788574
-9.940056800842285,-30.65433692932129,7.496323585510254
-8.498177528381348,-30.30693817138672,7.32190465927124
-6.922721862792969,-29.145456314086914,6.968432426452637
-5.561674118041992,-28.455137252807617,6.744475364685059
-4.222455024719238,-27.411468505859375,6.451653480529785
-2.9893572330474854,-26.422618865966797,6.185634136199951
-1.8502150774002075,-25.484174728393555,5.943725109100342
-0.7943503856658936,-24.58931541442871,5.722944736480713
0.18721544742584229,-23.733341217041016,5.5210137367248535
1.0191798210144043,-21.185649871826172,4.933897972106934
1.758660078048706,-19.876110076904297,4.641637325286865
2.4152214527130127,-18.701698303222656,4.386512279510498
3.4613378047943115,-20.333120346069336,4.797929763793945
4.1591081619262695,-19.62908363342285,4.667486190795898
4.816929817199707,-18.945308685302734,4.547268867492676
5.333792209625244,-17.928768157958984,4.351232528686523
5.489955902099609,-16.062362670898438,3.9486424922943115
6.028332233428955,-15.564380645751953,3.8826637268066406
7.212260723114014,-16.607316970825195,4.211757183074951
7.721926689147949,-15.990181922912598,4.13064432144165
8.207040786743164,-15.38403606414795,4.056019306182861
8.6693696975708,-14.787703514099121,3.9874672889709473
9.110507011413574,-14.200115203857422,3.9246201515197754
8.288054466247559,-11.84289836883545,3.3625106811523438
9.934868812561035,-13.047114372253418,3.814736843109131
10.320594787597656,-12.479833602905273,3.7671475410461426
9.603564262390137,-10.70622730255127,3.345614194869995
10.196739196777344,-10.487521171569824,3.4026272296905518
11.099634170532227,-10.534335136413574,3.5597198009490967
11.573360443115234,-10.13205337524414,3.578122854232788
11.88344955444336,-9.58829402923584,3.551942825317383
10.059192657470703,-12.427407264709473,3.859546184539795
9.368853569030762,-10.668037414550781,3.4273574352264404
9.990233421325684,-10.49356460571289,3.4975152015686035
10.874381065368652,-10.539969444274902,3.655743360519409
11.315129280090332,-10.11800479888916,3.6642069816589355
11.625015258789062,-9.583223342895508,3.636857032775879
11.92284107208252,-9.049487113952637,3.6132936477661133
12.20920181274414,-8.516119956970215,3.593414783477783
12.484636306762695,-7.982468605041504,3.577136516571045
12.749628067016602,-7.447875022888184,3.5643906593322754
13.15936279296875,-6.993922710418701,3.5974245071411133
13.40768051147461,-6.449057579040527,3.591527223587036
13.646639823913574,-5.901238918304443,3.5890848636627197
13.876566886901855,-5.349776744842529,3.590088129043579
14.09774112701416,-4.793959617614746,3.594543933868408
14.31041145324707,-4.233082294464111,3.602466106414795
14.514790534973145,-3.666393756866455,3.613891124725342
14.711060523986816,-3.093132972717285,3.6288628578186035
14.89936351776123,-2.512477159500122,3.6474502086639404
15.07981014251709,-1.9236071109771729,3.6697275638580322
15.252480506896973,-1.3256348371505737,3.6957926750183105
15.417423248291016,-0.7176242470741272,3.7257585525512695
15.724112510681152,0.5324739217758179,3.797940492630005
15.865782737731934,1.1767326593399048,3.8404808044433594
15.811396598815918,1.813779354095459,3.8418655395507812
15.93562126159668,2.4801342487335205,3.893132448196411
16.05171012878418,3.163327932357788,3.949370861053467
16.159412384033203,3.864839553833008,4.010862350463867
16.258464813232422,4.586272716522217,4.077916622161865
15.212628364562988,4.959103107452393,3.8624889850616455
16.624652862548828,6.1686177253723145,4.2805023193359375
16.69626235961914,6.97041654586792,4.367564678192139
16.757305145263672,7.800535202026367,4.461964130401611
16.807147979736328,8.661540985107422,4.564270973205566
16.845041275024414,9.556283950805664,4.675117015838623
16.870113372802734,10.487950325012207,4.795226097106934
16.88136863708496,11.460068702697754,4.925406455993652
16.866575241088867,12.468396186828613,5.063270568847656
16.84657859802246,13.533105850219727,5.21638298034668
16.15294075012207,14.080012321472168,5.172699451446533
15.50278091430664,14.649946212768555,5.148944854736328
14.590840339660645,14.942462921142578,5.041513919830322
14.653979301452637,16.26597785949707,5.285019874572754
14.726910591125488,17.730234146118164,5.563907623291016
16.110681533813477,21.06342315673828,6.401464939117432
8.321850776672363,11.836893081665039,3.4928948879241943
7.714991569519043,11.968281745910645,3.437361478805542
15.577767372131348,26.441160202026367,7.408203125
15.250472068786621,28.43943977355957,7.789996147155762
14.864649772644043,30.612672805786133,8.214950561523438
14.410691261291504,32.988433837890625,8.689994812011719
13.869606018066406,35.58214569091797,9.218912124633789
13.241238594055176,38.470279693603516,9.821337699890137
12.499751091003418,41.687782287597656,10.505974769592285
11.633796691894531,45.34782791137695,11.301348686218262
9.980772018432617,46.609886169433594,11.506592750549316
9.31812858581543,54.0350227355957,13.236444473266602
7.820917129516602,59.550567626953125,14.498811721801758
4.696717262268066,51.81137466430664,12.558428764343262
3.6942405700683594,73.49695587158203,17.764389038085938
0.8303087949752808,82.70195770263672,19.965070724487305
-2.8383395671844482,94.13768768310547,22.73495101928711
-20.82640838623047,88.52818298339844,21.95389747619629
-22.496009826660156,80.89595031738281,20.26911163330078
-22.57150650024414,70.12232971191406,17.782695770263672
-20.418109893798828,55.659732818603516,14.311657905578613
-21.370763778686523,51.728309631347656,13.510790824890137
-23.17668914794922,50.275428771972656,13.36387825012207
-27.107669830322266,53.08330535888672,14.388320922851562
-29.090442657470703,51.724369049072266,14.32541275024414
-33.65787887573242,54.59008026123047,15.48134708404541
-21.40199851989746,31.779438018798828,9.248963356018066
-21.81022834777832,29.733755111694336,8.901597023010254
-21.917707443237305,27.492300033569336,8.487502098083496
-22.953638076782227,26.5310001373291,8.468774795532227
-25.299619674682617,26.972076416015625,8.927033424377441
-27.895187377929688,27.441574096679688,9.445972442626953
-30.788848876953125,27.945165634155273,10.037288665771484
-33.836856842041016,28.31796646118164,10.651191711425781
-36.72578811645508,28.306795120239258,11.193302154541016
-36.80896759033203,26.08285903930664,10.890264511108398
-36.815185546875,23.92557716369629,10.598958969116211
-12.700268745422363,7.5459394454956055,3.5661399364471436
-13.042007446289062,7.056103706359863,3.5795512199401855
-18.34164810180664,7.227899074554443,4.7590131759643555
-23.713481903076172,7.206253528594971,5.98286247253418
-34.57638168334961,7.53820276260376,8.542717933654785
-79.37284088134766,-15.031404495239258,19.500972747802734
-71.47737884521484,-29.21985626220703,18.640554428100586
-65.6636734008789,-29.975772857666016,17.42460823059082
-65.52735900878906,-33.15651321411133,17.72784423828125
-65.39407348632812,-36.459815979003906,18.07374382019043
-65.22908782958984,-39.884273529052734,18.456409454345703
-25.625940322875977,-17.12006950378418,7.439537048339844
-23.1461238861084,-16.846385955810547,6.910656452178955
-21.008544921875,-16.6215763092041,6.466736793518066
-20.963258743286133,-18.001136779785156,6.670178413391113
-20.87627410888672,-19.43674659729004,6.885573863983154
-20.780006408691406,-20.967363357543945,7.126096248626709
-21.726865768432617,-23.760122299194336,7.772106170654297
-21.0487060546875,-24.96217918395996,7.882136821746826
-20.384403228759766,-26.245180130004883,8.022010803222656
-20.243175506591797,-28.344331741333008,8.408082008361816
-20.104232788085938,-30.6854305267334,8.855628967285156
-19.912771224975586,-33.233070373535156,9.352266311645508
-18.69303321838379,-34.246734619140625,9.418432235717773
-17.81258201599121,-36.001556396484375,9.69625473022461
-15.361612319946289,-34.465972900390625,9.108986854553223
-13.166609764099121,-33.05184555053711,8.588410377502441
-10.051990509033203,-28.515247344970703,7.298684597015381
-9.26791763305664,-30.096004486083984,7.601781845092773
-7.661324977874756,-28.968856811523438,7.233436584472656
-6.281515121459961,-28.30724334716797,6.9995222091674805
-4.914980411529541,-27.29112434387207,6.694001197814941
-3.656372308731079,-26.326427459716797,6.416140079498291
-2.493624210357666,-25.41034698486328,6.163464546203613
-1.4157905578613281,-24.535781860351562,5.932734966278076
-0.4137570858001709,-23.69831657409668,5.721590042114258
0.5203387141227722,-22.894075393676758,5.528003215789795
1.262772560119629,-20.047616958618164,4.849039077758789
2.0536980628967285,-19.851240158081055,4.817618370056152
2.9368667602539062,-20.358440399169922,4.965353488922119
3.648920774459839,-19.66681671142578,4.828545093536377
4.320101261138916,-18.994686126708984,4.702372074127197
4.953888416290283,-18.34022331237793,4.58595085144043
5.294917106628418,-16.8778133392334,4.270056247711182
5.745162487030029,-16.028018951416016,4.110175132751465
6.07924747467041,-15.029876708984375,3.913728713989258
7.273723602294922,-16.0911922454834,4.262791633605957
7.76790189743042,-15.494102478027344,4.183966159820557
8.238722801208496,-14.906579971313477,4.111434459686279
8.687785148620605,-14.32761287689209,4.0448150634765625
8.168962478637695,-12.326315879821777,3.5696661472320557
8.574707984924316,-11.873528480529785,3.5355169773101807
9.918654441833496,-12.632477760314941,3.877107620239258
10.294215202331543,-12.078481674194336,3.831005096435547
9.682819366455078,-10.477614402770996,3.443934679031372
10.538660049438477,-10.522259712219238,3.594971179962158
11.197532653808594,-10.315847396850586,3.6752865314483643
11.512038230895996,-9.780518531799316,3.6465072631835938
11.814248085021973,-9.246477127075195,3.6215577125549316
12.104778289794922,-8.713044166564941,3.600329875946045
12.384187698364258,-8.179573059082031,3.582730531692505
12.65298080444336,-7.645400524139404,3.568687677383423
12.92436408996582,-7.1168928146362305,3.561652183532715
13.317110061645508,-6.650533199310303,3.593299627304077
13.559480667114258,-6.103886604309082,3.589585542678833
13.792703628540039,-5.553863048553467,3.5893161296844482
14.017077445983887,-4.999741077423096,3.5924954414367676
14.23286247253418,-4.440812587738037,3.599134922027588
14.44028091430664,-3.8763575553894043,3.609262466430664
14.63952922821045,-3.305610418319702,3.622917890548706
14.830755233764648,-2.727782726287842,3.640162229537964
15.014093399047852,-2.1420412063598633,3.661067008972168
15.189627647399902,-1.5475351810455322,3.6857218742370605
15.357421875,-0.9433473944664001,3.7142317295074463
15.517489433288574,-0.32850703597068787,3.7467262744903564
15.669830322265625,0.2979924976825714,3.7833447456359863
15.814382553100586,0.9372503757476807,3.824256420135498
15.951081275939941,1.5904295444488525,3.869645833969116
15.890692710876465,2.2322168350219727,3.8736391067504883
16.009807586669922,2.909027338027954,3.9280107021331787
16.120643615722656,3.60359525680542,3.9875264167785645
16.22292137145996,4.317476272583008,4.052489280700684
15.59504508972168,4.829024791717529,3.9409589767456055
14.92374324798584,5.286959648132324,3.821946144104004
16.6710147857666,6.6712141036987305,4.334595680236816
16.73603057861328,7.490593433380127,4.4262213706970215
16.790098190307617,8.339883804321289,4.525538921356201
16.83249282836914,9.221814155578613,4.633154392242432
16.86241340637207,10.139459609985352,4.749752521514893
16.878887176513672,11.096202850341797,4.876115322113037
16.86976432800293,12.087891578674316,5.00984001159668
16.855945587158203,13.134014129638672,5.158380508422852
16.61664581298828,14.055912017822266,5.253833293914795
15.834342002868652,14.524712562561035,5.186925888061523
14.788727760314941,14.7023344039917,5.033968925476074
14.629615783691406,15.762308120727539,5.191316604614258
14.69873046875,17.17151641845703,5.456405162811279
16.075035095214844,20.38295555114746,6.266451835632324
16.16104507446289,22.27739143371582,6.643754005432129
7.894333839416504,11.856498718261719,3.438516139984131
15.685452461242676,25.742919921875,7.276973247528076
15.377676010131836,27.68256950378418,7.644333362579346
15.014485359191895,29.788270950317383,8.052613258361816
14.586932182312012,32.085693359375,8.50826644897461
14.076831817626953,34.58834457397461,9.01455020904541
13.485345840454102,37.368568420410156,9.59009838104248
12.78805160522461,40.457672119140625,10.242656707763672
11.976018905639648,43.961669921875,10.99897289276123
8.249616622924805,35.91466522216797,8.89549446105957
9.819511413574219,52.297340393066406,12.845062255859375
7.720426082611084,52.71572494506836,12.86120319366455
6.701254367828369,63.44154357910156,15.399837493896484
4.5952606201171875,70.53378295898438,17.062782287597656
1.9676432609558105,79.08110809326172,19.095901489257812
-1.3716392517089844,89.60929870605469,21.634010314941406
-4.659798622131348,83.89307403564453,20.282808303833008
-22.23025894165039,84.79449462890625,21.16094207763672
-11.840283393859863,38.74553298950195,9.780057907104492
-20.270723342895508,57.9005241394043,14.808863639831543
-20.336694717407227,51.37199020385742,13.337448120117188
-22.06925392150879,49.8034553527832,13.149943351745605
-25.98956298828125,52.8138542175293,14.20920467376709
-28.080810546875,51.71000671386719,14.20447826385498
-32.384517669677734,54.31221389770508,15.26461410522461
-35.91311264038086,55.07297134399414,15.871386528015137
-21.766742706298828,30.61670684814453,9.068252563476562
-21.879682540893555,28.295814514160156,8.634398460388184
-22.142635345458984,26.374393463134766,8.313011169433594
-24.406654357910156,26.806188583374023,8.751315116882324
-26.904991149902344,27.26458740234375,9.246628761291504
-29.682193756103516,27.75484848022461,9.80967903137207
-32.58872985839844,28.10588836669922,10.38842487335205
-36.11224365234375,28.697845458984375,11.134849548339844
-36.78205871582031,26.892194747924805,10.999130249023438
-36.84508514404297,24.730051040649414,10.712010383605957
-32.089046478271484,19.715742111206055,9.091495513916016
-12.711039543151855,7.122791290283203,3.5173287391662598
-10.365468978881836,5.2729172706604,2.80734920501709
-18.16568374633789,7.471766471862793,4.7415995597839355
-23.786903381347656,7.615842819213867,6.029232978820801
-65.71076202392578,-28.827177047729492,17.32170867919922
-65.5792236328125,-31.969717025756836,17.61160659790039
-65.45114135742188,-35.229122161865234,17.943077087402344
-65.29183197021484,-38.60367965698242,18.31008529663086
-26.63636589050293,-17.229114532470703,7.6578192710876465
-24.02136993408203,-16.944034576416016,7.096133708953857
-21.747528076171875,-16.68768882751465,6.617265701293945
-20.99325180053711,-17.49253273010254,6.5964131355285645
-20.909408569335938,-18.896329879760742,6.803283214569092
-20.816709518432617,-20.390283584594727,7.03416109085083
-20.375877380371094,-21.629425048828125,7.173243045806885
-21.314136505126953,-24.529151916503906,7.844390869140625
-20.653549194335938,-25.7925968170166,7.976456642150879
-20.3002986907959,-27.550859451293945,8.261133193969727
-20.168926239013672,-29.809932708740234,8.688366889953613
-19.986392974853516,-32.2606201171875,9.161043167114258
-19.366344451904297,-34.26173782348633,9.500529289245605
-18.54601287841797,-36.12553787231445,9.802672386169434
-16.234386444091797,-35.017704010009766,9.317431449890137
-13.949772834777832,-33.56097412109375,8.773519515991211
-10.923065185546875,-29.579410552978516,7.6117024421691895
