6.312512397766113,49.22323989868164,11.97968578338623
4.24461555480957,48.46147918701172,11.743274688720703
2.2847907543182373,48.388668060302734,11.693923950195312
0.33203816413879395,47.42789840698242,11.449263572692871
-1.5398058891296387,46.389060974121094,11.204377174377441
-3.3279294967651367,45.281410217285156,10.960309982299805
-5.030515670776367,44.11383056640625,10.71799087524414
-6.646483421325684,42.894710540771484,10.478248596191406
-8.175448417663574,41.63199234008789,10.241808891296387
-9.583150863647461,40.18760681152344,9.973201751708984
-10.84338665008545,38.538997650146484,9.664444923400879
-11.496232986450195,35.34654235839844,8.97252368927002
-11.904796600341797,32.1500129699707,8.275908470153809
-12.322942733764648,29.57299041748047,7.733830451965332
-12.916258811950684,27.795808792114258,7.398889541625977
-12.678979873657227,24.643341064453125,6.690029621124268
-13.217050552368164,23.33444595336914,6.473721504211426
-14.055139541625977,22.64190673828125,6.4331583976745605
-15.246430397033691,22.491363525390625,6.5592451095581055
-15.649791717529297,21.199926376342773,6.360965728759766
-16.001237869262695,19.94643211364746,6.172891139984131
-16.54656219482422,19.008363723754883,6.083540916442871
-15.24697208404541,16.15626335144043,5.362585544586182
-15.370749473571777,15.029196739196777,5.189411640167236
-16.0520076751709,14.480738639831543,5.2186503410339355
-17.58336639404297,14.624872207641602,5.520893573760986
-15.352575302124023,11.75898265838623,4.668252468109131
-15.49953842163086,10.912406921386719,4.5758466720581055
-16.494407653808594,10.648299217224121,4.7393412590026855
-10.846200942993164,6.399830341339111,3.0400569438934326
-10.859375953674316,5.832659721374512,2.9756205081939697
-8.29853343963623,4.0364155769348145,2.227647542953491
-19.59816551208496,8.576949119567871,5.164161682128906
-19.11020851135254,7.463792324066162,4.952511787414551
-16.903472900390625,5.83076286315918,4.316400051116943
-19.955251693725586,5.99802827835083,5.030033588409424
-21.40299415588379,5.506163120269775,5.3348541259765625
-23.1253604888916,4.968156337738037,5.709771633148193
-22.941635131835938,3.972043752670288,5.620448589324951
-22.786579132080078,3.008164882659912,5.5483527183532715
-22.60720443725586,2.064631462097168,5.480038642883301
-22.71407127380371,1.1569744348526,5.490233898162842
-22.485816955566406,0.24084033071994781,5.4283342361450195
-22.235660552978516,-0.6555138826370239,5.369968891143799
-21.964412689208984,-1.5323643684387207,5.315047264099121
-21.672800064086914,-2.3900516033172607,5.263480186462402
-21.361495971679688,-3.2288389205932617,5.215188503265381
-21.03111457824707,-4.0490264892578125,5.170095443725586
-20.682233810424805,-4.850908279418945,5.128129959106445
-20.31537437438965,-5.634720325469971,5.089223861694336
-19.931001663208008,-6.40077543258667,5.053317070007324
-19.529537200927734,-7.149315357208252,5.020349979400635
-18.85091781616211,-7.773148536682129,4.922257423400879
-18.422340393066406,-8.47761058807373,4.895389556884766
-17.977937698364258,-9.165447235107422,4.871281147003174
-17.517980575561523,-9.836854934692383,4.849891185760498
-17.042705535888672,-10.49201488494873,4.831186771392822
-16.472055435180664,-11.077105522155762,4.791794300079346
-15.136123657226562,-11.08698558807373,4.529172897338867
-13.937962532043457,-11.096481323242188,4.30066442489624
-13.923105239868164,-12.029440879821777,4.441719055175781
-12.977726936340332,-12.156654357910156,4.292574405670166
-14.070127487182617,-14.283517837524414,4.839925289154053
-13.475194931030273,-14.826431274414062,4.8364176750183105
-12.87425422668457,-15.362369537353516,4.838495254516602
-10.54800796508789,-13.666234016418457,4.167354106903076
-11.628129959106445,-16.386703491210938,4.850456237792969
-10.98284912109375,-16.87497329711914,4.8603596687316895
-7.307239532470703,-12.279786109924316,3.449444532394409
-9.652863502502441,-17.813133239746094,4.890822887420654
-8.962284088134766,-18.253307342529297,4.908781051635742
-8.256409645080566,-18.67690086364746,4.9294514656066895
-7.53511905670166,-19.083694458007812,4.95286226272583
-6.798192024230957,-19.473434448242188,4.979056358337402
-6.045472145080566,-19.845783233642578,5.0080742835998535
-5.276750564575195,-20.200428009033203,5.039961338043213
-4.491826057434082,-20.53696632385254,5.074769020080566
-3.6904921531677246,-20.854955673217773,5.112555027008057
-2.872502088546753,-21.15394401550293,5.15337610244751
-2.0376200675964355,-21.433399200439453,5.197300434112549
-1.1856333017349243,-21.69275665283203,5.244396686553955
-0.316261351108551,-21.931398391723633,5.294738292694092
0.5707322359085083,-22.14864730834961,5.34840726852417
1.3896573781967163,-21.04269790649414,5.090721130371094
2.3594117164611816,-22.14871597290039,5.376898288726807
3.28530216217041,-22.294374465942383,5.4399285316467285
4.229445934295654,-22.415767669677734,5.506590366363525
4.7939229011535645,-20.785762786865234,5.149356365203857
5.5923285484313965,-20.456798553466797,5.119421482086182
7.290892601013184,-22.995216369628906,5.82332181930542
7.457763671875,-20.60854148864746,5.290578365325928
9.38163948059082,-22.99326515197754,5.994758605957031
10.456145286560059,-22.945484161376953,6.086982250213623
11.550129890441895,-22.864591598510742,6.1837158203125
12.663544654846191,-22.74907112121582,6.285085201263428
8.154163360595703,-13.35593318939209,3.777477979660034
13.733603477478027,-20.586872100830078,5.973951816558838
13.808798789978027,-18.999366760253906,5.669809341430664
13.876164436340332,-17.562702178955078,5.403193473815918
14.19577407836914,-16.554166793823242,5.2642436027526855
12.32409954071045,-13.25465202331543,4.369024753570557
16.218544006347656,-16.095170974731445,5.515796184539795
17.64215087890625,-16.154172897338867,5.7744140625
16.529129028320312,-13.95670223236084,5.2222418785095215
20.949907302856445,-16.294092178344727,6.406805038452148
22.900074005126953,-16.37809181213379,6.796342372894287
27.40393829345703,-17.98050308227539,7.912075042724609
22.986162185668945,-13.793883323669434,6.471235752105713
30.042133331298828,-16.424095153808594,8.265109062194824
31.367382049560547,-15.545851707458496,8.450931549072266
30.081979751586914,-13.431770324707031,7.952719211578369
31.52068519592285,-12.581083297729492,8.192730903625488
34.84884262084961,-12.31089973449707,8.921918869018555
36.13515853881836,-11.154125213623047,9.129056930541992
37.4057731628418,-9.91940689086914,9.341764450073242
39.18973922729492,-8.723917961120605,9.691873550415039
40.430110931396484,-7.309195041656494,9.917941093444824
41.637550354003906,-5.811261177062988,10.148630142211914
42.805397033691406,-4.229605197906494,10.383441925048828
43.92637252807617,-2.564281940460205,10.62177562713623
44.37968826293945,-0.8046469688415527,10.714913368225098
45.369911193847656,1.0006961822509766,10.954854011535645
42.27241134643555,2.6342248916625977,10.224252700805664
39.3271369934082,-5.910911560058594,9.950603485107422
40.40373229980469,-4.421625137329102,10.169815063476562
41.43461990356445,-2.8560664653778076,10.39199161529541
42.412776947021484,-1.2149897813796997,10.616494178771973
42.7403564453125,0.4933701157569885,10.694817543029785
43.57930374145508,2.2561399936676025,10.918622016906738
26.291982650756836,2.4232382774353027,6.606422424316406
45.64778137207031,6.064848899841309,11.521930694580078
46.247169494628906,8.046768188476562,11.745386123657227
46.710838317871094,10.075837135314941,11.956377029418945
51.44166946411133,13.279608726501465,13.293228149414062
51.500938415527344,15.526564598083496,13.458978652954102
34.98635482788086,12.100967407226562,9.262803077697754
31.33513641357422,12.26846981048584,8.419910430908203
28.286184310913086,12.407231330871582,7.72843074798584
25.149147033691406,12.2584867477417,7.000319957733154
23.31960105895996,12.55017375946045,6.626154899597168
21.75570297241211,12.86142635345459,6.323592662811279
20.311866760253906,13.136698722839355,6.052545070648193
18.97186851501465,13.380706787109375,5.808856010437012
17.722158432006836,13.597343444824219,5.589078903198242
16.84182357788086,14.031825065612793,5.48492431640625
15.858139038085938,14.329812049865723,5.3478684425354
14.788594245910645,14.484073638916016,5.179371356964111
14.877289772033691,15.79084587097168,5.428393840789795
9.200813293457031,10.58749008178711,3.509648323059082
16.319028854370117,20.377300262451172,6.532111644744873
16.153974533081055,21.921117782592773,6.813304901123047
15.843694686889648,23.414432525634766,7.073753356933594
14.535958290100098,23.46006965637207,6.905409812927246
13.293179512023926,23.51449966430664,6.75866174697876
12.642587661743164,24.622997283935547,6.925589084625244
11.93466854095459,25.739486694335938,7.098928451538086
16.47232437133789,39.62372970581055,10.736870765686035
16.74648666381836,45.34135437011719,12.093979835510254
14.724592208862305,45.40100860595703,11.942340850830078
12.746590614318848,45.44839859008789,11.810471534729004
8.259993553161621,34.76712417602539,8.941255569458008
8.897339820861816,45.508453369140625,11.602298736572266
6.8759942054748535,44.621768951416016,11.296636581420898
5.223156929016113,46.144554138183594,11.619601249694824
3.301852226257324,45.44415283203125,11.400596618652344
1.4688422679901123,45.39216995239258,11.363561630249023
-0.3486800193786621,44.507991790771484,11.13672924041748
-2.0927321910858154,43.551063537597656,10.909527778625488
-3.7607669830322266,42.529571533203125,10.682887077331543
-5.350932598114014,41.451377868652344,10.457647323608398
-6.8621697425842285,40.32402038574219,10.234562873840332
-8.17536449432373,38.594234466552734,9.870978355407715
-9.179163932800293,36.1104736328125,9.322577476501465
-9.813970565795898,32.99479293823242,8.61311149597168
-11.281073570251465,33.011661529541016,8.728853225708008
-11.719292640686035,30.262584686279297,8.119967460632324
-12.270781517028809,28.259531021118164,7.708657741546631
-12.847503662109375,26.607711791992188,7.392993927001953
-12.693876266479492,23.79771614074707,6.748581409454346
-13.28443431854248,22.662673950195312,6.572851657867432
-14.279524803161621,22.25950813293457,6.6170759201049805
-14.764138221740723,21.09906005859375,6.443357944488525
-15.352970123291016,20.16478729248047,6.341415882110596
-15.91109561920166,19.242094039916992,6.247368812561035
-16.44023895263672,18.329862594604492,6.160807132720947
-15.071443557739258,15.50290584564209,5.409931182861328
-15.350951194763184,14.57071304321289,5.295715808868408
-16.520408630371094,14.464571952819824,5.4940948486328125
-15.210383415222168,12.274008750915527,4.890371799468994
-15.20840835571289,11.29457950592041,4.7399163246154785
-15.76948356628418,10.756120681762695,4.776151180267334
-16.91349220275879,10.566691398620605,4.989943981170654
-10.859830856323242,6.192533493041992,3.1279711723327637
-11.102289199829102,5.75255823135376,3.128664255142212
-8.462800979614258,3.9621593952178955,2.338069438934326
-18.902088165283203,7.940316200256348,5.129842758178711
-16.540973663330078,6.179088592529297,4.418085098266602
-19.079334259033203,6.266175746917725,5.024720191955566
-20.062061309814453,5.707026481628418,5.218890190124512
-21.63753318786621,5.225521087646484,5.569579601287842
-22.378807067871094,4.461522102355957,5.709615230560303
-22.25177764892578,3.5134313106536865,5.636612415313721
-22.099943161010742,2.584582567214966,5.5673346519470215
-21.924293518066406,1.6747370958328247,5.501678943634033
-22.025941848754883,0.7945361733436584,5.514717102050781
-21.80231285095215,-0.08992493897676468,5.455224514007568
-21.557159423828125,-0.9557404518127441,5.399136543273926
-21.29122543334961,-1.8031522035598755,5.346369743347168
-21.005220413208008,-2.6323719024658203,5.296847343444824
-20.699785232543945,-3.44364333152771,5.250495910644531
-20.375505447387695,-4.237208366394043,5.207245826721191
-20.03294563293457,-5.013265132904053,5.167032718658447
-19.672584533691406,-5.772068500518799,5.129796028137207
-19.294889450073242,-6.513815402984619,5.095479488372803
-18.900283813476562,-7.238689422607422,5.0640339851379395
-18.237136840820312,-7.838606834411621,4.966777324676514
-17.81560516357422,-8.520912170410156,4.941281795501709
-17.378395080566406,-9.187126159667969,4.918485641479492
-16.925752639770508,-9.837395668029785,4.898356914520264
-16.457927703857422,-10.471843719482422,4.880863666534424
-15.975112915039062,-11.090595245361328,4.865979194641113
-14.698471069335938,-11.105191230773926,4.609386920928955
-13.542510032653809,-11.113859176635742,4.383459091186523
-13.504000663757324,-12.021803855895996,4.523782253265381
-12.587039947509766,-12.146256446838379,4.376654624938965
-13.525605201721191,-14.144448280334473,4.89676570892334
-12.939616203308105,-14.668591499328613,4.894176006317139
-10.899575233459473,-13.405112266540527,4.322916507720947
-11.740825653076172,-15.687422752380371,4.902744293212891
-11.11961555480957,-16.173234939575195,4.910892009735107
-10.48941707611084,-16.652080535888672,4.924262046813965
-9.838798522949219,-17.106515884399414,4.937688827514648
-9.173408508300781,-17.544815063476562,4.953745365142822
-8.49317455291748,-17.966754913330078,4.9724555015563965
-7.79798698425293,-18.372148513793945,4.993849754333496
-7.087710857391357,-18.760711669921875,5.017960548400879
-6.3622355461120605,-19.132156372070312,5.044823169708252
-5.621392726898193,-19.486169815063477,5.074479103088379
-4.865026473999023,-19.822378158569336,5.1069722175598145
-4.092984676361084,-20.1403865814209,5.142353057861328
-3.3050687313079834,-20.439746856689453,5.180675029754639
-2.501098871231079,-20.719970703125,5.221996307373047
-1.6809136867523193,-20.98052215576172,5.266376972198486
-0.8442990183830261,-21.22083854675293,5.313884735107422
0.008923206478357315,-21.440269470214844,5.364591598510742
0.8789520263671875,-21.63816261291504,5.418570041656494
1.737166166305542,-21.458297729492188,5.386666297912598
2.626535654067993,-21.607990264892578,5.44635009765625
3.532923460006714,-21.734146118164062,5.509499549865723
4.4564714431762695,-21.835878372192383,5.576202392578125
4.839492321014404,-19.647701263427734,5.063005447387695
5.71046257019043,-19.733266830444336,5.140059471130371
7.4513397216796875,-22.345130920410156,5.893656253814697
7.763572692871094,-20.498058319091797,5.484377384185791
9.488014221191406,-22.30226707458496,6.064263343811035
10.533005714416504,-22.2340030670166,6.1558709144592285
11.595656394958496,-22.13265609741211,6.251837253570557
12.675796508789062,-21.99677276611328,6.352272033691406
8.21436595916748,-13.016351699829102,3.8511459827423096
13.746736526489258,-19.95868492126465,6.063792705535889
13.819568634033203,-18.43289566040039,5.76437520980835
13.884991645812988,-17.04775619506836,5.501335144042969
12.08263874053955,-13.674134254455566,4.565730094909668
15.401805877685547,-16.079666137695312,5.571177959442139
16.749271392822266,-16.135805130004883,5.819231986999512
18.225889205932617,-16.198226928710938,6.101072311401367
16.523273468017578,-13.537040710449219,5.344628810882568
21.673866271972656,-16.346986770629883,6.792572021484375
23.718002319335938,-16.436779022216797,7.220271110534668
26.81203842163086,-17.028600692749023,7.947330474853516
28.05588722229004,-16.275056838989258,8.11551570892334
29.30146026611328,-15.45905876159668,8.289332389831543
28.023128509521484,-13.374340057373047,7.769315719604492
29.145034790039062,-12.498234748840332,7.934640884399414
32.56901168823242,-12.442647933959961,8.723573684692383
33.773616790771484,-11.370405197143555,8.916581153869629
34.96271896362305,-10.226696968078613,9.114604949951172
36.63100051879883,-9.134549140930176,9.446146965026855
37.790687561035156,-7.8259711265563965,9.656266212463379
38.9194221496582,-6.441401481628418,9.870535850524902
40.01124572753906,-4.9803643226623535,10.088509559631348
41.05974197387695,-3.4429478645324707,10.309651374816895
42.05820846557617,-1.829624891281128,10.533374786376953
43.27781295776367,1.5971907377243042,10.835954666137695
39.270591735839844,3.032625675201416,9.855189323425293
45.40281295776367,5.348147392272949,11.43880844116211
46.03709030151367,7.308316707611084,11.663211822509766
46.538822174072266,9.318440437316895,11.875654220581055
51.34385681152344,12.444928169250488,13.21878433227539
51.479087829589844,14.690496444702148,13.39483642578125
51.53825378417969,16.97414207458496,13.576830863952637
32.60363006591797,12.210424423217773,8.711116790771484
29.35215187072754,12.358851432800293,7.968698978424072
26.605247497558594,12.483185768127441,7.353260517120361
23.931228637695312,12.425041198730469,6.7468180656433105
22.31818199157715,12.750975608825684,6.431387901306152
20.832067489624023,13.038935661315918,6.14923095703125
19.455434799194336,13.29399299621582,5.895876407623291
18.173824310302734,13.520325660705566,5.667634010314941
16.975112915039062,13.721405982971191,5.461431503295898
16.268640518188477,14.268072128295898,5.414314270019531
15.176597595214844,14.429242134094238,5.239706039428711
14.868972778320312,15.32014274597168,5.341832160949707
14.737491607666016,16.45895004272461,5.527854919433594
8.794012069702148,10.653094291687012,3.4563817977905273
16.217845916748047,21.337562561035156,6.705981254577637
15.845271110534668,22.68428611755371,6.9234299659729
15.011574745178223,23.443580627441406,6.965347766876221
13.741683006286621,23.4875431060791,6.808767318725586
12.88933277130127,24.212678909301758,6.863213539123535
12.202875137329102,25.326478958129883,7.034180641174316
16.39124298095703,37.835201263427734,10.316993713378906
17.505420684814453,45.316123962402344,12.155176162719727
15.465641021728516,45.38043975830078,11.995966911315918
13.590768814086914,45.832176208496094,11.961282730102539
11.518576622009277,45.47224426269531,11.737007141113281
9.598742485046387,45.5007438659668,11.635359764099121
7.70707893371582,45.51816940307617,11.551250457763672
5.9477643966674805,46.37907791137695,11.699589729309082
4.003911018371582,45.71347427368164,11.48180103302002
2.157782554626465,45.69854736328125,11.447015762329102
0.31395649909973145,44.84334182739258,11.22057056427002
-1.4575867652893066,43.91230392456055,10.993389129638672
-3.1539249420166016,42.9137077331543,10.766438484191895
-4.773000240325928,41.85555648803711,10.5405912399292
-6.313468933105469,40.74550247192383,10.316629409790039
-7.663322925567627,39.02408218383789,9.950737953186035
-9.025507926940918,37.849056243896484,9.735779762268066
-9.416502952575684,33.467674255371094,8.699126243591309
-6.709485054016113,20.629106521606445,5.427773475646973
-11.551238059997559,31.195192337036133,8.32330322265625
-12.046449661254883,28.909460067749023,7.836332321166992
-12.606200218200684,27.12857437133789,7.484928131103516
-12.667797088623047,24.621618270874023,6.928166389465332
-13.295376777648926,23.472732543945312,6.749837875366211
-13.363204002380371,21.52724838256836,6.339763164520264
-14.563665390014648,21.48416519165039,6.494260787963867
-15.139244079589844,20.50831413269043,6.378109455108643
-15.708486557006836,19.58150291442871,6.281200408935547
-16.248138427734375,18.665542602539062,6.191920757293701
-15.019804954528809,15.915550231933594,5.475556373596191
-15.178065299987793,14.840795516967773,5.311448097229004
-16.008638381958008,14.44161605834961,5.394566535949707
-17.54327392578125,14.591533660888672,5.70941162109375
-15.16414737701416,11.614659309387207,4.779298782348633
-15.409314155578613,10.848883628845215,4.715298652648926
-16.394718170166016,10.583943367004395,4.882682800292969
-10.855012893676758,6.405029773712158,3.153607130050659
-10.868011474609375,5.83729887008667,3.086711883544922
-8.305005073547363,4.039565086364746,2.310778856277466
-19.038942337036133,8.332221984863281,5.199963569641113
-18.734987258911133,7.3172430992126465,5.032537937164307
-16.89821434020996,5.828948974609375,4.472598552703857
-19.55083656311035,5.876469135284424,5.108016490936279
-21.031875610351562,5.410702705383301,5.433743953704834
-22.419227600097656,4.816448211669922,5.7375288009643555
-22.30162239074707,3.861233711242676,5.663127899169922
-22.158823013305664,2.925291061401367,5.592485427856445
-21.991851806640625,2.008434295654297,5.5255022048950195
-22.102909088134766,1.1258437633514404,5.537559986114502
-21.887428283691406,0.23443129658699036,5.476787567138672
-21.650127410888672,-0.6382519602775574,5.41945219039917
-21.391782760620117,-1.4924144744873047,5.365469932556152
-21.11311149597168,-2.3283302783966064,5.314758777618408
-20.814777374267578,-3.1462008953094482,5.2672438621521
-20.49738883972168,-3.94627046585083,5.222856521606445
-20.16151237487793,-4.728776931762695,5.1815290451049805
-19.80767822265625,-5.493903636932373,5.1432013511657715
-19.43633270263672,-6.241917610168457,5.107813835144043
-19.047922134399414,-6.9730072021484375,5.075313091278076
-18.388757705688477,-7.582574367523193,4.976881980895996
-17.973081588745117,-8.270874977111816,4.950379371643066
-17.541627883911133,-8.943010330200195,4.926590919494629
-17.094661712646484,-9.59914493560791,4.905480861663818
-16.632413864135742,-10.239428520202637,4.887017250061035
-16.155109405517578,-10.863959312438965,4.871172904968262
-15.156523704528809,-11.101930618286133,4.7008562088012695
-13.95580005645752,-11.11068344116211,4.463382720947266
-13.088838577270508,-11.308637619018555,4.328018665313721
-12.918901443481445,-12.101551055908203,4.429126739501953
-13.73531436920166,-13.943632125854492,4.89725399017334
-13.154570579528809,-14.473660469055176,4.893716812133789
-12.567797660827637,-14.996695518493652,4.895769119262695
-10.561003684997559,-13.683079719543457,4.324825763702393
-11.350677490234375,-15.995707511901855,4.9075822830200195
-10.725943565368652,-16.480236053466797,4.919964790344238
-7.313620567321777,-12.290508270263672,3.5785045623779297
-9.420792579650879,-17.384883880615234,4.947509288787842
-8.746044158935547,-17.812894821166992,4.965236663818359
-8.056382179260254,-18.224422454833984,4.985637187957764
-7.3517255783081055,-18.619218826293945,5.008739948272705
-6.631876468658447,-18.997026443481445,5.034581661224365
-5.896728992462158,-19.35750961303711,5.063200950622559
-5.146117210388184,-19.70034408569336,5.094640254974365
-4.3798723220825195,-20.025117874145508,5.128950595855713
-3.597841262817383,-20.3314151763916,5.16618013381958
-2.799828052520752,-20.618759155273438,5.206387042999268
-1.9856395721435547,-20.886642456054688,5.249630928039551
-1.155124545097351,-21.134502410888672,5.295975208282471
-0.30804726481437683,-21.361722946166992,5.345492839813232
0.5557650327682495,-21.567649841308594,5.398254871368408
1.4130702018737793,-21.397245407104492,5.365488052368164
2.2962143421173096,-21.555418014526367,5.423916816711426
3.1962954998016357,-21.690359115600586,5.485775470733643
4.113497734069824,-21.801225662231445,5.551156520843506
4.781813144683838,-20.733259201049805,5.323873519897461
5.4863810539245605,-20.06924819946289,5.205800533294678
7.083148956298828,-22.340007781982422,5.863946437835693
7.459046363830566,-20.612092971801758,5.484676837921143
9.106689453125,-22.319400787353516,6.031519889831543
10.145133018493652,-22.26297950744629,6.121548652648926
11.201288223266602,-22.174009323120117,6.2158918380737305
12.274991989135742,-22.051057815551758,6.314661979675293
8.144164085388184,-13.339554786682129,3.910590887069702
13.717690467834473,-20.563020706176758,6.1848835945129395
13.79361343383789,-18.978471755981445,5.870345592498779
13.861621856689453,-17.544296264648438,5.5945892333984375
14.211413383483887,-16.572402954101562,5.462449550628662
12.328435897827148,-13.259312629699707,4.5301289558410645
16.2379207611084,-16.114402770996094,5.724004745483398
17.664220809936523,-16.174381256103516,5.992722988128662
16.495445251464844,-13.928264617919922,5.40187406539917
20.97898292541504,-16.316709518432617,6.64993143081665
22.933813095092773,-16.402212142944336,7.0548481941223145
26.353778839111328,-17.29146385192871,7.886666297912598
22.995264053344727,-13.799344062805176,6.710152626037598
28.8415584564209,-15.76773738861084,8.224505424499512
27.044021606445312,-13.403177261352539,7.552162170410156
27.85822296142578,-12.438851356506348,7.633712291717529
31.59766960144043,-12.611810684204102,8.512581825256348
33.33045959472656,-11.77450942993164,8.844728469848633
34.52580261230469,-10.657353401184082,9.040928840637207
35.70277786254883,-9.467796325683594,9.241992950439453
37.36582946777344,-8.317902565002441,9.578185081481934
38.506656646728516,-6.961463451385498,9.790970802307129
39.61284637451172,-5.528677463531494,10.007637023925781
40.67812728881836,-4.0194091796875,10.227677345275879
41.695838928222656,-2.434070348739624,10.45051383972168
42.07761001586914,-0.7629081606864929,10.530008316040039
42.966556549072266,0.9476866722106934,10.753315925598145
40.51885223388672,2.524948835372925,10.157926559448242
37.50614547729492,-5.637214660644531,9.82551383972168
38.49363327026367,-4.21259069442749,10.031736373901367
39.435035705566406,-2.718235492706299,10.24031925201416
40.32395553588867,-1.1551525592803955,10.45064926147461
40.59283447265625,0.4685804843902588,10.516721725463867
41.346168518066406,2.1405274868011475,10.7255220413208
26.273820877075195,2.421564817428589,6.835371971130371
43.21810531616211,5.742046356201172,11.294498443603516
43.740440368652344,7.610608100891113,11.501673698425293
44.13413619995117,9.520029067993164,11.696406364440918
51.40495681762695,13.27012825012207,13.753592491149902
51.46372604370117,15.51534366607666,13.924959182739258
34.911808013916016,12.075181007385254,9.569994926452637
31.274431228637695,12.244701385498047,8.700834274291992
28.23587417602539,12.385164260864258,7.9875569343566895
25.651968002319336,12.503573417663574,7.3928351402282715
22.93301010131836,12.342120170593262,6.746791839599609
21.411251068115234,12.657793045043945,6.443599224090576
20.00384521484375,12.937490463256836,6.171595096588135
18.695581436157227,13.185845375061035,5.926732540130615
17.47370147705078,13.406717300415039,5.705639839172363
16.636598587036133,13.860847473144531,5.609729290008545
15.653777122497559,14.145139694213867,5.465669631958008
14.603937149047852,14.303220748901367,5.295609474182129
14.862041473388672,15.774658203125,5.614636421203613
9.191591262817383,10.576873779296875,3.6301426887512207
16.082761764526367,20.08228874206543,6.665240287780762
15.910179138183594,21.590290069580078,6.9478325843811035
16.147459030151367,23.86335563659668,7.464375972747803
14.523622512817383,23.440162658691406,7.143590927124023
13.275513648986816,23.483245849609375,6.988419532775879
12.138490676879883,23.641204833984375,6.884638786315918
17.370553970336914,37.46305847167969,10.697736740112305
16.44154930114746,39.54970169067383,11.095868110656738
16.65720558166504,45.09962844848633,12.454992294311523
14.647074699401855,45.161983489990234,12.29964542388916
12.680212020874023,45.21175003051758,12.164536476135254
8.248543739318848,34.718929290771484,9.244678497314453
8.851823806762695,45.27564239501953,11.951224327087402
6.709780693054199,43.5431022644043,11.413463592529297
4.938575744628906,43.63035583496094,11.375102996826172
3.125150680541992,43.01229476928711,11.17218017578125
1.3917226791381836,43.00867462158203,11.14770221710205
-0.3307182788848877,42.21517562866211,10.936640739440918
-1.9870177507400513,41.35099411010742,10.724791526794434
-3.5745339393615723,40.42353057861328,10.513020515441895
-5.091266632080078,39.439910888671875,10.30212116241455
-6.442174434661865,37.85601806640625,9.94800853729248
-7.79449987411499,36.796268463134766,9.744000434875488
-9.058196067810059,35.63456726074219,9.525111198425293
-9.443384170532227,31.74888801574707,8.58101749420166
-10.961325645446777,32.076011657714844,8.781441688537598
-11.38269329071045,29.393386840820312,8.165703773498535
-11.918038368225098,27.447189331054688,7.75188684463501
-12.582123756408691,26.05809783935547,7.496372222900391
-13.030876159667969,24.429508209228516,7.172783374786377
-12.885639190673828,21.982345581054688,6.601040840148926
-13.176791191101074,20.54051971435547,6.322048664093018
-14.491037368774414,20.70878028869629,6.547858238220215
-15.073387145996094,19.79758071899414,6.446148872375488
-15.625572204589844,18.896793365478516,6.352265357971191
-16.149234771728516,18.005409240722656,6.265809059143066
-14.828474044799805,15.252979278564453,5.510982036590576
-15.242944717407227,14.468193054199219,5.444447040557861
-16.54053497314453,14.482197761535645,5.695356845855713
-15.023199081420898,12.122957229614258,5.001034736633301
-15.049697875976562,11.176708221435547,4.856354236602783
-15.678729057312012,10.694211959838867,4.916623115539551
-16.8905086517334,10.55233097076416,5.159418106079102
-10.86862564086914,6.197548866271973,3.2412314414978027
-11.083104133605957,5.742617607116699,3.2337288856506348
-8.446920394897461,3.9547245502471924,2.416224479675293
-18.21690559387207,7.652471542358398,5.118773460388184
-16.57143211364746,6.190467357635498,4.582777976989746
-18.73345375061035,6.152581691741943,5.108134746551514
-19.752155303955078,5.6188645362854,5.320013046264648
-21.26377296447754,5.135254383087158,5.666963577270508
-21.764108657836914,4.338974475860596,5.749188423156738
-21.648164749145508,3.418124198913574,5.67767333984375
-21.507627487182617,2.5153110027313232,5.609760761260986
-21.343425750732422,1.630366563796997,5.545357704162598
-21.44880485534668,0.7737172245979309,5.560162544250488
-21.237041473388672,-0.08759307116270065,5.501734256744385
-21.003835678100586,-0.9312089681625366,5.446621417999268
-20.74993896484375,-1.757309913635254,5.3947434425354
-20.47602653503418,-2.5660531520843506,5.346031188964844
-20.18273162841797,-3.357625961303711,5.300418376922607
-19.870643615722656,-4.132218837738037,5.257837772369385
-19.54030418395996,-4.889981746673584,5.218235015869141
-19.19221305847168,-5.631123065948486,5.181546211242676
-18.826814651489258,-6.355797290802002,5.147725582122803
-18.444541931152344,-7.06414270401001,5.116722106933594
-17.799808502197266,-7.650635719299316,5.019138813018799
-17.39052963256836,-8.317605018615723,4.993988037109375
-16.965612411499023,-8.968908309936523,4.971497058868408
-16.52533531188965,-9.604666709899902,4.951632022857666
-16.069931030273438,-10.224969863891602,4.934365272521973
-15.599623680114746,-10.829911231994629,4.919671535491943
-14.71800422668457,-11.119950294494629,4.778766632080078
-13.559624671936035,-11.127904891967773,4.5442399978637695
-12.611597061157227,-11.227350234985352,4.374263763427734
-12.530677795410156,-12.091872215270996,4.511168003082275
-8.52115535736084,-8.91103458404541,3.1940927505493164
-12.64547061920166,-14.335134506225586,4.952086925506592
-10.64505672454834,-13.092090606689453,4.371304035186768
-11.466361045837402,-15.320694923400879,4.95749044418335
-10.864904403686523,-15.802762985229492,4.9681220054626465
-10.243291854858398,-16.261348724365234,4.9788031578063965
-9.607324600219727,-16.704050064086914,4.992059230804443
-8.95689582824707,-17.130725860595703,5.007909297943115
-8.291982650756836,-17.541149139404297,5.026376247406006
-7.612483024597168,-17.935104370117188,5.047488212585449
-6.9183125495910645,-18.31232261657715,5.07127571105957
-6.20938777923584,-18.672504425048828,5.0977702140808105
-5.4855637550354,-19.01532745361328,5.127013206481934
-4.746740818023682,-19.340423583984375,5.159045219421387
-3.992798328399658,-19.647384643554688,5.193912029266357
-3.2235796451568604,-19.93577766418457,5.231664180755615
-2.4389584064483643,-20.205121994018555,5.272355556488037
-1.6388055086135864,-20.454877853393555,5.316041469573975
-0.8229624629020691,-20.684497833251953,5.3627848625183105
0.008694708347320557,-20.893346786499023,5.412652015686035
0.8563145995140076,-21.080780029296875,5.46571159362793
1.6919623613357544,-20.89997100830078,5.432081699371338
2.5574586391448975,-21.039710998535156,5.490686416625977
3.4389636516571045,-21.15609359741211,5.552656650543213
4.336543560028076,-21.24828338623047,5.618072032928467
4.826141357421875,-19.593494415283203,5.227620601654053
5.6051740646362305,-19.36943817138672,5.2237443923950195
7.24304723739624,-21.72051429748535,5.931544780731201
7.769773483276367,-20.514442443847656,5.682900428771973
9.215339660644531,-21.661325454711914,6.098316669464111
10.225855827331543,-21.58565330505371,6.187748908996582
11.252402305603027,-21.477497100830078,6.2813544273376465
12.2947416305542,-21.335493087768555,6.379231929779053
8.222458839416504,-13.02917194366455,3.991290807723999
13.731073379516602,-19.935943603515625,6.271117687225342
13.80459976196289,-18.412921905517578,5.961798191070557
13.870636940002441,-17.030134201049805,5.6900315284729
12.03554630279541,-13.620841026306152,4.708796501159668
15.419808387756348,-16.098464965820312,5.774975776672363
16.769725799560547,-16.1555118560791,6.032418727874756
18.249221801757812,-16.218969345092773,6.32495641708374
16.531272888183594,-13.543595314025879,5.536349773406982
21.704769134521484,-16.370296478271484,7.042855262756348
23.75395393371582,-16.461692810058594,7.4869866371154785
25.81117057800293,-16.39293670654297,7.921268939971924
26.987253189086914,-15.655150413513184,8.082513809204102
26.411575317382812,-13.934406280517578,7.736080169677734
25.925188064575195,-12.373076438903809,7.441899299621582
29.211816787719727,-12.526872634887695,8.234118461608887
31.221708297729492,-11.927926063537598,8.658491134643555
32.34687042236328,-10.890069961547852,8.841964721679688
33.454345703125,-9.785494804382324,9.029860496520996
35.01704025268555,-8.73208236694336,9.349344253540039
36.09026336669922,-7.473834991455078,9.547954559326172
37.131134033203125,-6.145429611206055,9.750083923339844
38.13411331176758,-4.746708869934082,9.955296516418457
39.09321594238281,-3.278050661087036,10.163068771362305
40.002288818359375,-1.7401878833770752,10.372830390930176
41.07605743408203,1.5159330368041992,10.648446083068848
37.745182037353516,2.9148287773132324,9.807416915893555
43.002681732177734,5.06543493270874,11.217327117919922
43.558284759521484,6.914814472198486,11.42553997039795
43.98800277709961,8.807693481445312,11.621767044067383
44.08927536010742,10.686532974243164,11.752537727355957
51.44206619262695,14.67992877960205,13.858642578125
51.50069046020508,16.961767196655273,14.046801567077637
32.53828048706055,12.185951232910156,9.001155853271484
29.298328399658203,12.336189270019531,8.235424041748047
26.560213088989258,12.46205997467041,7.600462913513184
23.80502700805664,12.359519004821777,6.9486188888549805
21.958898544311523,12.545706748962402,6.551672458648682
20.511194229125977,12.838098526000977,6.268664836883545
19.16793441772461,13.097539901733398,6.014207363128662
17.915510177612305,13.328152656555176,5.784693717956543
16.74248695373535,13.53337287902832,5.577115058898926
16.056407928466797,14.081939697265625,5.5326924324035645
14.984920501708984,14.247001647949219,5.35651969909668
14.853975296020508,15.304692268371582,5.525196552276611
14.876214981079102,16.61388397216797,5.77725076675415
8.788969039916992,10.64698314666748,3.576582670211792
15.976889610290527,21.020538330078125,6.840014457702637
16.135896682739258,23.10035514831543,7.299793243408203
14.998727798461914,23.423519134521484,7.205543041229248
13.730053901672363,23.467668533325195,7.043630123138428
12.515530586242676,23.51051139831543,6.8998918533325195
11.775874137878418,24.440261840820312,7.028138160705566
16.361711502075195,37.76701736450195,10.662660598754883
16.42418670654297,42.51714324951172,11.807785987854004
15.383840560913086,45.14045333862305,12.354584693908691
13.556042671203613,45.715091705322266,12.352718353271484
11.458964347839355,45.23693084716797,12.089268684387207
9.549508094787598,45.2673225402832,11.985102653503418
7.174772262573242,42.374393463134766,11.133800506591797
5.621596336364746,43.83567810058594,11.449114799499512
3.788212776184082,43.25072479248047,11.24747085571289
2.043682813644409,43.28227233886719,11.225238800048828
0.2976585924625397,42.51676559448242,11.014703750610352
-1.3834223747253418,41.677799224853516,10.803037643432617
-2.996581792831421,40.77284240722656,10.591143608093262
-4.5396342277526855,39.809146881103516,10.379836082458496
-6.010806083679199,38.79219436645508,10.169464111328125
-7.3035664558410645,37.19208908081055,9.819037437438965
-6.766549587249756,28.375965118408203,7.5572190284729
-9.316985130310059,33.11396408081055,8.911625862121582
-10.728263854980469,32.98533248901367,8.98581600189209
-11.300862312316895,30.5190486907959,8.430914878845215
-11.743557929992676,28.18256950378418,7.909502029418945
-12.292141914367676,26.452713012695312,7.556601524353027
-13.008265495300293,25.283353805541992,7.366002559661865
-12.719379425048828,22.45581817626953,6.685812473297119
-13.166703224182129,21.210693359375,6.467479705810547
-13.388470649719238,19.750532150268555,6.181386470794678
-14.861987113952637,20.132736206054688,6.482768535614014
-15.42509651184082,19.228242874145508,6.386044979095459
-15.959102630615234,18.333505630493164,6.2968902587890625
-14.75900936126709,15.63919734954834,5.570791244506836
-14.993561744689941,14.660386085510254,5.432463645935059
-15.975778579711914,14.411971092224121,5.573908805847168
-15.157525062561035,12.607196807861328,5.107458114624023
-15.004036903381348,11.492029190063477,4.8961005210876465
-15.319766998291016,10.785834312438965,4.853708267211914
-16.365509033203125,10.56508731842041,5.046379089355469
-10.863876342773438,6.410260200500488,3.2678191661834717
-10.876697540283203,5.8419647216796875,3.1984450817108154
-8.311513900756836,4.042730331420898,2.3943874835968018
-18.64457130432129,8.159622192382812,5.272362232208252
-18.13340187072754,7.0822906494140625,5.043221950531006
-16.89293670654297,5.827127933502197,4.629349708557129
-19.247434616088867,5.785280227661133,5.206618309020996
-20.673709869384766,5.3185529708862305,5.53013277053833
-21.800487518310547,4.683521270751953,5.776519298553467
-21.693891525268555,3.7560133934020996,5.7036542892456055
-21.56231117248535,2.846543312072754,5.634420394897461
-21.406742095947266,1.9549981355667114,5.56873083114624
-21.52141571044922,1.0962247848510742,5.582587242126465
-21.3177547454834,0.22832944989204407,5.522916793823242
-21.09238052368164,-0.6218095421791077,5.466587543487549
-20.84604835510254,-1.4543405771255493,5.413524150848389
-20.57944107055664,-2.2694766521453857,5.363651752471924
-20.29323387145996,-3.067368507385254,5.316901683807373
-19.988019943237305,-3.8482041358947754,5.273209571838379
-19.664356231689453,-4.612171649932861,5.232512474060059
-19.322772979736328,-5.359409332275391,5.1947550773620605
-18.963714599609375,-6.090134620666504,5.159882068634033
-18.587623596191406,-6.804500102996826,5.127843856811523
-18.194896697998047,-7.502638816833496,5.09859561920166
-17.543481826782227,-8.073177337646484,5.002962589263916
-17.124303817749023,-8.730250358581543,4.979493618011475
-16.68967056274414,-9.371732711791992,4.958662509918213
-16.239822387695312,-9.997735977172852,4.9404401779174805
-15.774993896484375,-10.608339309692383,4.924798965454102
-15.177071571350098,-11.116978645324707,4.873725414276123
-13.97375774383545,-11.124981880187988,4.627202033996582
-12.885397911071777,-11.132869720458984,4.411452770233154
-12.860365867614746,-12.046717643737793,4.565008640289307
-11.984065055847168,-12.165830612182617,4.423995494842529
-12.855563163757324,-14.14466381072998,4.951633453369141
-10.835074424743652,-12.929096221923828,4.370078086853027
-10.57408618927002,-13.70002555847168,4.483342170715332
-11.085074424743652,-15.62140941619873,4.962268352508545
-10.474477767944336,-16.093873977661133,4.974559783935547
-9.843799591064453,-16.542463302612305,4.986863613128662
-9.198721885681152,-16.975078582763672,5.001753330230713
-8.53915786743164,-17.39152717590332,5.019252300262451
-7.8650407791137695,-17.791597366333008,5.039384841918945
-7.176330089569092,-18.17501449584961,5.062179088592529
-6.472858428955078,-18.54152488708496,5.08767032623291
-5.754557132720947,-18.890792846679688,5.115893840789795
-5.021284580230713,-19.22248077392578,5.1468915939331055
-4.27293586730957,-19.536190032958984,5.180705547332764
-3.5093812942504883,-19.83148765563965,5.217385292053223
-2.730463743209839,-20.107929229736328,5.256985187530518
-1.9360517263412476,-20.36498260498047,5.299559593200684
-1.1260225772857666,-20.602102279663086,5.3451666831970215
-0.30021652579307556,-20.818696975708008,5.3938727378845215
0.5415022373199463,-21.014118194580078,5.445746421813965
1.3764415979385376,-20.842649459838867,5.41127872467041
2.2360689640045166,-20.990793228149414,5.468662738800049
3.1116414070129395,-21.11589813232422,5.529379844665527
4.003286361694336,-21.21712303161621,5.593514919281006
4.76971435546875,-20.6807918548584,5.498232364654541
5.3839569091796875,-19.694576263427734,5.289308547973633
6.88613224029541,-21.718599319458008,5.902475833892822
7.460635662078857,-20.616487503051758,5.679883003234863
8.84634017944336,-21.681324005126953,6.0663275718688965
9.850895881652832,-21.61728858947754,6.154250621795654
10.871567726135254,-21.521299362182617,6.246304512023926
11.908095359802246,-21.391958236694336,6.342593669891357
8.134147644042969,-13.323149681091309,4.043930530548096
13.701750755310059,-20.539119720458984,6.396203517913818
13.778397560119629,-18.957534790039062,6.0712785720825195
13.84704875946045,-17.52584457397461,5.786381244659424
14.227158546447754,-16.590757369995117,5.661922931671143
12.332789421081543,-13.263997077941895,4.6920166015625
16.257427215576172,-16.133760452270508,5.9335832595825195
17.686437606811523,-16.194721221923828,6.212491989135742
16.46175765991211,-13.89981746673584,5.581516742706299
21.00827407836914,-16.339487075805664,6.894753932952881
22.967769622802734,-16.42650032043457,7.31519889831543
25.377235412597656,-16.65072250366211,7.863041400909424
23.004413604736328,-13.80483341217041,6.95025634765625
27.72881317138672,-15.159398078918457,8.186872482299805
24.93080711364746,-12.355854988098145,7.208287239074707
27.919628143310547,-12.466269493103027,7.921142101287842
30.802640914916992,-12.2944974899292,8.591913223266602
31.933303833007812,-11.280942916870117,8.773699760437012
33.047813415527344,-10.201131820678711,8.959993362426758
34.61366653442383,-9.178983688354492,9.276986122131348
35.69752502441406,-7.946525573730469,9.474197387695312
36.75095748901367,-6.644058704376221,9.67507553100586
37.76858901977539,-5.271279335021973,9.879206657409668
38.74462127685547,-3.828359603881836,10.086099624633789
39.6728630065918,-2.3159756660461426,10.29518985748291
39.99435806274414,-0.7251366972923279,10.362679481506348
40.79644775390625,0.8998229503631592,10.57133960723877
41.53157424926758,2.588043689727783,10.78007984161377
35.83949279785156,-5.386714935302734,9.711026191711426
36.748836517333984,-4.021645545959473,9.905608177185059
37.61209487915039,-2.5925815105438232,10.102046012878418
38.423458099365234,-1.1007089614868164,10.29975700378418
38.642822265625,0.44607117772102356,10.355003356933594
39.32245635986328,2.0357580184936523,10.550530433654785
40.48410415649414,3.7312850952148438,10.893647193908691
41.02508544921875,5.450675964355469,11.089221954345703
41.4822883605957,7.2176995277404785,11.282133102416992
41.81745147705078,9.020304679870605,11.462669372558594
42.048728942871094,10.854835510253906,11.636290550231934
51.42640686035156,15.504090309143066,14.392271995544434
34.837249755859375,12.049393653869629,9.877198219299316
31.213682174682617,12.220924377441406,8.981878280639648
28.185529708862305,12.363080978393555,8.246872901916504
25.609628677368164,12.482935905456543,7.633858680725098
23.385040283203125,12.5853910446167,7.115817070007324
21.07611846923828,12.459673881530762,6.56035852432251
19.703763961791992,12.743410110473633,6.287580966949463
18.42609214782715,12.99577808380127,6.041712284088135
17.231090545654297,13.220571517944336,5.819459915161133
16.43546485900879,13.693273544311523,5.732048511505127
15.45376205444336,13.964404106140137,5.580959320068359
14.42306900024414,14.126079559326172,5.409462928771973
14.846755027770996,15.75843620300293,5.801298141479492
9.182342529296875,10.56623363494873,3.750912666320801
15.852265357971191,19.79446792602539,6.795116901397705
16.097734451293945,21.84479522705078,7.27092170715332
16.12700843811035,23.83314323425293,7.710698127746582
16.159061431884766,26.079652786254883,8.220687866210938
16.227603912353516,28.705228805541992,8.835522651672363
12.116471290588379,23.59831428527832,7.107926845550537
17.35580062866211,37.43123245239258,11.055368423461914
16.410757064819336,39.47563552856445,11.455069541931152
15.992979049682617,43.30124282836914,12.368609428405762
14.065808296203613,43.36970901489258,12.216766357421875
12.149649620056152,43.31998062133789,12.055427551269531
8.237080574035645,34.670658111572266,9.548565864562988
8.38463306427002,42.886043548583984,11.708839416503906
6.550743579864502,42.51104736328125,11.525250434875488
4.682348251342773,41.36676788330078,11.154973030090332
2.9657530784606934,40.81854248046875,10.966127395629883
1.3220053911209106,40.85420227050781,10.952583312988281
-0.31445425748825073,40.13853073120117,10.755415916442871
-1.8910804986953735,39.3543586730957,10.557136535644531
-3.4051895141601562,38.50838851928711,10.358553886413574
-4.854676723480225,37.607112884521484,10.160409927368164
-6.137145519256592,36.063594818115234,9.802135467529297
-7.432399749755859,35.08683395385742,9.610102653503418
-8.661320686340332,34.07331466674805,9.420269966125488
-9.347845077514648,31.427684783935547,8.785634994506836
-10.688607215881348,31.277944564819336,8.856743812561035
-11.179485321044922,28.86863899230957,8.295086860656738
-11.585018157958984,26.680240631103516,7.793809413909912
-12.047036170959473,24.94990348815918,7.423830986022949
-12.710482597351074,23.828847885131836,7.236464023590088
-12.781004905700684,21.803850173950195,6.772078514099121
-13.193758964538574,20.566970825195312,6.547374725341797
-13.218544960021973,18.89029312133789,6.177802562713623
-13.182509422302246,17.314077377319336,5.830933570861816
-15.348945617675781,18.562259674072266,6.453892707824707
-15.753888130187988,17.56462860107422,6.322131156921387
-14.647068977355957,15.066384315490723,5.630329132080078
-15.149791717529297,14.379777908325195,5.596828937530518
-16.57535171508789,14.512685775756836,5.903162479400635
-14.855244636535645,11.987428665161133,5.114789009094238
-14.913225173950195,11.075357437133789,4.977424621582031
-15.567975997924805,10.618672370910645,5.049388885498047
-16.92700958251953,10.575141906738281,5.347971439361572
-10.877473831176758,6.20259428024292,3.3551652431488037
-11.063905715942383,5.732668876647949,3.3388829231262207
-8.431029319763184,3.9472854137420654,2.494422674179077
-17.84518814086914,7.496323108673096,5.186361312866211
-16.602136611938477,6.201937198638916,4.748793125152588
-18.398473739624023,6.042566299438477,5.188919544219971
-19.445043563842773,5.531503677368164,5.416983127593994
-20.899011611938477,5.047166347503662,5.760851860046387
-21.179824829101562,4.222489356994629,5.786802291870117
-21.07403564453125,3.3274729251861572,5.716729164123535
-20.943870544433594,2.449380397796631,5.650140762329102
