-12.071454048156738,33.47172546386719,7.965935230255127
-21.687814712524414,53.32014846801758,12.886758804321289
-21.55440330505371,47.43691635131836,11.66486930847168
-14.247922897338867,28.28165054321289,7.089667797088623
-14.773920059204102,26.608362197875977,6.813596725463867
-15.24664306640625,25.03412437438965,6.562142372131348
-15.671915054321289,23.547889709472656,6.332601070404053
-32.087703704833984,44.25041961669922,12.23705005645752
-20.999340057373047,26.6379337310791,7.593812465667725
-20.927989959716797,24.458703994750977,7.206598281860352
-20.859786987304688,22.483905792236328,6.866293907165527
-20.714109420776367,20.601367950439453,6.540432929992676
-20.65076446533203,18.950424194335938,6.274805068969727
-20.859975814819336,17.652498245239258,6.117788314819336
-22.85791015625,17.818071365356445,6.488411903381348
-25.099760055541992,17.992656707763672,6.9138593673706055
-27.63979148864746,18.178369522094727,7.406233787536621
-30.549654006958008,18.37800407409668,7.981514930725098
-33.100486755371094,18.14302635192871,8.450556755065918
-33.23262023925781,16.515430450439453,8.308067321777344
-30.39060401916504,13.609308242797852,7.454767227172852
-30.30362892150879,12.133625030517578,7.307869911193848
-30.21617317199707,10.711373329162598,7.177131652832031
-30.624155044555664,9.489584922790527,7.177618503570557
-9.774190902709961,1.7780381441116333,2.224113702774048
-9.743718147277832,1.3707407712936401,2.2028603553771973
-15.283857345581055,0.9089145064353943,3.4277236461639404
-20.668140411376953,0.39723387360572815,4.627947807312012
-31.579381942749023,-0.6621374487876892,7.071408271789551
-16.105009078979492,-24.29058265686035,6.524749755859375
-15.015130996704102,-24.75124740600586,6.481104850769043
-17.641332626342773,-31.903907775878906,8.161720275878906
-15.749116897583008,-31.397859573364258,7.863933563232422
-14.572202682495117,-32.219879150390625,7.91668176651001
-14.696231842041016,-36.31275939941406,8.770086288452148
-13.514906883239746,-37.68032455444336,8.96190357208252
-12.610525131225586,-40.168357849121094,9.425460815429688
-11.542786598205566,-42.69930648803711,9.902459144592285
-12.81761360168457,-56.30425262451172,12.927645683288574
-9.754583358764648,-52.515846252441406,11.958109855651855
-7.58336067199707,-52.493186950683594,11.873939514160156
-5.0228071212768555,-48.45533752441406,10.906096458435059
-2.8066537380218506,-44.4148063659668,9.963223457336426
-1.0024136304855347,-43.71574783325195,9.789461135864258
0.7075045704841614,-40.996803283691406,9.179551124572754
2.246565341949463,-39.07035827636719,8.761345863342285
3.602816581726074,-36.78981399536133,8.275741577148438
4.811701774597168,-34.69651794433594,7.842039108276367
5.893914699554443,-32.76472473144531,7.4529571533203125
6.866513252258301,-30.97319221496582,7.102494239807129
6.960541725158691,-26.34065818786621,6.099447250366211
7.362096309661865,-23.92436408996582,5.60393762588501
8.31987190246582,-23.616851806640625,5.6057281494140625
9.77500057220459,-24.55245018005371,5.916306018829346
10.363003730773926,-23.263532638549805,5.701512336730957
10.899677276611328,-22.04088020324707,5.504806995391846
10.744914054870605,-19.694808959960938,5.022696018218994
10.804594993591309,-18.040424346923828,4.707758903503418
11.241570472717285,-17.1657772064209,4.593743324279785
12.802572250366211,-17.933746337890625,4.933011054992676
13.153127670288086,-16.941898345947266,4.801758766174316
13.474658966064453,-15.986457824707031,4.680724620819092
12.517107963562012,-13.694011688232422,4.15350341796875
13.484477996826172,-13.611555099487305,4.289459228515625
14.122106552124023,-13.153648376464844,4.320583343505859
14.345802307128906,-12.323758125305176,4.234013557434082
14.550006866455078,-11.516481399536133,4.154277801513672
14.735989570617676,-10.729823112487793,4.080920696258545
14.992576599121094,-10.020562171936035,4.037148952484131
15.233699798583984,-9.318875312805176,3.9979653358459473
15.372915267944336,-8.575100898742676,3.940840482711792
15.497547149658203,-7.845627784729004,3.8887901306152344
15.608305931091309,-7.129086017608643,3.8415579795837402
15.705806732177734,-6.424226760864258,3.798919916152954
15.790608406066895,-5.729854583740234,3.7606732845306396
15.863181114196777,-5.0448408126831055,3.7266435623168945
15.92394733428955,-4.368114471435547,3.6966755390167236
15.973254203796387,-3.6986730098724365,3.6706395149230957
16.011411666870117,-3.0355381965637207,3.648416519165039
16.03866958618164,-2.3777668476104736,3.6299097537994385
16.055217742919922,-1.7244702577590942,3.615044116973877
15.87564754486084,-1.062342643737793,3.5621180534362793
15.871247291564941,-0.42283403873443604,3.554445266723633
15.856583595275879,0.21481849253177643,3.5502266883850098
15.831672668457031,0.8514244556427002,3.5494441986083984
15.79648208618164,1.4878214597702026,3.5520987510681152
14.780739784240723,1.9939417839050293,3.339020252227783
14.465169906616211,2.5467307567596436,3.2882044315338135
15.811064720153809,3.4437339305877686,3.6226906776428223
15.732760429382324,4.0950493812561035,3.6395304203033447
15.643265724182129,4.750380992889404,3.6600441932678223
15.54227066040039,5.410612106323242,3.684338092803955
15.42941951751709,6.0766987800598145,3.712498903274536
15.304311752319336,6.749584674835205,3.744659423828125
15.16645336151123,7.430271625518799,3.7809677124023438
15.015315055847168,8.119812965393066,3.8215830326080322
14.850278854370117,8.819334030151367,3.8666982650756836
14.670660018920898,9.530011177062988,3.9165234565734863
14.475667953491211,10.25308609008789,3.9713056087493896
10.84183406829834,8.352974891662598,3.0640528202056885
14.035988807678223,11.741862297058105,4.096865653991699
13.789234161376953,12.51057243347168,4.168282508850098
13.522939682006836,13.29768180847168,4.245960712432861
13.235727310180664,14.104997634887695,4.330336093902588
12.926070213317871,14.934525489807129,4.4218878746032715
12.592226028442383,15.788437843322754,4.5211710929870605
12.232240676879883,16.66912078857422,4.628800868988037
11.843940734863281,17.57921600341797,4.745465278625488
11.424832344055176,18.52169418334961,4.871956825256348
10.97210693359375,19.49980926513672,5.009163856506348
10.482595443725586,20.517230987548828,5.15809440612793
9.947443962097168,21.5667724609375,5.317114353179932
9.373235702514648,22.675132751464844,5.493030548095703
8.749725341796875,23.83685302734375,5.684648036956787
7.6096343994140625,23.62433624267578,5.556517601013184
6.551927089691162,23.542465209960938,5.470887660980225
5.668067932128906,24.071857452392578,5.536482334136963
5.641851902008057,29.16741180419922,6.650907039642334
4.669093608856201,30.708742141723633,6.953951358795166
3.5531530380249023,31.963716506958008,7.199971675872803
2.411201238632202,34.132301330566406,7.660431861877441
1.0940073728561401,36.04237747192383,8.072725296020508
-0.37496843934059143,38.11468505859375,8.533358573913574
-2.0212714672088623,40.37580871582031,9.050477981567383
-3.8764097690582275,42.85847473144531,9.634130477905273
-5.9798479080200195,45.60346984863281,10.296903610229492
-8.280570983886719,48.076271057128906,10.921586990356445
-10.051802635192871,46.98788833618164,10.757447242736816
-13.65583610534668,53.274200439453125,12.312374114990234
-16.582637786865234,55.34519958496094,12.934637069702148
-11.502720832824707,33.441219329833984,7.917186737060547
-22.756710052490234,58.41660690307617,14.035354614257812
-21.60139274597168,49.47637176513672,12.086236953735352
-21.92214584350586,45.1702880859375,11.240550994873047
-14.586260795593262,27.213977813720703,6.912501335144043
-15.077920913696289,25.604555130004883,6.652297019958496
-15.520092010498047,24.087017059326172,6.414953708648682
-31.163158416748047,44.345088958740234,12.134033203125
-31.751840591430664,41.53032302856445,11.7036771774292
-20.953927993774414,25.23749542236328,7.3436598777771
-20.884641647338867,23.191425323486328,6.986964702606201
-20.818111419677734,21.32842445373535,6.672451496124268
-20.673938751220703,19.54452896118164,6.369256973266602
-20.175249099731445,17.59329605102539,5.992870330810547
-22.094297409057617,17.7559871673584,6.345734596252441
-24.240516662597656,17.92702293395996,6.749698638916016
-26.663164138793945,18.108346939086914,7.215735912322998
-29.426807403564453,18.302467346191406,7.758245468139648
-32.567466735839844,18.48436164855957,8.38356876373291
-33.186866760253906,17.111236572265625,8.359173774719238
-29.91742706298828,13.933874130249023,7.388596057891846
-30.33578872680664,12.671852111816406,7.360152721405029
-30.248531341552734,11.230692863464355,7.223598957061768
-30.16065788269043,9.838650703430176,7.102416515350342
-34.16135025024414,9.643853187561035,7.946800231933594
-9.755032539367676,1.5202351808547974,2.2102744579315186
-10.09453010559082,1.160036325454712,2.274792194366455
-15.222271919250488,1.1320866346359253,3.4173028469085693
-20.7906494140625,0.7082406282424927,4.657218933105469
-31.620040893554688,-0.19383099675178528,7.0790886878967285
-7.092398643493652,-0.32869139313697815,1.5895193815231323
-16.849365234375,-24.612462997436523,6.67763090133667
-15.11290454864502,-24.098812103271484,6.368276596069336
-18.37533187866211,-32.09742736816406,8.280062675476074
-16.432222366333008,-31.581785202026367,7.9701828956604
-14.621026992797852,-31.09090232849121,7.691742897033691
-13.937156677246094,-33.01993179321289,8.023870468139648
-13.4954833984375,-35.939327239990234,8.594500541687012
-13.167158126831055,-39.86205291748047,9.398397445678711
-11.41600513458252,-39.87261199951172,9.285170555114746
-12.4592924118042,-51.20799255371094,11.798672676086426
-10.582674026489258,-52.61421585083008,12.014942169189453
-8.398662567138672,-52.609161376953125,11.92704963684082
-5.758230209350586,-48.52004623413086,10.93868350982666
-3.7758820056915283,-48.345706939697266,10.856389045715332
-1.6922686100006104,-44.79313659667969,10.035245895385742
0.10157862305641174,-41.968719482421875,9.39579963684082
1.7036501169204712,-39.96577072143555,8.955486297607422
3.12050461769104,-37.60843276977539,8.448540687561035
4.3811564445495605,-35.44926452636719,7.996605396270752
5.507955074310303,-33.460567474365234,7.5918169021606445
6.519250392913818,-31.619476318359375,7.227721214294434
7.430750846862793,-29.909656524658203,6.899594783782959
7.773849010467529,-26.66337776184082,6.21781587600708
7.937551498413086,-23.645206451416016,5.583893775939941
9.543745040893555,-25.046606063842773,6.000600337982178
10.152178764343262,-23.73133659362793,5.778606414794922
10.70715618133545,-22.48504638671875,5.575450420379639
10.915548324584961,-20.733383178710938,5.245678901672363
10.657501220703125,-18.408987045288086,4.762150287628174
11.195919036865234,-17.6623592376709,4.681665420532227
12.665278434753418,-18.309898376464844,4.984241962432861
13.027215003967285,-17.30368423461914,4.848982810974121
13.359161376953125,-16.335208892822266,4.724281311035156
12.299067497253418,-13.862977981567383,4.148947715759277
13.120002746582031,-13.642609596252441,4.2374348640441895
14.034321784973145,-13.466185569763184,4.354367256164551
14.265557289123535,-12.627413749694824,4.265153884887695
14.476797103881836,-11.812029838562012,4.182951927185059
14.669370651245117,-11.017979621887207,4.107288837432861
14.844454765319824,-10.243377685546875,4.037744522094727
15.178464889526367,-9.597371101379395,4.020393371582031
15.323260307312012,-8.847959518432617,3.9613237380981445
15.453185081481934,-8.113369941711426,3.9074325561523438
15.568987846374512,-7.3922014236450195,3.858449935913086
15.67131233215332,-6.68319034576416,3.8141417503356934
15.760746002197266,-5.985082626342773,3.774294853210449
15.837782859802246,-5.2967400550842285,3.738726854324341
15.902863502502441,-4.617079257965088,3.7072763442993164
15.956363677978516,-3.9450597763061523,3.6798033714294434
15.99860954284668,-3.2797069549560547,3.656182289123535
16.02985954284668,-2.6200668811798096,3.6363158226013184
16.05034637451172,-1.9652159214019775,3.620112419128418
16.06022071838379,-1.3142826557159424,3.6075096130371094
15.87407112121582,-0.6586915254592896,3.5568737983703613
15.842061996459961,0.6164498925209045,3.5493335723876953
15.810672760009766,1.2528307437896729,3.5507185459136963
15.768973350524902,1.889514446258545,3.5555427074432373
14.390277862548828,2.3140013217926025,3.2630186080932617
15.837203025817871,3.2041070461273193,3.6173880100250244
15.762957572937012,3.854159116744995,3.6328840255737305
15.677626609802246,4.507904052734375,3.652040719985962
15.580913543701172,5.166227340698242,3.6749215126037598
15.472491264343262,5.830029010772705,3.7016451358795166
15.351959228515625,6.500293254852295,3.732311487197876
15.218868255615234,7.177978515625,3.7670745849609375
15.072696685791016,7.864134788513184,3.80607533454895
14.912871360778809,8.559822082519531,3.8495047092437744
14.738726615905762,9.2662353515625,3.8975632190704346
14.549503326416016,9.984580993652344,3.950485944747925
11.22436237335205,8.385300636291504,3.1366539001464844
10.618881225585938,8.618742942810059,3.0618083477020264
13.882548332214355,12.224699020385742,4.141205787658691
13.623617172241211,13.004810333251953,4.216526031494141
13.344303131103516,13.804443359375,4.298373222351074
13.04311752319336,14.62552547454834,4.387217998504639
12.718417167663574,15.470170021057129,4.483579158782959
12.368330001831055,16.340675354003906,4.588048458099365
11.99075984954834,17.23959732055664,4.701290130615234
11.583328247070312,18.169755935668945,4.824056148529053
11.143362998962402,19.134305953979492,4.95719575881958
10.667831420898438,20.136762619018555,5.101673126220703
10.147953987121582,21.169960021972656,5.255825996398926
9.59070873260498,22.26000213623047,5.426337718963623
8.985998153686523,23.401363372802734,5.611968994140625
4.034276008605957,11.915816307067871,2.816404342651367
7.0361433029174805,23.90361785888672,5.578456401824951
5.929294586181641,23.60590934753418,5.448947906494141
5.978348255157471,28.62285614013672,6.546240329742432
5.039137363433838,30.12788963317871,6.838593006134033
3.956496238708496,31.349472045898438,7.0740532875061035
2.863466739654541,33.46357727050781,7.519053936004639
1.5968167781829834,35.31950378417969,7.915252208709717
0.1865738332271576,37.3290901184082,8.357178688049316
-1.3909368515014648,39.5170783996582,8.852383613586426
5.141826152801514,28.873245239257812,6.822154998779297
4.157199859619141,30.36696434020996,7.129842758178711
3.073617696762085,31.961408615112305,7.469155788421631
1.8772178888320923,33.6734504699707,7.8452677726745605
0.5507674813270569,35.511566162109375,8.26168441772461
-0.9254528880119324,37.50016403198242,8.725935935974121
-2.5759739875793457,39.663169860839844,9.245871543884277
-4.4309844970703125,42.02981948852539,9.831145286560059
-6.52799129486084,44.636409759521484,10.493759155273438
-8.806795120239258,46.95597457885742,11.1133394241333
-11.410719871520996,49.72254180908203,11.867096900939941
-13.978025436401367,51.35154724121094,12.380009651184082
-16.71477508544922,52.91783905029297,12.909181594848633
-12.093910217285156,33.53398895263672,8.292469024658203
-21.515625,52.896820068359375,13.28377914428711
-21.399383544921875,47.09572982788086,12.033300399780273
-13.900251388549805,27.591535568237305,7.186820030212402
-14.427122116088867,25.9837646484375,6.913534641265869
-14.901656150817871,24.46767807006836,6.664165496826172
-15.329437255859375,23.03329849243164,6.436149597167969
-15.715253829956055,21.672056198120117,6.227292060852051
-20.900774002075195,26.51289939880371,7.85337495803833
-20.83474349975586,24.34972381591797,7.454710483551025
-20.771215438842773,22.388446807861328,7.104183197021484
-20.709692001342773,20.596988677978516,6.794436454772949
-20.570295333862305,18.87657928466797,6.494479656219482
-20.5504093170166,17.390527725219727,6.262401103973389
-22.498445510864258,17.53787612915039,6.635814189910889
-24.679615020751953,17.69147300720215,7.063648700714111
-27.144756317138672,17.852794647216797,7.557676315307617
-29.960819244384766,18.023780822753906,8.133405685424805
-32.58296203613281,17.859357833862305,8.643338203430176
-32.67362594604492,16.237632751464844,8.487360000610352
-30.297107696533203,13.5674409866333,7.722104072570801
-30.21223258972168,12.09703254699707,7.570398330688477
-30.126665115356445,10.679642677307129,7.435362815856934
-29.541610717773438,9.154117584228516,7.19433069229126
-35.06501007080078,9.339603424072266,8.441192626953125
-9.746777534484863,1.773051142692566,2.304502010345459
-9.71665096282959,1.3669326305389404,2.282541275024414
-15.246994972229004,0.9067206978797913,3.5530147552490234
-20.614931106567383,0.3962109386920929,4.796325206756592
-31.493635177612305,-0.6603395342826843,7.327651023864746
-65.87310791015625,-60.66166305541992,20.830968856811523
-17.798349380493164,-24.635194778442383,7.069779872894287
-15.909565925598145,-23.995805740356445,6.6973185539245605
-15.170156478881836,-25.006793975830078,6.803772449493408
-17.472543716430664,-31.598684310913086,8.399364471435547
-15.603888511657715,-31.10833168029785,8.095733642578125
-14.497804641723633,-32.055335998535156,8.183890342712402
-14.554253578186035,-35.96197509765625,9.0245943069458
-13.436051368713379,-37.460514068603516,9.257612228393555
-12.493986129760742,-39.797088623046875,9.703088760375977
-11.463730812072754,-42.40689468383789,10.218764305114746
-11.677287101745605,-51.2950553894043,12.237527847290039
-9.753988265991211,-52.512611389160156,12.424407005310059
-7.026454448699951,-48.63812255859375,11.43164348602295
-5.017304420471191,-48.40235900878906,11.319673538208008
-2.575864315032959,-40.762603759765625,9.501097679138184
-0.9608035087585449,-41.90127944946289,9.749626159667969
0.6798983812332153,-39.3970832824707,9.165902137756348
2.163881540298462,-37.63235855102539,8.768488883972168
3.477309226989746,-35.5081901550293,8.299418449401855
4.652563571929932,-33.549068450927734,7.878862380981445
5.708358287811279,-31.733240127563477,7.5002593994140625
6.660613059997559,-30.044435501098633,7.158614158630371
7.068180561065674,-26.74798011779785,6.43568229675293
7.306637763977051,-23.744150161743164,5.778956413269043
8.300857543945312,-23.562896728515625,5.811372756958008
9.525708198547363,-23.926284790039062,5.990607738494873
10.108078956604004,-22.69125747680664,5.778465270996094
10.640573501586914,-21.516942977905273,5.583846092224121
10.8433837890625,-19.875295639038086,5.266698360443115
10.563549995422363,-17.63794708251953,4.782504081726074
11.11109733581543,-16.966543197631836,4.717768669128418
12.532831192016602,-17.5559024810791,5.017694473266602
12.883220672607422,-16.594247817993164,4.886931896209717
11.886242866516113,-14.101957321166992,4.2902302742004395
12.519156455993652,-13.696255683898926,4.316439628601074
13.4867582321167,-13.61385726928711,4.457749366760254
13.857827186584473,-12.907490730285645,4.4053215980529785
14.082615852355957,-12.097667694091797,4.318674564361572
14.28801155090332,-11.30910873413086,4.238808631896973
14.475250244140625,-10.539966583251953,4.165282726287842
14.81662654876709,-9.902959823608398,4.145599842071533
14.97253704071045,-9.159112930297852,4.082898139953613
15.113064765930176,-8.430156707763672,4.025547504425049
15.238991737365723,-7.714735984802246,3.9732658863067627
15.351009368896484,-7.01156759262085,3.925804376602173
15.449731826782227,-6.319485187530518,3.882941484451294
15.535703659057617,-5.637358665466309,3.844477891921997
15.609387397766113,-4.964127063751221,3.810245990753174
15.671192169189453,-4.2987799644470215,3.7800943851470947
15.721477508544922,-3.6403725147247314,3.7538881301879883
15.760540008544922,-2.987976312637329,3.7315168380737305
15.788619041442871,-2.340696334838867,3.712885856628418
15.805922508239746,-1.69769287109375,3.6979150772094727
15.62989330291748,-1.045897364616394,3.6439547538757324
15.626086235046387,-0.4163022041320801,3.6362252235412598
15.611931800842285,0.2115037739276886,3.63197660446167
15.587456703186035,0.8382903933525085,3.6311895847320557
15.552635192871094,1.4648535251617432,3.6338613033294678
14.561460494995117,1.9643609523773193,3.4179649353027344
14.149103164672852,2.491084337234497,3.341982841491699
15.56505012512207,3.3901500701904297,3.705610513687134
15.486839294433594,4.031034469604492,3.7225728034973145
15.397382736206055,4.675711631774902,3.7432305812835693
15.296377182006836,5.325018882751465,3.767674207687378
15.183485984802246,5.9798383712768555,3.7960188388824463
15.05828857421875,6.641076564788818,3.8283767700195312
14.920328140258789,7.309683322906494,3.864891290664673
14.769068717956543,7.98664665222168,3.9057226181030273
14.603906631469727,8.673015594482422,3.9510674476623535
14.424180030822754,9.369895935058594,4.001131534576416
14.229122161865234,10.078453063964844,4.056143283843994
10.839245796203613,8.350979804992676,3.1829676628112793
13.789505004882812,11.535665512084961,4.18212890625
13.542945861816406,12.28711986541748,4.253726482391357
13.276985168457031,13.055819511413574,4.331556797027588
12.99030590057373,13.843454360961914,4.4160356521606445
12.681416511535645,14.651854515075684,4.507635116577148
12.348631858825684,15.483023643493652,4.606886863708496
11.990094184875488,16.339143753051758,4.714385032653809
11.603693962097168,17.222631454467773,4.8307952880859375
11.187043190002441,18.136186599731445,4.956878185272217
10.737447738647461,19.08275604248047,5.093491554260254
10.251879692077637,20.0656681060791,5.241598129272461
9.721799850463867,21.077547073364258,5.399464130401611
9.153746604919434,22.144147872924805,5.573921203613281
8.537856101989746,23.259668350219727,5.763654708862305
7.627087593078613,23.67850685119629,5.7867841720581055
6.55023193359375,23.536380767822266,5.68310022354126
5.668313980102539,24.07289695739746,5.752973556518555
5.4827470779418945,28.344823837280273,6.715780735015869
4.531597137451172,29.804397583007812,7.012770652770996
3.486055850982666,31.36016082763672,7.3399248123168945
2.332995653152466,33.02515411376953,7.701444625854492
1.0567981004714966,34.81651306152344,8.10273551940918
-0.3615242838859558,36.747013092041016,8.548495292663574
-1.9445098638534546,38.842529296875,9.046854019165039
-3.720104217529297,41.13019943237305,9.606751441955566
-5.722829341888428,43.643428802490234,10.239230155944824
-7.899533271789551,45.8640022277832,10.825963973999023
-6.7444586753845215,31.527523040771484,7.4998555183410645
-13.047018051147461,50.89912414550781,12.222916603088379
-15.693098068237305,52.376312255859375,12.718887329101562
-11.464709281921387,33.330718994140625,8.199231147766113
-21.503480911254883,55.199520111083984,13.780400276184082
-21.440462112426758,49.1077880859375,12.464744567871094
-13.691222190856934,28.210569381713867,7.294347763061523
-14.239017486572266,26.566116333007812,7.011498928070068
-14.732172012329102,25.01742935180664,6.753622055053711
-15.176618576049805,23.55394744873047,6.517995357513428
-15.577421188354492,22.16661834716797,6.3022990226745605
-31.599748611450195,41.33140182495117,12.102550506591797
-20.858800888061523,25.1229248046875,7.595846652984619
-20.79441261291504,23.091232299804688,7.2284955978393555
-20.732200622558594,21.240402221679688,6.904451847076416
-20.671728134155273,19.542449951171875,6.617316722869873
-20.533302307128906,17.905536651611328,6.337449073791504
-21.75437355041504,17.482812881469727,6.492142677307129
-23.844226837158203,17.633947372436523,6.898674011230469
-26.197702407836914,17.792224884033203,7.366683006286621
-28.87518310546875,17.959381103515625,7.910153388977051
-31.934492111206055,18.125110626220703,8.541709899902344
-32.673519134521484,16.84654426574707,8.551315307617188
-30.302967071533203,14.113438606262207,7.776113033294678
-30.243640899658203,12.633360862731934,7.624396324157715
-30.158348083496094,11.197208404541016,7.483360767364502
-30.07223892211914,9.809810638427734,7.358189105987549
-32.81856918334961,9.264780044555664,7.932621955871582
-9.727843284606934,1.5159975290298462,2.290201425552368
-10.08810806274414,1.1592984199523926,2.3621373176574707
-15.176679611206055,1.1286983489990234,3.5401411056518555
-20.729013442993164,0.7061400413513184,4.824775218963623
-31.534088134765625,-0.19330401718616486,7.335590362548828
-7.073166847229004,-0.3278004229068756,1.647124171257019
-18.462831497192383,-24.772245407104492,7.1869330406188965
-16.544754028320312,-24.16750144958496,6.813007831573486
-15.454426765441895,-24.643396377563477,6.76654052734375
-18.037132263183594,-31.506681442260742,8.445117950439453
-16.27866554260254,-31.286663055419922,8.204092025756836
-14.489136695861816,-30.81043243408203,7.920070171356201
-14.07712173461914,-33.351524353027344,8.420991897583008
-13.361552238464355,-35.5826301574707,8.84155559539795
-13.08662223815918,-39.61821365356445,9.705745697021484
-11.340278625488281,-39.608154296875,9.583843231201172
-12.461027145385742,-51.215023040771484,12.26119327545166
-10.583160400390625,-52.61670684814453,12.484810829162598
-7.775262832641602,-48.704132080078125,11.473005294799805
-5.759004592895508,-48.5264892578125,11.367437362670898
-3.271674871444702,-41.889896392822266,9.774089813232422
-1.6203354597091675,-42.889259338378906,9.984004974365234
0.09752684831619263,-40.29402542114258,9.373211860656738
1.639610767364502,-38.46346664428711,8.955485343933105
3.0096068382263184,-36.27191925048828,8.46655559539795
4.2335004806518555,-34.25458526611328,8.02892017364502
5.331430912017822,-32.38817596435547,7.635519027709961
6.320018768310547,-30.6531982421875,7.280519962310791
7.213572025299072,-29.03550148010254,6.9595513343811035
7.035799980163574,-24.13195037841797,5.847290515899658
7.9145708084106445,-23.576740264892578,5.785187721252441
9.296977043151855,-24.398975372314453,6.073751926422119
9.899138450622559,-23.139842987060547,5.8546552658081055
10.449444770812988,-21.943849563598633,5.653778076171875
10.953071594238281,-20.80465316772461,5.469302177429199
10.57532787322998,-18.267040252685547,4.909996509552002
11.063520431518555,-17.4534854888916,4.80699348449707
11.18674373626709,-16.17241096496582,4.574336528778076
12.757318496704102,-16.9451847076416,4.9339919090271
13.089366912841797,-16.005306243896484,4.809664726257324
12.177021026611328,-13.72541618347168,4.268221378326416
13.122193336486816,-13.644889831542969,4.403676509857178
13.769668579101562,-13.21224308013916,4.439119815826416
14.001946449279785,-12.394079208374023,4.349852561950684
14.21435260772705,-11.597896575927734,4.26753568649292
14.408160209655762,-10.82178783416748,4.191717147827148
14.584527015686035,-10.06401538848877,4.121984958648682
14.916808128356934,-9.431927680969238,4.105409622192383
15.062922477722168,-8.697638511657715,4.046116828918457
15.1941556930542,-7.97736930847168,3.9919934272766113
15.311238288879395,-7.269818305969238,3.9427781105041504
15.414796829223633,-6.573797702789307,3.898242950439453
15.505417823791504,-5.888122081756592,3.8581769466400146
15.583582878112793,-5.211727142333984,3.8224034309387207
15.64973258972168,-4.543587684631348,3.7907602787017822
15.704235076904297,-3.882721424102783,3.7631115913391113
15.747406005859375,-3.228210687637329,3.7393369674682617
15.779520034790039,-2.5791473388671875,3.7193338871002197
15.800777435302734,-1.9346599578857422,3.7030208110809326
15.811360359191895,-1.293916940689087,3.690326690673828
15.62869644165039,-0.6485103368759155,3.6386730670928955
15.597699165344238,0.6069409847259521,3.6310770511627197
15.566697120666504,1.2334997653961182,3.6324729919433594
15.525321960449219,1.8603185415267944,3.637329339981079
14.181581497192383,2.280442476272583,3.341295003890991
15.591134071350098,3.154322862625122,3.700270891189575
15.517011642456055,3.794020414352417,3.7158846855163574
15.43173885345459,4.4372053146362305,3.735161542892456
15.335034370422363,5.084693908691406,3.7582058906555176
15.226581573486328,5.737377643585205,3.7850944995880127
15.105969429016113,6.396131992340088,3.81595516204834
14.972784042358398,7.061903953552246,3.8509161472320557
14.826496124267578,7.73567008972168,3.8901376724243164
14.666549682617188,8.418431282043457,3.9337871074676514
14.492283821105957,9.111306190490723,3.98207950592041
14.302985191345215,9.81540584564209,4.035236358642578
11.221616744995117,8.383251190185547,3.2583680152893066
10.665990829467773,8.65697956085205,3.1955113410949707
13.636167526245117,12.007741928100586,4.226588249206543
13.37751579284668,12.769886016845703,4.302071571350098
13.098651885986328,13.550323486328125,4.384043216705322
12.798151016235352,14.350833892822266,4.472952842712402
12.474403381347656,15.173351287841797,4.569311141967773
12.125605583190918,16.019990921020508,4.67369270324707
11.74974536895752,16.893083572387695,4.786732196807861
11.34455680847168,17.795223236083984,4.909151077270508
10.907454490661621,18.729223251342773,5.041772365570068
10.435554504394531,19.698301315307617,5.185512542724609
9.92555046081543,20.70601463317871,5.341424942016602
9.36878776550293,21.744932174682617,5.507813453674316
8.771124839782715,22.8417911529541,5.691727161407471
8.12246322631836,23.990877151489258,5.891924858093262
7.097012996673584,24.110416412353516,5.846487045288086
5.9270172119140625,23.59683609008789,5.659598350524902
5.812323093414307,27.827993392944336,6.613030433654785
4.893126964569092,29.254940032958984,6.89980936050415
3.8838448524475098,30.77379608154297,7.2153754234313965
2.7721757888793945,32.396751403808594,7.563666343688965
1.5435287952423096,34.140865325927734,7.949952125549316
0.18001382052898407,36.01629638671875,8.378207206726074
-1.3392270803451538,38.04801559448242,8.856200218200684
4.998076438903809,28.06608009338379,6.881679534912109
4.0358967781066895,29.480863571166992,7.182990550994873
2.9797983169555664,30.985759735107422,7.514397144317627
1.816959023475647,32.59266662597656,7.880012035369873
0.5322318077087402,34.31689453125,8.285013198852539
-0.892624020576477,36.170196533203125,8.734060287475586
-2.479372501373291,38.175811767578125,9.234964370727539
-4.254729270935059,40.35791778564453,9.796297073364258
-6.25154972076416,42.746192932128906,10.428600311279297
-8.51073169708252,45.37739944458008,11.144997596740723
-10.318093299865723,44.961326599121094,11.135692596435547
-13.369729995727539,49.1168327331543,12.288090705871582
-15.96160888671875,50.533409118652344,12.792696952819824
-12.116524696350098,33.59672164916992,8.621482849121094
-21.34549903869629,52.47861099243164,13.676056861877441
-12.983184814453125,28.57337760925293,7.576199531555176
-13.56789493560791,26.931819915771484,7.279693126678467
-14.094982147216797,25.38557243347168,7.009249210357666
-14.57069206237793,23.924243927001953,6.7620415687561035
-15.000370979309082,22.538864135742188,6.535645008087158
-15.38862419128418,21.221609115600586,6.327965259552002
-20.802749633789062,26.38856315612793,8.111501693725586
-20.74197006225586,24.241302490234375,7.701568126678467
-20.683053970336914,22.293413162231445,7.340970516204834
-20.625608444213867,20.513362884521484,7.02219820022583
-20.56930160522461,18.87567901611328,6.739222049713135
-20.248741149902344,17.13524627685547,6.403317928314209
-22.148799896240234,17.265321731567383,6.779199123382568
-24.271753311157227,17.39909553527832,7.209057331085205
-26.66533088684082,17.537485122680664,7.704348564147949
-29.392127990722656,17.681659698486328,8.28011417388916
-32.07946014404297,17.5833797454834,8.830890655517578
-29.7829647064209,14.80105972290039,8.028413772583008
-30.203824996948242,13.525662422180176,7.988827228546143
-30.12103271484375,12.060514450073242,7.832355499267578
-30.03734016418457,10.647981643676758,7.693061828613281
-29.95256233215332,9.281460762023926,7.569665431976318
-33.652000427246094,8.96324634552002,8.406731605529785
-9.719412803649902,1.7680732011795044,2.384748935699463
-9.689630508422852,1.363131046295166,2.362086772918701
-15.210165023803711,0.9045318365097046,3.6781814098358154
-20.561790466308594,0.3951910734176636,4.964484214782715
-31.40802574157715,-0.6585445404052734,7.583491802215576
-65.76331329345703,-60.56056594848633,21.581003189086914
-19.474170684814453,-24.79224967956543,7.610342502593994
-17.456649780273438,-24.16222381591797,7.195707321166992
-15.718079566955566,-23.70699691772461,6.866394519805908
-15.286470413208008,-25.19852066040039,7.114647388458252
-17.30634307861328,-31.298097610473633,8.633402824401855
-15.460768699645996,-30.82301139831543,8.32417106628418
-14.427846908569336,-31.900680541992188,8.451732635498047
-14.41447925567627,-35.61659240722656,9.275198936462402
-13.357820510864258,-37.24235916137695,9.551008224487305
-12.379129409790039,-39.43124008178711,9.976668357849121
-11.385453224182129,-42.11732864379883,10.531960487365723
-11.644182205200195,-51.1496696472168,12.663317680358887
-9.069001197814941,-48.824771881103516,11.987787246704102
-7.027392387390137,-48.64464569091797,11.864611625671387
-4.788817882537842,-46.19803237915039,11.211856842041016
-2.4889211654663086,-39.38660430908203,9.526799201965332
-0.9223839044570923,-40.225242614746094,9.712834358215332
0.6542657613754272,-37.911991119384766,9.153230667114258
2.0867795944213867,-36.291473388671875,8.77514934539795
3.3598127365112305,-34.30839920043945,8.321584701538086
4.503067493438721,-32.4710578918457,7.913454532623291
5.5334858894348145,-30.761070251464844,7.544836044311523
6.4654860496521,-29.164281845092773,7.211121559143066
7.310528755187988,-27.66509246826172,6.907521724700928
7.299872398376465,-23.722145080566406,5.9914703369140625
8.337265968322754,-23.666229248046875,6.057112216949463
9.287918090820312,-23.329017639160156,6.061481475830078
9.86447525024414,-22.144393920898438,5.8520002365112305
10.392568588256836,-21.01544189453125,5.6595001220703125
10.876895904541016,-19.936731338500977,5.482333660125732
10.522096633911133,-17.568727493286133,4.94349479675293
10.704923629760742,-16.34632682800293,4.716826438903809
11.104676246643066,-15.555350303649902,4.613683700561523
12.623187065124512,-16.259315490722656,4.96898078918457
11.652149200439453,-13.82421875,4.364437103271484
12.521217346191406,-13.698508262634277,4.480057239532471
13.356011390686035,-13.48188591003418,4.581119060516357
13.602293014526367,-12.669475555419922,4.487256050109863
13.827945709228516,-11.878893852233887,4.400596618652344
14.034318923950195,-11.10831069946289,4.320660591125488
14.222617149353027,-10.356016159057617,4.247021675109863
14.562153816223145,-9.732881546020508,4.228151321411133
14.71921443939209,-9.004150390625,4.165282249450684
14.860897064208984,-8.289494514465332,4.107748985290527
14.987971305847168,-7.587655544281006,4.055278778076172
15.101115226745605,-6.8974289894104,4.007625579833984
15.200936317443848,-6.217717170715332,3.964573383331299
15.28795337677002,-5.547459602355957,3.9259307384490967
15.36264705657959,-4.885660648345947,3.8915255069732666
15.425403594970703,-4.231357574462891,3.861213207244873
15.476587295532227,-3.5836663246154785,3.8348608016967773
15.516474723815918,-2.941706895828247,3.8123626708984375
15.545324325561523,-2.304628849029541,3.7936205863952637
15.56332778930664,-1.6716374158859253,3.7785587310791016
15.390732765197754,-1.029893398284912,3.723594903945923
15.38747787475586,-0.40994542837142944,3.7158193588256836
15.37381362915039,0.2082778364419937,3.7115445137023926
15.349761962890625,0.825506865978241,3.710752487182617
15.315300941467285,1.4425004720687866,3.713440179824829
14.347783088684082,1.9355340003967285,3.4948959350585938
13.845420837402344,2.4376204013824463,3.3936567306518555
15.32565689086914,3.3380110263824463,3.7863078117370605
15.247578620910645,3.968773365020752,3.8033607006073
15.158206939697266,4.603082656860352,3.824138879776001
15.0572509765625,5.241775035858154,3.848722457885742
14.944358825683594,5.885660648345947,3.8772192001342773
14.81914234161377,6.53561544418335,3.9097442626953125
14.681156158447266,7.192505836486816,3.9464402198791504
14.52985668182373,7.857283592224121,3.987464427947998
14.364667892456055,8.5309419631958,4.032994747161865
14.184941291809082,9.21449089050293,4.0832438468933105
13.98992919921875,9.909042358398438,4.138439655303955
10.836648941040039,8.348979949951172,3.3022854328155518
13.550634384155273,11.335831642150879,4.264758586883545
13.304388999938965,12.070687294006348,4.336488246917725
13.038907051086426,12.8217134475708,4.414411544799805
12.752917289733887,13.59047794342041,4.498929977416992
12.444948196411133,14.378644943237305,4.590510368347168
12.113407135009766,15.188080787658691,4.689658164978027
11.756473541259766,16.02077865600586,4.7969560623168945
11.372127532958984,16.878931045532227,4.913043022155762
10.958077430725098,17.764997482299805,5.038649559020996
10.511750221252441,18.681655883789062,5.174598217010498
10.030269622802734,19.631908416748047,5.321807384490967
9.510327339172363,20.619077682495117,5.481333255767822
8.94350528717041,21.63555335998535,5.651403903961182
8.335246086120605,22.70769691467285,5.839209079742432
7.67570686340332,23.829452514648438,6.043430805206299
6.553855895996094,23.54941749572754,5.900821208953857
5.668560981750488,24.073936462402344,5.9703216552734375
5.331792831420898,27.56443977355957,6.777329444885254
4.401468753814697,28.948585510253906,7.068435192108154
3.381429433822632,30.418916702270508,7.388286590576172
2.2596306800842285,31.986665725708008,7.740748405456543
1.0219098329544067,33.666988372802734,8.130875587463379
-0.3489407002925873,35.46933364868164,8.562626838684082
-1.873100996017456,37.41615676879883,9.043481826782227
-3.5753581523895264,39.52996826171875,9.581393241882324
-5.486125946044922,41.838260650634766,10.186115264892578
-7.643060684204102,44.374942779541016,10.869738578796387
-9.631174087524414,45.021636962890625,11.114017486572266
-12.45154857635498,48.5760612487793,12.105240821838379
-14.983467102050781,50.00788116455078,12.601994514465332
-11.448698043823242,33.28419494628906,8.496753692626953
-19.957805633544922,51.23180389404297,13.272496223449707
-21.28130340576172,48.74324035644531,12.83908462524414
-13.359082221984863,27.526214599609375,7.385969161987305
-13.906667709350586,25.946062088012695,7.1062541007995605
-14.400675773620605,24.454517364501953,6.850772857666016
-14.846779823303223,23.042055130004883,6.616950988769531
-15.249838829040527,21.70046615600586,6.40258264541626
-15.614048957824707,20.422637939453125,6.20576286315918
-20.76416778564453,25.008947372436523,7.846715450286865
-20.70461654663086,22.99150848388672,7.468870162963867
-20.646669387817383,21.15277099609375,7.135434627532959
-20.589977264404297,19.465164184570312,6.839865684509277
-20.455223083496094,17.837451934814453,6.551586151123047
-21.42349624633789,17.21690559387207,6.634654998779297
-23.4592227935791,17.34922218322754,7.043402671813965
-25.746498107910156,17.48578643798828,7.51300048828125
-28.341859817504883,17.627666473388672,8.05703067779541
-31.323333740234375,17.778244018554688,8.694396018981934
-32.17390823364258,16.58894920349121,8.738309860229492
-30.23420524597168,14.081415176391602,8.051234245300293
-30.15169906616211,12.594952583312988,7.888049602508545
-30.068355560302734,11.163797378540039,7.742574691772461
-29.98400115966797,9.781023979187012,7.6134467124938965
-31.57273292541504,8.913079261779785,7.919465065002441
-9.700700759887695,1.5117682218551636,2.3699920177459717
-10.081668853759766,1.15855872631073,2.449709177017212
-15.131185531616211,1.1253142356872559,3.66271710395813
-20.66750717163086,0.7040448784828186,4.991981506347656
-31.44827651977539,-0.19277720153331757,7.5916829109191895
-7.053966045379639,-0.3269107937812805,1.7046383619308472
-18.1392879486084,-24.338146209716797,7.327438831329346
-16.34221839904785,-23.87166404724121,6.983548641204834
-15.388551712036133,-24.53835105895996,6.991946697235107
-14.705986022949219,-25.68794822692871,7.1452741622924805
-16.127384185791016,-30.995901107788086,8.434554100036621
-14.359095573425293,-30.53391456604004,8.145173072814941
-15.093558311462402,-35.75969314575195,9.369746208190918
-13.229743957519531,-35.23161315917969,9.08467960357666
-13.006754875183105,-39.37644958496094,10.010527610778809
-11.633159637451172,-40.631103515625,10.202347755432129
-12.462738037109375,-51.222076416015625,12.72562313079834
-9.836960792541504,-48.906768798828125,12.042423248291016
-7.776297569274902,-48.710689544677734,11.90754508972168
-5.616422653198242,-47.32516860961914,11.504354476928711
-3.2014708518981934,-40.99110412597656,9.925289154052734
-1.5540251731872559,-41.13414001464844,9.936769485473633
0.093773752450943,-38.742095947265625,9.352277755737305
1.5799838304519653,-37.0648078918457,8.955484390258789
2.905933141708374,-35.0224609375,8.48339557647705
4.094972133636475,-33.13364028930664,8.059236526489258
5.165239334106445,-31.37860679626465,7.676662921905518
6.132164001464844,-29.7420654296875,7.330679416656494
7.007958889007568,-28.207876205444336,7.0163116455078125
7.052008152008057,-24.18756675720215,6.08192253112793
7.891628265380859,-23.50840950012207,5.986091613769531
9.06175708770752,-23.78167152404785,6.14348030090332
9.657503128051758,-22.57500648498535,5.927275657653809
10.202923774719238,-21.426149368286133,5.728704929351807
10.702902793884277,-20.329477310180664,5.546055316925049
10.666816711425781,-18.425077438354492,5.1393585205078125
10.570943832397461,-16.67641258239746,4.766288757324219
11.061781883239746,-15.991744041442871,4.693921089172363
12.497401237487793,-16.59994125366211,5.015857219696045
11.548053741455078,-14.120635032653809,4.403438568115234
12.179008483886719,-13.727648735046387,4.430002689361572
13.124396324157715,-13.64717960357666,4.570617198944092
13.513837814331055,-12.966776847839355,4.5210466384887695
13.74694538116455,-12.168356895446777,4.4317851066589355
13.960287094116211,-11.39059829711914,4.349419116973877
14.155128479003906,-10.631741523742676,4.273501873016357
14.500114440917969,-10.005763053894043,4.252770900726318
14.663066864013672,-9.271483421325684,4.187854766845703
14.81032657623291,-8.551786422729492,4.128387451171875
14.942708015441895,-7.845354080200195,4.074078559875488
15.060924530029297,-7.150972366333008,4.024672031402588
15.165596961975098,-6.467521667480469,3.979945182800293
15.257284164428711,-5.793893337249756,3.939696788787842
15.336475372314453,-5.129085063934326,3.9037461280822754
15.40359878540039,-4.472128391265869,3.8719370365142822
15.459016799926758,-3.822094202041626,3.844136953353882
15.503047943115234,-3.1781153678894043,3.8202264308929443
15.5359468460083,-2.539337158203125,3.800107955932617
15.55793285369873,-1.9049252271652222,3.783695936203003
15.569168090820312,-1.2740974426269531,3.770925283432007
15.389894485473633,-0.6386008262634277,3.7182810306549072
15.359850883483887,0.5976855754852295,3.7106409072875977
15.329237937927246,1.2146832942962646,3.712042808532715
15.288177490234375,1.8319026231765747,3.7169320583343506
13.978082656860352,2.2477188110351562,3.4176225662231445
15.351689338684082,3.105879783630371,3.780933141708374
15.277711868286133,3.735515832901001,3.7966315746307373
15.192538261413574,4.3684282302856445,3.816028118133545
15.095893859863281,5.0054097175598145,3.8391969203948975
14.987455368041992,5.647279262542725,3.866234540939331
14.866839408874512,6.294880390167236,3.8972623348236084
14.733614921569824,6.9491071701049805,3.932396173477173
14.587296485900879,7.6108717918396,3.971798896789551
14.427313804626465,8.281112670898438,4.0156450271606445
14.253046035766602,8.960885047912598,4.0641303062438965
14.063758850097656,9.651249885559082,4.117469310760498
11.218868255615234,8.381195068359375,3.3804948329925537
13.636916160583496,11.068309783935547,4.2397685050964355
13.397480010986328,11.79755973815918,4.309304714202881
13.139242172241211,12.542439460754395,4.3848958015441895
12.860992431640625,13.304466247558594,4.466926097869873
12.561314582824707,14.085265159606934,4.555842876434326
12.238675117492676,14.88662338256836,4.652134895324707
11.891337394714355,15.71048355102539,4.756353378295898
11.51736068725586,16.558975219726562,4.869114398956299
11.1145601272583,17.434446334838867,4.991117477416992
10.68048095703125,18.339479446411133,5.123142719268799
10.212334632873535,19.276947021484375,5.266080856323242
9.707002639770508,20.250078201293945,5.420928478240967
9.156105995178223,21.251279830932617,5.585897445678711
8.56551742553711,22.30634880065918,5.768045902252197
7.925517559051514,23.409191131591797,5.966012477874756
7.23412561416626,24.576236724853516,6.184324741363525
4.137725830078125,16.473241806030273,4.100125789642334
5.654681205749512,27.073246002197266,6.676450252532959
4.75482702255249,28.42805290222168,6.957793235778809
3.769193410873413,29.865365982055664,7.2666192054748535
2.686519145965576,31.395692825317383,7.606542587280273
1.4933788776397705,33.031497955322266,7.981868743896484
0.17388111352920532,34.788124084472656,8.39787483215332
-1.2910480499267578,36.679195404052734,8.859758377075195
4.8616228103637695,27.29981803894043,6.938182353973389
3.9210259914398193,28.641754150390625,7.233320713043213
2.891187906265259,30.06432342529297,7.557126045227051
1.760378122329712,31.577762603759766,7.913371562957764
0.5148147940635681,33.1939582824707,8.306492805480957
-0.8619338870048523,34.9265251159668,8.741660118103027
-2.3894128799438477,36.79062271118164,9.224810600280762
-4.091325283050537,38.80796432495117,9.76399040222168
-5.996601104736328,41.00288772583008,10.368508338928223
-8.140830993652344,43.40517807006836,11.049817085266113
-10.519920349121094,45.84085464477539,11.768027305603027
-12.802480697631836,47.03287124633789,12.19631290435791
-15.266744613647461,48.33348083496094,12.68249225616455
-17.714508056640625,49.118839263916016,13.064886093139648
-20.211864471435547,49.69150161743164,13.42250919342041
-12.666715621948242,27.876888275146484,7.661388397216797
-13.249813079833984,26.300432205200195,7.368577480316162
-13.776540756225586,24.812049865722656,7.101016998291016
-14.252861976623535,23.402387619018555,6.856035232543945
-14.683891296386719,22.06334114074707,6.63133430480957
-15.074060440063477,20.78782081604004,6.424921035766602
-15.427210807800293,19.56961441040039,6.2350687980651855
-20.649648666381836,24.13340187072754,7.94721794128418
-20.595285415649414,22.198820114135742,7.576696872711182
-20.541872024536133,20.430078506469727,7.249025821685791
-20.489145278930664,18.8021240234375,6.9580464363098145
-20.139650344848633,17.042936325073242,6.601342678070068
-21.808515548706055,17.00006103515625,6.918748378753662
-23.87558937072754,17.115108489990234,7.350293159484863
-26.200714111328125,17.231910705566406,7.846488952636719
-28.842435836791992,17.350975036621094,8.42190933227539
-31.5893497467041,17.314743041992188,9.013457298278809
-30.09827995300293,14.957756996154785,8.409628868103027
-30.110746383666992,13.483983993530273,8.254974365234375
-30.030017852783203,12.024070739746094,8.093779563903809
-29.94818687438965,10.616372108459473,7.950264930725098
-29.86508560180664,9.254352569580078,7.823113918304443
-32.34342575073242,8.614705085754395,8.374820709228516
-9.692093849182129,1.7631032466888428,2.4648663997650146
-9.662652015686035,1.359336256980896,2.4415085315704346
-15.173367500305176,0.9023423790931702,3.8032472133636475
