-15.541926383972168,29.453411102294922,0.1383916437625885
-16.683229446411133,28.754737854003906,0.138149693608284
-17.924734115600586,28.218578338623047,0.138921856880188
-22.140029907226562,31.942829132080078,0.16150973737239838
-22.17215919494629,29.392868041992188,0.15299846231937408
-23.614038467407227,28.819005966186523,0.15482881665229797
-25.619197845458984,28.82201385498047,0.16024938225746155
-9.586055755615234,9.949080467224121,0.057412587106227875
-12.26301097869873,11.744367599487305,0.07056070864200592
-32.29887771606445,28.53558349609375,0.1791035532951355
-32.318092346191406,26.318437576293945,0.17320305109024048
-32.25165939331055,24.176233291625977,0.16749829053878784
-17.827239990234375,12.276802062988281,0.08994781225919724
-32.39121627807617,20.438243865966797,0.1591627299785614
-35.301002502441406,20.3391056060791,0.16930416226387024
-23.641740798950195,12.384122848510742,0.11090853810310364
-71.2025146484375,-57.902732849121094,0.3813720941543579
1.5569146871566772,-13.304640769958496,0.05566563084721565
5.799068927764893,-36.71063995361328,0.15444591641426086
17.77304458618164,-73.57077026367188,0.31452324986457825
14.289572715759277,-50.2191162109375,0.21697241067886353
13.385692596435547,-40.747127532958984,0.17823103070259094
15.03524112701416,-40.239463806152344,0.17851008474826813
13.019027709960938,-30.985950469970703,0.13966476917266846
14.370224952697754,-30.68775749206543,0.14080895483493805
7.196193218231201,-13.886035919189453,0.06499283760786057
13.020673751831055,-22.830543518066406,0.10922273993492126
13.39862060546875,-21.44300651550293,0.10507409274578094
13.706174850463867,-20.091453552246094,0.10106777399778366
14.139156341552734,-19.03586769104004,0.0985393077135086
14.653124809265137,-18.156003952026367,0.09695606678724289
14.669235229492188,-16.75174331665039,0.09253183007240295
12.989249229431152,-13.682845115661621,0.07840188592672348
13.494038581848145,-13.116598129272461,0.07820187509059906
7.581510543823242,-6.798954486846924,0.04231853783130646
7.811559677124023,-6.458353519439697,0.042119842022657394
13.52660846710205,-10.297296524047852,0.07064640522003174
13.435077667236328,-9.399796485900879,0.0681396946310997
14.339872360229492,-9.197603225708008,0.07079675793647766
11.506876945495605,-6.744001388549805,0.05542527884244919
17.231536865234375,-9.189834594726562,0.08115410804748535
19.040109634399414,-9.191812515258789,0.08785966038703918
16.162723541259766,-7.0167341232299805,0.07322413474321365
23.754192352294922,-9.196939468383789,0.10585379600524902
33.785797119140625,-11.542914390563965,0.14836174249649048
22.659713745117188,-6.738145351409912,0.09824074804782867
32.699100494384766,-8.309502601623535,0.14019198715686798
28.366844177246094,-6.0067925453186035,0.12049552798271179
29.83446502685547,-5.074917793273926,0.1257597953081131
30.669189453125,-3.956854820251465,0.12850503623485565
20.949556350708008,-1.8509973287582397,0.087396539747715
21.192651748657227,-1.0168498754501343,0.08816851675510406
29.549585342407227,0.958299994468689,0.12286113947629929
29.150388717651367,2.120032548904419,0.1214570477604866
28.758525848388672,3.257248878479004,0.12027249485254288
28.37259292602539,4.3741302490234375,0.11929813027381897
27.99125862121582,5.474617958068848,0.11852381378412247
27.61324691772461,6.562433242797852,0.11794526875019073
26.72884750366211,7.498486518859863,0.11536313593387604
26.36085319519043,8.551498413085938,0.11516549438238144
25.889938354492188,9.564342498779297,0.11469458788633347
25.3507080078125,10.540875434875488,0.11409037560224533
22.533536911010742,10.450100898742676,0.10321962088346481
21.13910675048828,10.855692863464355,0.09875152260065079
24.959733963012695,14.112567901611328,0.11914177983999252
24.5650691986084,15.223063468933105,0.12008383125066757
24.162593841552734,16.352481842041016,0.12122629582881927
23.726045608520508,17.486677169799805,0.12248092144727707
23.303735733032227,18.665380477905273,0.12407521903514862
22.710308074951172,19.738712310791016,0.12503957748413086
20.94989776611328,19.74070930480957,0.1196201965212822
19.333271026611328,19.7425537109375,0.1148284450173378
17.838842391967773,19.744272232055664,0.11057841777801514
16.448965072631836,19.74587631225586,0.10679614543914795
15.199164390563965,19.81283187866211,0.10376967489719391
14.309978485107422,20.29251480102539,0.10318553447723389
13.988922119140625,21.632963180541992,0.10705669224262238
14.015193939208984,23.711223602294922,0.11445853859186172
15.184990882873535,28.220272064208984,0.13317161798477173
8.32529354095459,17.083051681518555,0.07897208631038666
15.30256175994873,34.89384078979492,0.15833568572998047
15.357645988464355,39.233551025390625,0.1750829815864563
14.635953903198242,42.32533645629883,0.18610453605651855
13.59987735748291,45.12197494506836,0.19584186375141144
12.446722984313965,48.229610443115234,0.20698776841163635
7.86667013168335,36.48206329345703,0.15508927404880524
7.250957489013672,41.691261291503906,0.17585384845733643
7.965996742248535,59.990299224853516,0.251468300819397
1.9523180723190308,21.199132919311523,0.08846667408943176
2.9912984371185303,57.85954666137695,0.24076271057128906
0.9095942974090576,79.28614044189453,0.32950103282928467
-2.541637420654297,88.50393676757812,0.3679361939430237
-12.26943302154541,44.367088317871094,0.1912924349308014
-24.32732391357422,75.94976043701172,0.33141082525253296
-14.376794815063477,39.3653450012207,0.1741531789302826
-14.781728744506836,35.92519760131836,0.1614331305027008
-15.131720542907715,32.94813919067383,0.15066787600517273
-15.438082695007324,30.338729858398438,0.14145871996879578
-15.775274276733398,28.143611907958984,0.134072408080101
-17.673006057739258,28.756181716918945,0.1402621865272522
-22.127222061157227,32.95816421508789,0.16496451199054718
-22.16069984436035,30.302515029907227,0.15600547194480896
-22.907115936279297,28.81795310974121,0.1529799997806549
-24.862674713134766,28.82087516784668,0.15817299485206604
-26.959205627441406,28.824026107788086,0.16400639712810516
-12.108024597167969,11.945303916931152,0.07068122178316116
-31.757173538208008,28.907093048095703,0.17846053838729858
-32.30813217163086,27.11734390258789,0.17528682947158813
-32.33457565307617,24.996089935302734,0.16984179615974426
-32.35941696166992,22.999561309814453,0.16498133540153503
-18.101049423217773,11.800461769104004,0.08979058265686035
-33.55976867675781,20.00478744506836,0.1623574197292328
-38.648990631103516,20.981821060180664,0.18275058269500732
-34.77133560180664,12.16836929321289,0.15308943390846252
-44.01945877075195,9.662979125976562,0.18728035688400269
-38.08436584472656,-2.485952377319336,0.15860062837600708
17.39354705810547,-76.98574829101562,0.3279832601547241
19.26555061340332,-71.7328109741211,0.30865439772605896
13.23268985748291,-42.39240646362305,0.1845468431711197
14.4174222946167,-40.40428161621094,0.17827242612838745
12.972308158874512,-32.20448303222656,0.14427988231182098
13.868758201599121,-30.798458099365234,0.14036178588867188
7.027686595916748,-14.067902565002441,0.06534899026155472
7.593449592590332,-13.785710334777832,0.06540307402610779
13.390501976013184,-22.154741287231445,0.10757612437009811
13.328954696655273,-20.17505645751953,0.10048148781061172
14.36115837097168,-19.946226119995117,0.102135568857193
14.646780967712402,-18.709381103515625,0.09874074161052704
14.663457870483398,-17.255020141601562,0.09410066157579422
14.678686141967773,-15.929218292236328,0.09001556038856506
13.489540100097656,-13.507143020629883,0.07932858169078827
7.57916259765625,-7.002458572387695,0.042880844324827194
7.585389614105225,-6.46317720413208,0.04141253978013992
13.522930145263672,-10.615007400512695,0.07144169509410858
13.117724418640137,-9.470678329467773,0.06723593175411224
13.997742652893066,-9.274077415466309,0.0697784349322319
15.15620231628418,-9.187551498413086,0.07365063577890396
11.852594375610352,-6.548824310302734,0.05627218633890152
18.338584899902344,-9.191045761108398,0.08524361252784729
20.344539642333984,-9.193235397338867,0.09277378022670746
16.30186653137207,-6.591310024261475,0.07307380437850952
34.000091552734375,-12.182336807250977,0.15007957816123962
33.430171966552734,-10.483119010925293,0.14558494091033936
32.891143798828125,-8.879810333251953,0.1415674388408661
27.740562438964844,-6.305569648742676,0.11821982264518738
19.762216567993164,-9.181467056274414,0.27167370915412903
16.07555389404297,-6.697261333465576,0.2171182781457901
24.809223175048828,-9.184565544128418,0.32981932163238525
31.828195571899414,-10.349398612976074,0.4172547459602356
23.099285125732422,-6.497457981109619,0.2991611361503601
26.761857986450195,-6.37962007522583,0.3429994583129883
25.76221466064453,-5.057127475738525,0.32731300592422485
29.48910140991211,-4.567142009735107,0.3720342516899109
29.09035873413086,-3.3152012825012207,0.36502644419670105
20.112314224243164,-1.4766918420791626,0.2514200806617737
28.862947463989258,-0.9559832811355591,0.3600407838821411
28.485248565673828,0.20146501064300537,0.3551439046859741
28.114112854003906,1.3295023441314697,0.35090023279190063
27.74826431274414,2.432400941848755,0.3472737669944763
27.386474609375,3.514101028442383,0.3442361652851105
27.027599334716797,4.578271389007568,0.34176182746887207
26.6705322265625,5.628364562988281,0.3398347496986389
26.31422233581543,6.667648792266846,0.3384360671043396
25.473018646240234,7.555572509765625,0.33125463128089905
25.121749877929688,8.563482284545898,0.3308986723423004
24.76815414428711,9.56986141204834,0.3310409188270569
24.41119384765625,10.577664375305176,0.33168476819992065
21.59950828552246,10.409038543701172,0.29892560839653015
20.289705276489258,10.80284595489502,0.286577433347702
23.752626419067383,13.899079322814941,0.34308770298957825
23.363750457763672,14.962828636169434,0.34588053822517395
22.965417861938477,16.04411506652832,0.34925180673599243
22.55618667602539,17.146642684936523,0.35322582721710205
22.11138343811035,18.255367279052734,0.3574826717376709
21.67585563659668,19.411556243896484,0.36276504397392273
20.35242462158203,19.755884170532227,0.3536214828491211
18.781526565551758,19.757116317749023,0.33985424041748047
17.326122283935547,19.75829315185547,0.32762670516967773
15.969708442687988,19.759414672851562,0.3167448937892914
15.10319995880127,20.304508209228516,0.3154948949813843
14.01063346862793,20.50735855102539,0.3096429109573364
14.037277221679688,22.43064308166504,0.32989537715911865
15.209149360656738,26.625141143798828,0.38228410482406616
15.247451782226562,29.372446060180664,0.41259580850601196
8.018594741821289,17.093074798583984,0.23538890480995178
15.147297859191895,35.98176956176758,0.4867227375507355
14.283607482910156,38.147491455078125,0.5078414082527161
13.319199562072754,40.45056915283203,0.5309435725212097
10.347639083862305,36.2705078125,0.4702385663986206
8.788439750671387,36.26966857910156,0.4652699828147888
7.292582035064697,36.4347038269043,0.46325254440307617
8.32645320892334,52.47496795654297,0.6624074578285217
6.034587860107422,51.26204299926758,0.643511950969696
4.634194850921631,60.06571960449219,0.7510808110237122
2.4557831287384033,66.67143249511719,0.8317763209342957
-0.24589139223098755,73.0925521850586,0.9112709164619446
-3.5223469734191895,80.83696746826172,1.0087734460830688
-7.448134422302246,88.74848175048828,1.110344409942627
-11.630680084228516,93.38333892822266,1.1732256412506104
-13.87525749206543,83.79833221435547,1.0589606761932373
-23.58435821533203,94.5481948852539,1.2148768901824951
-12.97159481048584,44.33516311645508,0.575912594795227
-21.63286018371582,64.24112701416016,0.8451045751571655
-14.086922645568848,36.865013122558594,0.4920201897621155
-14.489689826965332,33.782249450683594,0.45828020572662354
-14.840331077575684,31.089067459106445,0.4294910132884979
-15.149057388305664,28.708900451660156,0.40469568967819214
-16.693096160888672,28.771751403808594,0.41470903158187866
-18.19499969482422,28.64406394958496,0.4230692684650421
-22.084997177124023,31.863433837890625,0.48334357142448425
-22.119943618774414,29.323644638061523,0.45793721079826355
-23.49359703063965,28.672016143798828,0.46213778853416443
-25.489107131958008,28.6756591796875,0.4783279001712799
-9.592872619628906,9.956155776977539,0.17236807942390442
-12.27209186553955,11.753064155578613,0.21184855699539185
-32.22904586791992,28.47389030456543,0.5361661911010742
-32.25857925415039,26.269975662231445,0.5186693072319031
-32.28615188598633,24.202068328857422,0.5030618906021118
-17.752527236938477,12.225347518920898,0.2687295973300934
-32.33639144897461,20.403642654418945,0.4766968786716461
-34.39363479614258,19.816312789916992,0.4948761761188507
-23.532623291015625,12.326967239379883,0.33120280504226685
-71.16095733642578,-57.86893844604492,1.1435105800628662
1.5561145544052124,-13.29780101776123,0.1669190675020218
5.849660873413086,-37.0308952331543,0.4673999845981598
15.200785636901855,-76.2182388305664,0.9689456224441528
17.319351196289062,-71.69267272949219,0.9195247292518616
20.40074920654297,-71.6961669921875,0.9293382167816162
13.378496170043945,-40.7252311706543,0.5344272255897522
15.027043342590332,-40.2175178527832,0.5352619290351868
12.878288269042969,-30.650991439819336,0.4144919812679291
14.213619232177734,-30.353321075439453,0.41785919666290283
7.199404716491699,-13.892232894897461,0.19507411122322083
7.94401741027832,-13.929095268249512,0.199915811419487
13.434635162353516,-21.50064468383789,0.3160827159881592
13.549254417419434,-19.86141586303711,0.2997475266456604
14.253948211669922,-19.19042205810547,0.2980315387248993
14.68647575378418,-18.197336196899414,0.29154276847839355
14.702142715454102,-16.789321899414062,0.27822890877723694
13.016271591186523,-13.71130657196045,0.2357015609741211
13.521015167236328,-13.142826080322266,0.23508572578430176
7.596120357513428,-6.8120527267456055,0.12720610201358795
7.805295467376709,-6.4531731605529785,0.12626220285892487
13.622724533081055,-10.370464324951172,0.21345144510269165
13.24195671081543,-9.264681816101074,0.20148709416389465
14.125831604003906,-9.060317039489746,0.2092248648405075
11.541034698486328,-6.7640180587768555,0.16677668690681458
17.212812423706055,-9.179847717285156,0.24320825934410095
19.017702102661133,-9.180999755859375,0.263282835483551
16.199979782104492,-7.0329108238220215,0.22018370032310486
23.720529556274414,-9.183908462524414,0.3171229064464569
32.008262634277344,-10.935619354248047,0.4216967523097992
22.668243408203125,-6.740680694580078,0.29484203457832336
31.068695068359375,-7.895188331604004,0.39964815974235535
24.857580184936523,-5.263689041137695,0.3167787790298462
29.639455795288086,-5.041756629943848,0.3748326301574707
29.236207962036133,-3.7719764709472656,0.3675190806388855
20.16239356994629,-1.7814481258392334,0.25234904885292053
20.3459529876709,-0.9762241840362549,0.2539503276348114
28.25046730041504,0.9161689281463623,0.3523915410041809
27.88282012939453,2.0278453826904297,0.3485417366027832
27.519662857055664,3.1169326305389404,0.3452903628349304
27.159833908081055,4.187161922454834,0.3426121175289154
26.802228927612305,5.242063045501709,0.34048378467559814
26.44576072692871,6.284975051879883,0.33889085054397583
25.60232925415039,7.18245267868042,0.33151423931121826
25.251667022705078,8.19167423248291,0.3309711813926697
24.899049758911133,9.198277473449707,0.3309294283390045
24.543447494506836,10.20521068572998,0.33138856291770935
22.374080657958984,10.376155853271484,0.307481050491333
20.760643005371094,10.661337852478027,0.29096299409866333
23.89409637451172,13.510042190551758,0.3421976864337921
23.50835418701172,14.568214416503906,0.34478920698165894
23.113677978515625,15.64260482788086,0.3479387164115906
22.70865249633789,16.736848831176758,0.35168561339378357
22.26849937438965,17.836196899414062,0.35570457577705383
21.838436126708984,18.98093032836914,0.3607327938079834
20.965505599975586,19.75541114807129,0.3591410219669342
19.347091674804688,19.75666618347168,0.3447461426258087
17.85112762451172,19.757863998413086,0.33197593688964844
16.459903717041016,19.759008407592773,0.3206169605255127
15.208950996398926,19.82558822631836,0.31152403354644775
14.318926811218262,20.305204391479492,0.30976468324661255
14.027031898498535,21.691896438598633,0.3220561146736145
14.056024551391602,23.78030776977539,0.3443937599658966
15.2326078414917,28.308759689331055,0.40078383684158325
8.330025672912598,17.092763900756836,0.23706045746803284
15.359521865844727,35.02369689941406,0.476794570684433
14.60647964477539,37.3145751953125,0.4995834231376648
13.692469596862793,39.59693908691406,0.5223492980003357
12.669628143310547,42.035587310791016,0.5473576188087463
9.344320297241211,36.208213806152344,0.46621042490005493
7.843681335449219,36.37547302246094,0.46392786502838135
7.237875938415527,41.61606216430664,0.526628851890564
6.98451042175293,52.598819732666016,0.6615190505981445
5.356400012969971,58.162086486816406,0.7281907796859741
3.3382058143615723,64.56968688964844,0.8060857057571411
0.8097743988037109,70.58577728271484,0.8800716400146484
-2.2339792251586914,77.79085540771484,0.9702391624450684
-5.977907657623291,86.6352310180664,1.0826743841171265
-10.2263822555542,93.38441467285156,1.1712019443511963
-12.252740859985352,44.306766510009766,0.5731187462806702
-24.34038734436035,75.99056243896484,0.9948098659515381
-13.922435760498047,38.1212158203125,0.5059736967086792
-14.347688674926758,34.87033462524414,0.4701012670993805
-14.716222763061523,32.04342269897461,0.43961161375045776
-15.039412498474121,29.555253982543945,0.41343724727630615
-16.126832962036133,28.770782470703125,0.4112010598182678
-17.683622360229492,28.773456573486328,0.4210592210292816
-22.0710506439209,32.874488830566406,0.4936589002609253
-22.10749053955078,30.229755401611328,0.4669124186038971
-22.922096252441406,28.83679962158203,0.45926105976104736
-24.87948989868164,28.84036636352539,0.4748636484146118
-26.978116989135742,28.844236373901367,0.49238985776901245
-12.083792686462402,11.921398162841797,0.21162797510623932
-31.386497497558594,28.569690704345703,0.529143750667572
-32.24791717529297,27.066808700561523,0.5248959064483643
-32.27618408203125,24.950956344604492,0.5086181163787842
-32.302650451660156,22.959224700927734,0.4940885007381439
-18.093225479125977,11.795356750488281,0.26927420496940613
-32.73167037963867,19.511157989501953,0.4750760793685913
-37.57883834838867,20.400859832763672,0.5330923795700073
-34.718414306640625,12.14985466003418,0.4585830867290497
-40.44504165649414,12.354070663452148,0.5272352695465088
14.122699737548828,-76.73020935058594,0.9726871252059937
16.70926284790039,-73.95699310302734,0.9452828764915466
19.255342483520508,-71.69488525390625,0.9255167841911316
13.294957160949707,-42.59191131591797,0.556273877620697
14.466497421264648,-40.541812896728516,0.536661684513092
13.105120658874512,-32.534175872802734,0.437281996011734
13.718100547790527,-30.463890075683594,0.4165307879447937
7.036452293395996,-14.08545970916748,0.1963006854057312
7.587643623352051,-13.775177001953125,0.19606910645961761
13.427351951599121,-22.215713500976562,0.32363077998161316
13.177217483520508,-19.945388793945312,0.29802942276000977
14.195013999938965,-19.71546745300293,0.3028779923915863
14.680733680725098,-18.752748489379883,0.29691869020462036
14.696894645690918,-17.29435920715332,0.28295350074768066
14.71074390411377,-15.963997840881348,0.27064448595046997
13.51689624786377,-13.534538269042969,0.23847879469394684
7.593961715698242,-7.016130447387695,0.12889882922172546
7.599693298339844,-6.4753642082214355,0.12447686493396759
13.619295120239258,-10.690648078918457,0.21585890650749207
13.029462814331055,-9.40695571899414,0.2003544270992279
13.791762351989746,-9.137609481811523,0.2062617838382721
15.141244888305664,-9.178489685058594,0.22074584662914276
11.856365203857422,-6.550906658172607,0.1688789576292038
18.317655563354492,-9.180556297302246,0.2554485499858856
20.319271087646484,-9.181816101074219,0.27798938751220703
16.305009841918945,-6.592578887939453,0.21926909685134888
32.19168472290039,-11.534377098083496,0.4263211190700531
31.702571868896484,-9.941375732421875,0.41421645879745483
31.235931396484375,-8.432938575744629,0.4033609628677368
26.58028221130371,-6.041831016540527,0.3398367166519165
19.738252639770508,-9.170334815979004,0.45228204131126404
16.078622817993164,-6.6985392570495605,0.36196431517601013
24.772705078125,-9.17104721069336,0.5489397644996643
30.25298309326172,-9.837199211120605,0.6610748171806335
23.108118057250977,-6.499939441680908,0.4988380968570709
26.479583740234375,-6.312334060668945,0.5656850934028625
25.69385528564453,-5.043708801269531,0.5441258549690247
28.157068252563477,-4.360841274261475,0.5921017527580261
27.79998207092285,-3.1681485176086426,0.5814443230628967
19.79688262939453,-1.4535322189331055,0.4125002920627594
27.621957778930664,-0.914879560470581,0.5743202567100525
27.276447296142578,0.192915678024292,0.5668402314186096
26.934728622436523,1.273729920387268,0.5603495836257935
26.595762252807617,2.3313727378845215,0.5547983050346375
26.258529663085938,3.3693690299987793,0.5501464009284973
25.922109603881836,4.3910088539123535,0.5463536977767944
25.58555030822754,5.399398326873779,0.5433973073959351
25.247962951660156,6.39747428894043,0.5412524938583374
24.44341278076172,7.25017786026001,0.5298254489898682
24.107402801513672,8.2177095413208,0.5292747616767883
23.76766586303711,9.183294296264648,0.5294950604438782
23.423274993896484,10.149585723876953,0.5304845571517944
21.629215240478516,10.423355102539062,0.4989410638809204
19.938053131103516,10.615612030029297,0.46939536929130554
22.777423858642578,13.328428268432617,0.5483967661857605
22.397037506103516,14.34371566772461,0.5526747703552246
22.00631332397461,15.374061584472656,0.55783611536026
21.603900909423828,16.422746658325195,0.5639216899871826
21.166213989257812,17.475032806396484,0.5703861117362976
20.7362003326416,18.570058822631836,0.5784505605697632
20.28952980041504,19.694835662841797,0.587602972984314
18.794771194458008,19.77105140686035,0.5668768286705017
17.337905883789062,19.771726608276367,0.5464676022529602
15.98021125793457,19.77240562438965,0.5283026099205017
15.112823486328125,20.31744956970215,0.5262067914009094
14.047435760498047,20.561227798461914,0.5174750089645386
14.076568603515625,22.49342918395996,0.5514153242111206
15.25478744506836,26.70505142211914,0.6391107439994812
15.296842575073242,29.467575073242188,0.6899481415748596
8.023124694824219,17.10272979736328,0.3925710618495941
14.286505699157715,33.93699264526367,0.7651780843734741
13.431695938110352,35.87229537963867,0.7959956526756287
12.500455856323242,37.964019775390625,0.8305859565734863
10.338345527648926,36.23792266845703,0.7830969095230103
8.772327423095703,36.20318603515625,0.7741007804870605
6.593304634094238,32.94103240966797,0.6981170773506165
5.339494705200195,33.650550842285156,0.708031415939331
5.769023895263672,49.006141662597656,1.0254151821136475
4.219088077545166,54.68539810180664,1.139780044555664
2.1812796592712402,59.21898651123047,1.2314479351043701
-0.22077855467796326,65.6246109008789,1.3637361526489258
-3.1290433406829834,71.81111145019531,1.4937015771865845
-5.424564838409424,64.63666534423828,1.347917079925537
-10.774166107177734,86.50648498535156,1.8115479946136475
-14.640029907226562,88.41706085205078,1.8623846769332886
-18.67430305480957,90.1436996459961,1.9130192995071411
-23.451801300048828,94.01670837402344,2.0136008262634277
-12.993535995483398,44.41014099121094,0.9615640640258789
-21.53923225402832,63.96307373046875,1.402539610862732
-14.342497825622559,37.533836364746094,0.8349847197532654
-14.086386680603027,32.841976165771484,0.7426076531410217
-14.45253849029541,30.276681900024414,0.6971768736839294
-14.86725902557373,28.17486000061035,0.6620076894760132
-16.702970504760742,28.788787841796875,0.6916519999504089
-18.2889461517334,28.791948318481445,0.7088209390640259
-22.030227661132812,31.78441047668457,0.8036478161811829
-22.067964553833008,29.254728317260742,0.7615053057670593
-23.509153366088867,28.691011428833008,0.7708084583282471
-25.506580352783203,28.695323944091797,0.7978298664093018
-9.599699974060059,9.963242530822754,0.2875113785266876
-12.281190872192383,11.761775970458984,0.3533743917942047
-32.20561599731445,28.45319366455078,0.8930364847183228
-32.23713684082031,26.252525329589844,0.8639444708824158
-32.22857666015625,24.15891456604004,0.8370141386985779
-17.67843246459961,12.174324989318848,0.446054071187973
-32.28174591064453,20.36916160583496,0.793222188949585
-33.531558990478516,19.31962013244629,0.8041911721229553
-23.42447853088379,12.270319938659668,0.5495179891586304
-71.11943817138672,-57.835174560546875,1.9049125909805298
-25.90690040588379,-60.28630447387695,1.363571047782898
1.569677710533142,-13.413675308227539,0.2806476950645447
12.001089096069336,-75.97196197509766,1.5983270406723022
14.882742881774902,-74.6236572265625,1.5812740325927734
17.31023406982422,-71.655029296875,1.531878113746643
16.515317916870117,-58.04121780395508,1.2540158033370972
13.375654220581055,-40.716548919677734,0.890603244304657
15.018853187561035,-40.19559860229492,0.8916968703269958
12.859766006469727,-30.606889724731445,0.6898934245109558
14.060364723205566,-30.02604103088379,0.6889828443527222
7.2030930519104,-13.8993501663208,0.32532042264938354
7.914132595062256,-13.876691818237305,0.3319687247276306
13.470849990844727,-21.558612823486328,0.5282719731330872
13.395844459533691,-19.636547088623047,0.4939693212509155
14.4114990234375,-19.402523040771484,0.5022502541542053
14.721036911010742,-18.240158081054688,0.4870901107788086
14.734152793884277,-16.825878143310547,0.4647669494152069
13.095745086669922,-13.79503059387207,0.39527398347854614
13.619773864746094,-13.238815307617188,0.3947043716907501
7.6107892990112305,-6.8252105712890625,0.21243906021118164
7.799036502838135,-6.447999477386475,0.21028773486614227
13.647371292114258,-10.389227867126465,0.3564280867576599
13.055488586425781,-9.134217262268066,0.3311125636100769
13.953161239624023,-8.949564933776855,0.34447526931762695
11.576410293579102,-6.784751892089844,0.27883848547935486
17.194124221801758,-9.169880867004395,0.4049445390701294
18.9953556060791,-9.170209884643555,0.43832871317863464
16.237417221069336,-7.049164772033691,0.36785367131233215
23.686965942382812,-9.17091178894043,0.5278372764587402
30.408126831054688,-10.388927459716797,0.6677557826042175
22.705673217773438,-6.751811981201172,0.4922596216201782
29.592866897583008,-7.520145893096924,0.6344996690750122
24.4926815032959,-5.186420440673828,0.5202605724334717
28.291013717651367,-4.812383651733398,0.5963537693023682
27.930910110473633,-3.6035714149475098,0.5852369666099548
19.811708450317383,-1.7504632472991943,0.41330477595329285
19.924184799194336,-0.9559869766235352,0.4145140051841736
27.060522079467773,0.8775790929794312,0.5626338720321655
26.720657348632812,1.9433242082595825,0.5567425489425659
26.382896423339844,2.9881811141967773,0.5517628788948059
26.046293258666992,4.015490531921387,0.5476559996604919
25.70989227294922,5.028420925140381,0.54439377784729
25.372791290283203,6.029976844787598,0.5419504642486572
25.034069061279297,7.023035526275635,0.5403108596801758
24.23183822631836,7.860844612121582,0.5293905735015869
23.893592834472656,8.826841354370117,0.5293248295783997
23.551040649414062,9.792562484741211,0.5300279855728149
22.731904983520508,10.542102813720703,0.5207115411758423
20.395416259765625,10.473782539367676,0.4764505624771118
19.186525344848633,10.84830379486084,0.4580294191837311
22.538612365722656,13.967267036437988,0.5509955286979675
22.151865005493164,14.991676330566406,0.5558301210403442
21.753936767578125,16.033199310302734,0.5615612268447876
21.343385696411133,17.095230102539062,0.5682511925697327
20.896812438964844,18.162511825561523,0.5753495097160339
20.45651626586914,19.275802612304688,0.5840920209884644
19.360929489135742,19.77080535888672,0.5750418901443481
17.863435745239258,19.77147674560547,0.5537247061729431
16.470857620239258,19.77215576171875,0.5347666144371033
15.218754768371582,19.83836555480957,0.5195886492729187
14.327887535095215,20.317909240722656,0.5166449546813965
14.06535816192627,21.751163482666016,0.5382746458053589
14.097101211547852,23.84979820251465,0.5757200717926025
15.280537605285645,28.397838592529297,0.6701371669769287
8.334763526916504,17.102487564086914,0.3953615427017212
14.584949493408203,33.25748825073242,0.7546525597572327
13.755586624145508,35.140846252441406,0.7842059135437012
12.85391616821289,37.171958923339844,0.8173427581787109
11.867984771728516,39.37584686279297,0.8546181321144104
9.322687149047852,36.124351501464844,0.7752860188484192
7.0985941886901855,32.920066833496094,0.6998264789581299
5.738153457641602,32.99302291870117,0.6959105134010315
6.213225364685059,46.7904167175293,0.9808714985847473
4.9009857177734375,53.21710968017578,1.1105709075927734
2.9662888050079346,57.37555694580078,1.1938992738723755
0.7295883893966675,63.59644317626953,1.32166588306427
-1.992957353591919,69.39774322509766,1.4427284002304077
-5.266389846801758,76.3237533569336,1.5898308753967285
-6.882516384124756,62.849342346191406,1.3138625621795654
-13.286676406860352,88.35787963867188,1.8567795753479004
-17.070388793945312,89.03070068359375,1.88382089138031
-22.21113395690918,95.02433776855469,2.027894973754883
-12.236106872558594,44.24656295776367,0.9539878368377686
-24.35346031188965,76.03141021728516,1.659058690071106
-21.61298179626465,59.1788444519043,1.3092269897460938
-13.938332557678223,33.87543869018555,0.76121586561203
-14.32285213470459,31.18690299987793,0.7131656408309937
-14.66073989868164,28.81110382080078,0.6717721819877625
-16.136293411254883,28.787675857543945,0.6857989430427551
-17.69426155090332,28.790754318237305,0.7022520899772644
-22.015148162841797,32.791229248046875,0.8207548260688782
-22.054523468017578,30.157331466674805,0.7763944268226624
-22.937103271484375,28.855676651000977,0.7660058736801147
-24.89632225036621,28.859886169433594,0.7920466661453247
-26.99704933166504,28.86448097229004,0.8212980031967163
-12.059652328491211,11.897583961486816,0.35204046964645386
-31.721986770629883,28.87508201599121,0.8914062976837158
-32.225765228271484,27.04823875427246,0.8742983937263489
-32.255882263183594,24.935272216796875,0.8472349643707275
-32.246070861816406,22.91899871826172,0.8221151232719421
-18.08540153503418,11.790258407592773,0.4486374855041504
-31.800905227661133,18.95631980895996,0.7693495154380798
-36.56614685058594,19.85108184814453,0.8646252155303955
-34.66564178466797,12.131388664245605,0.7632124423980713
-40.34853744506836,12.324593544006348,0.8767123222351074
1.2188142538070679,-57.23200607299805,1.1895904541015625
10.920452117919922,-76.47581481933594,1.6053427457809448
13.826130867004395,-75.11885070800781,1.587241768836975
16.188915252685547,-71.65386199951172,1.5265475511550903
19.245187759399414,-71.656982421875,1.5418524742126465
13.357826232910156,-42.79330062866211,0.9315921664237976
14.52735424041748,-40.71234893798828,0.8982784748077393
13.240707397460938,-32.87077331542969,0.7364128232002258
13.570651054382324,-30.136442184448242,0.686821460723877
7.04611349105835,-14.104792594909668,0.32764631509780884
7.582642555236816,-13.766091346740723,0.32659509778022766
13.464417457580566,-22.27703285217285,0.540920615196228
13.028867721557617,-19.72083854675293,0.49117255210876465
14.032638549804688,-19.489940643310547,0.49907052516937256
14.715901374816895,-18.797664642333984,0.49609336256980896
14.729438781738281,-17.332651138305664,0.4726759195327759
14.741898536682129,-15.99780559539795,0.45207101106643677
13.61601734161377,-13.633787155151367,0.4004134237766266
7.608822345733643,-7.029860973358154,0.21527203917503357
7.614053249359131,-6.487600803375244,0.207872211933136
13.644214630126953,-10.71020793914795,0.36045587062835693
13.052606582641602,-9.423666000366211,0.33454757928848267
13.591719627380371,-9.005072593688965,0.338813453912735
15.126327514648438,-9.16944408416748,0.3675801157951355
11.860138893127441,-6.552992343902588,0.28157955408096313
18.296768188476562,-9.170087814331055,0.42530107498168945
20.294050216674805,-9.170422554016113,0.4627843201160431
16.308149337768555,-6.593850612640381,0.3655507266521454
30.565628051757812,-10.95174789428711,0.6747077107429504
30.14444923400879,-9.452775001525879,0.6564908623695374
29.739025115966797,-8.028809547424316,0.640113353729248
26.482872009277344,-6.019690036773682,0.5643728971481323
19.714338302612305,-9.159224510192871,0.6325151920318604
16.110610961914062,-6.711866855621338,0.5078280568122864
24.736295700073242,-9.157567024230957,0.767491340637207
28.825862884521484,-9.373148918151855,0.88196861743927
23.11695671081543,-6.502424716949463,0.6987369656562805
26.51905632019043,-6.321740627288818,0.7932463884353638
25.62583351135254,-5.030357360839844,0.7598659992218018
26.939767837524414,-4.1723127365112305,0.793213963508606
19.836042404174805,-2.2605535984039307,0.5809047818183899
19.587970733642578,-1.4381935596466064,0.5714858174324036
20.723459243774414,-0.6863858699798584,0.6033218502998352
26.16570281982422,0.18505975604057312,0.761363685131073
25.84994888305664,1.2224303483963013,0.7529980540275574
25.534807205200195,2.238370418548584,0.7458378076553345
25.21947479248047,3.2360424995422363,0.7398294806480408
24.903154373168945,4.218406677246094,0.7349311709403992
24.585065841674805,5.188261985778809,0.7311078310012817
24.264419555664062,6.148257255554199,0.7283347845077515
23.9404239654541,7.100987911224365,0.7265918850898743
23.171464920043945,7.8986687660217285,0.7123169898986816
22.844560623168945,8.826624870300293,0.7125994563102722
22.511911392211914,9.754681587219238,0.7138797044754028
21.965961456298828,10.585631370544434,0.7094905376434326
19.598268508911133,10.434700012207031,0.6460426449775696
18.454944610595703,10.799072265625,0.6221627593040466
21.5068359375,13.77360725402832,0.7431015968322754
21.123811721801758,14.757523536682129,0.7497615814208984
20.728479385375977,15.757264137268066,0.7576073408126831
20.319416046142578,16.775907516479492,0.7666885256767273
19.874340057373047,17.798229217529297,0.7762795090675354
19.433456420898438,18.86385154724121,0.7880431413650513
18.80805015563965,19.785015106201172,0.7942952513694763
17.349702835083008,19.785186767578125,0.7656809091567993
15.990724563598633,19.785417556762695,0.7402125597000122
15.122466087341309,20.33041000366211,0.7372615337371826
14.084444046020508,20.61539649963379,0.7264739274978638
14.116092681884766,22.556591033935547,0.7742562890052795
15.300716400146484,26.78545379638672,0.8975726366043091
15.002534866333008,28.900632858276367,0.9474737048149109
8.02765941619873,17.112401962280273,0.5499865412712097
13.511581420898438,32.0961799621582,1.013282299041748
12.675453186035156,33.85255813598633,1.051793098449707
11.76783561706543,35.739070892333984,1.0948235988616943
10.777410507202148,37.77689743041992,1.1430541276931763
7.958139896392822,32.843017578125,0.9832881093025208
6.573394298553467,32.84152603149414,0.9745447635650635
5.290576934814453,33.34226989746094,0.9822980165481567
5.658174991607666,48.06449890136719,1.4081902503967285
3.880387783050537,50.295284271240234,1.467792272567749
2.0339136123657227,55.21781539916992,1.6077622175216675
-0.20029336214065552,59.53932571411133,1.7324270009994507
-2.814030170440674,64.58145141601562,1.8809089660644531
-5.336574554443359,63.5882568359375,1.8567326068878174
-9.492805480957031,76.21837615966797,2.234861135482788
-13.309889793395996,80.3837661743164,2.3707447052001953
-16.97184944152832,81.92566680908203,2.4343812465667725
-21.143901824951172,84.76449584960938,2.54196834564209
-24.590984344482422,84.0486831665039,2.5480916500091553
-21.446378707885742,63.68733215332031,1.9553589820861816
-14.286906242370605,37.38835525512695,1.164609670639038
-14.352394104003906,33.462154388427734,1.0594288110733032
-14.084370613098145,29.50541114807129,0.9513158798217773
-15.198455810546875,28.802522659301758,0.9475874900817871
-16.71287727355957,28.805850982666016,0.9690219163894653
-18.300048828125,28.809436798095703,0.9930886030197144
-21.9757080078125,31.705751419067383,1.122476577758789
-22.01620864868164,29.186124801635742,1.0637526512145996
-23.524751663208008,28.710037231445312,1.079998254776001
-25.524085998535156,28.71502113342285,1.1178828477859497
-9.606541633605957,9.970341682434082,0.4028587341308594
-12.290303230285645,11.770503997802734,0.49515989422798157
-32.144508361816406,28.39921760559082,1.248049020767212
-32.177955627441406,26.204326629638672,1.2074689865112305
-32.20901870727539,24.144258499145508,1.1712646484375
-17.604923248291016,12.123698234558105,0.6219666600227356
-32.26517868041992,20.358728408813477,1.1100879907608032
-32.711360931396484,18.84705352783203,1.0984835624694824
-23.317285537719727,12.214167594909668,0.7659109830856323
-71.07794189453125,-57.80144119262695,2.665687084197998
-26.957210540771484,-51.001121520996094,1.6785211563110352
-25.89253044128418,-60.252838134765625,1.908204197883606
9.03056526184082,-77.17089080810547,2.2607669830322266
11.752458572387695,-74.39813232421875,2.1916069984436035
14.435848236083984,-72.38286590576172,2.1476047039031982
17.43736457824707,-72.18123626708984,2.160675525665283
14.035164833068848,-49.32501220703125,1.4921815395355225
13.436419486999512,-40.90156555175781,1.2526850700378418
15.010665893554688,-40.17369079589844,1.2478684186935425
13.429360389709473,-31.96257781982422,1.0087718963623047
13.91032600402832,-29.705625534057617,0.9544162750244141
7.207272529602051,-13.907415390014648,0.455775648355484
7.892618179321289,-13.838973999023438,0.4635578393936157
13.50727367401123,-21.616897583007812,0.7416821122169495
13.245820045471191,-19.41663360595703,0.6839074492454529
14.247422218322754,-19.181625366210938,0.6952459216117859
14.754717826843262,-18.281888961791992,0.6835817098617554
14.766314506530762,-16.86260223388672,0.6521831154823303
13.296723365783691,-14.006739616394043,0.5619497299194336
13.647126197814941,-13.265403747558594,0.5537722110748291
7.6255202293396,-6.838419437408447,0.298031747341156
7.792788505554199,-6.4428324699401855,0.2942076623439789
13.67211627960205,-10.408062934875488,0.4999731481075287
13.07848834991455,-9.150311470031738,0.46443843841552734
14.835397720336914,-9.515432357788086,0.5128284096717834
11.612014770507812,-6.805619716644287,0.39162835478782654
17.175474166870117,-9.159932136535645,0.566384494304657
18.973054885864258,-9.159441947937012,0.6130238175392151
16.275041580200195,-7.065496444702148,0.5162583589553833
16.64321517944336,-6.443772792816162,0.5192998647689819
28.95987319946289,-9.894131660461426,0.890459418296814
22.7558536529541,-6.766733646392822,0.6907823085784912
28.250465393066406,-7.179017066955566,0.8481191396713257
23.75938606262207,-5.031142711639404,0.7066561579704285
27.059520721435547,-4.602901935577393,0.7986624240875244
26.736793518066406,-3.449510097503662,0.7844098210334778
19.549991607666016,-1.7273379564285278,0.5710617303848267
19.643049240112305,-0.9424976110458374,0.5722116827964783
25.966411590576172,0.8420965075492859,0.7559432983398438
25.651142120361328,1.865541696548462,0.7483462691307068
25.335983276367188,2.8696045875549316,0.7419161796569824
25.020116806030273,3.8572874069213867,0.7366124987602234
24.7027645111084,4.83144474029541,0.7323976755142212
24.383155822753906,5.794785976409912,0.7292381525039673
24.060483932495117,6.749908447265625,0.7271174192428589
23.2908878326416,7.555595874786377,0.7124630808830261
22.965879440307617,8.484119415283203,0.7123802900314331
22.63545036315918,9.411860466003418,0.7132911086082458
22.29873275756836,10.341206550598145,0.715203046798706
20.233800888061523,10.39078140258789,0.6618370413780212
18.867326736450195,10.667827606201172,0.6306617259979248
21.64541244506836,13.413739204406738,0.7409358620643616
21.2666015625,14.392560958862305,0.7471662163734436
20.875965118408203,15.38610553741455,0.7545706629753113
20.472145080566406,16.397409439086914,0.7631812691688538
20.032739639282227,17.4115047454834,0.7722901701927185
19.59833526611328,18.467153549194336,0.783532440662384
19.145755767822266,19.551069259643555,0.7962193489074707
17.875755310058594,19.785114288330078,0.7758562564849854
16.481826782226562,19.785327911376953,0.7492750287055969
15.228571891784668,19.851163864135742,0.727994441986084
14.336856842041016,20.33063507080078,0.723855197429657
14.103907585144043,21.810775756835938,0.7557561993598938
14.138432502746582,23.919723510742188,0.80848228931427
15.25589370727539,28.35204315185547,0.9368073344230652
8.339515686035156,17.112226486206055,0.5538961887359619
13.804137229919434,31.477022171020508,1.0000895261764526
12.991938591003418,33.189964294433594,1.0370806455612183
12.111910820007324,35.026180267333984,1.0783710479736328
11.153526306152344,37.005409240722656,1.1245925426483154
8.500533103942871,32.93863296508789,0.9898187518119812
7.078846454620361,32.8285026550293,0.9771671891212463
5.7148566246032715,32.85909652709961,0.9704548120498657
5.844257354736328,44.01176071166992,1.2918496131896973
4.516830921173096,49.0457763671875,1.4331257343292236
2.7177915573120117,52.5691032409668,1.531648874282837
0.6639368534088135,57.874237060546875,1.6840792894363403
-1.7984886169433594,62.626155853271484,1.8229869604110718
-4.7068657875061035,68.21454620361328,1.9895615577697754
-6.745342254638672,61.59666061401367,1.8029931783676147
-10.183941841125488,67.72429656982422,1.992728352546692
-15.601531028747559,81.36981201171875,2.410724401473999
-19.465150833129883,83.27648162841797,2.4884138107299805
-12.219489097595215,44.18653869628906,1.3339531421661377
-21.394195556640625,66.79261016845703,2.0407278537750244
-21.525985717773438,58.94060134887695,1.825793743133545
-14.329670906066895,34.826568603515625,1.095773696899414
-13.949843406677246,30.37470817565918,0.9725626707077026
-14.344710350036621,28.190044403076172,0.9203351140022278
-16.14577865600586,28.80459213256836,0.9608150124549866
-17.704904556274414,28.808080673217773,0.9838789105415344
-21.959510803222656,32.70835494995117,1.14631187915802
-22.00179100036621,30.08523178100586,1.0845032930374146
-22.95212745666504,28.874582290649414,1.0732589960098267
-24.913196563720703,28.879440307617188,1.1097725629806519
-27.01601791381836,28.8847599029541,1.1507854461669922
-12.035600662231445,11.873858451843262,0.4919411242008209
-31.746164321899414,28.8971004486084,1.2490918636322021
-32.16590118408203,26.997982025146484,1.2219136953353882
-32.197811126708984,24.890378952026367,1.184155821800232
-32.2275276184082,22.905839920043945,1.15045166015625
-18.07758140563965,11.785161018371582,0.627907395362854
-32.2435417175293,19.220178604125977,1.0922309160232544
-35.606285095214844,19.329992294311523,1.1788626909255981
-34.613014221191406,12.112966537475586,1.0670239925384521
-40.25246047973633,12.295244216918945,1.2246454954147339
9.37012004852295,-65.61881256103516,1.9286797046661377
13.541644096374512,-73.57324981689453,2.1767220497131348
16.180435180664062,-71.61637115478516,2.136345386505127
15.663935661315918,-58.322715759277344,1.7571580410003662
13.42131519317627,-42.99666976928711,1.3106071949005127
14.52423095703125,-40.70359420776367,1.257495403289795
13.379182815551758,-33.214534759521484,1.0419021844863892
13.426285743713379,-29.81584930419922,0.9514517188072205
7.056798458099365,-14.126177787780762,0.4594633877277374
7.5783610343933105,-13.758320808410645,0.4570389688014984
13.501694679260254,-22.338714599609375,0.7594917416572571
13.026224136352539,-19.716842651367188,0.6875973343849182
13.873879432678223,-19.269439697265625,0.6908900737762451
14.75019359588623,-18.84146499633789,0.6962456703186035
14.762138366699219,-17.371129989624023,0.6633073687553406
13.067233085632324,-14.180473327636719,0.5610818862915039
13.643757820129395,-13.6615629196167,0.5617990493774414
13.6527099609375,-12.613863945007324,0.5408494472503662
7.628472805023193,-6.4998884201049805,0.29161322116851807
13.669233322143555,-10.729844093322754,0.5056333541870117
13.676941871643066,-9.874423027038574,0.4908369779586792
13.569608688354492,-8.990423202514648,0.4736328423023224
15.11142635345459,-9.16041374206543,0.5141772627830505
11.863916397094727,-6.555078983306885,0.3943924009799957
18.275922775268555,-9.159639358520508,0.5948251485824585
20.26889991760254,-9.159056663513184,0.6471828818321228
16.311294555664062,-6.595122337341309,0.5119402408599854
29.095436096191406,-10.424981117248535,0.899285614490509
28.731826782226562,-9.009794235229492,0.8761430978775024
28.378591537475586,-7.661526203155518,0.8552886843681335
23.510299682617188,-5.3440070152282715,0.7015289068222046
19.690473556518555,-9.1481351852417,0.812399685382843
16.14743423461914,-6.727206707000732,0.6545336842536926
24.699968338012695,-9.14411735534668,0.9855068325996399
27.526729583740234,-8.950713157653809,1.0830503702163696
23.125802993774414,-6.504914283752441,0.8988865613937378
26.55866813659668,-6.331184387207031,1.0216007232666016
25.346593856811523,-4.975543022155762,0.9665030837059021
25.82284164428711,-3.9993271827697754,0.9777429103851318
19.425045013427734,-2.213715076446533,0.7315377593040466
19.342731475830078,-1.420186996459961,0.7257020473480225
19.511632919311523,-0.6462488770484924,0.7304732799530029
25.141399383544922,0.1778152734041214,0.9407486319541931
24.848695755004883,1.175081491470337,0.9308125376701355
24.554807662963867,2.152463912963867,0.9223004579544067
24.259071350097656,3.1128077507019043,0.9151548147201538
23.960840225219727,4.058786869049072,0.9093248248100281
23.659446716308594,4.992926120758057,0.904772162437439
23.354202270507812,5.917623519897461,0.9014701843261719
23.04443359375,6.835226535797119,0.8993929624557495
22.305084228515625,7.603339195251465,0.8817558288574219
21.990068435668945,8.49647045135498,0.8820938467979431
21.668413162231445,9.38918399810791,0.8836176991462708
21.33928680419922,10.28363037109375,0.8863402009010315
19.5977840423584,10.43444538116455,0.8307580351829529
18.15680694580078,10.624613761901855,0.7871462106704712
20.684314727783203,13.246842384338379,0.9190512299537659
20.308982849121094,14.188261985778809,0.9269747734069824
19.920860290527344,15.143335342407227,0.9362862706184387
19.51862144470215,16.114782333374023,0.9470656514167786
19.100799560546875,17.10550880432129,0.9593873023986816
18.646333694458008,18.099794387817383,0.9723397493362427
18.19277000427246,19.137781143188477,0.9880114793777466
17.36152458190918,19.79867172241211,0.9853003621101379
16.00126075744629,19.798452377319336,0.9525052309036255
15.132122993469238,20.343393325805664,0.9486880302429199
14.12166690826416,20.669878005981445,0.9366784691810608
14.15585994720459,22.620132446289062,0.9984605312347412
14.938812255859375,26.151893615722656,1.1269334554672241
14.277880668640137,27.504661560058594,1.159554362297058
8.032207489013672,17.122085571289062,0.7076562643051147
12.81607723236084,30.44403648376465,1.235958218574524
11.999510765075684,32.04730987548828,1.2804275751113892
11.116044044494629,33.75957489013672,1.3299098014831543
10.155705451965332,35.59767532348633,1.3851150274276733
7.948920249938965,32.80501937866211,1.2629995346069336
