14.080604553222656,-27.672222137451172,6.411019802093506
12.790006637573242,-22.818689346313477,5.4013352394104
12.24826431274414,-19.93020248413086,4.830270290374756
13.157820701599121,-19.599103927612305,4.874291896820068
13.9201078414917,-19.035017013549805,4.86924934387207
13.891118049621582,-17.476184844970703,4.609623908996582
12.135614395141602,-14.068150520324707,3.8362929821014404
6.59542179107666,-7.051899433135986,1.993703007698059
6.994769096374512,-6.9010233879089355,2.0289125442504883
12.578630447387695,-11.450179100036621,3.5122134685516357
12.634312629699707,-10.604819297790527,3.4059622287750244
12.160492897033691,-9.400979042053223,3.1737778186798096
12.930309295654297,-9.1906099319458,3.275611162185669
10.610482215881348,-6.917473793029785,2.6153690814971924
15.402960777282715,-9.1820068359375,3.7026824951171875
16.778226852416992,-9.108981132507324,3.942061424255371
18.343917846679688,-9.024531364440918,4.2212677001953125
15.052980422973633,-6.668443202972412,3.3995275497436523
22.258594512939453,-8.808761596679688,4.942849159240723
30.653671264648438,-10.727994918823242,6.705896854400635
21.523956298828125,-6.57499361038208,4.647075176239014
28.458831787109375,-7.457677364349365,6.074680805206299
22.452482223510742,-4.929117202758789,4.746469497680664
25.22374725341797,-4.483842849731445,5.28993558883667
24.938425064086914,-3.406186103820801,5.197182655334473
17.84002113342285,-1.7100350856781006,3.700551748275757
17.73102569580078,-0.9829457998275757,3.6667838096618652
21.95918846130371,0.548703134059906,4.535625457763672
21.150558471679688,1.38020920753479,4.376530170440674
20.3663387298584,2.1534805297851562,4.228756427764893
19.604997634887695,2.8733808994293213,4.091355800628662
18.865095138549805,3.544264316558838,3.9634804725646973
18.145292282104492,4.17003059387207,3.844369411468506
17.444339752197266,4.754189491271973,3.733339786529541
16.76105499267578,5.2998948097229,3.629777669906616
16.0943603515625,5.809991836547852,3.5331289768218994
15.443230628967285,6.287050247192383,3.4428939819335938
14.806689262390137,6.733395099639893,3.3586208820343018
14.183826446533203,7.15112829208374,3.2799007892608643
13.289055824279785,7.383939266204834,3.1391024589538574
12.703593254089355,7.742316246032715,3.071852445602417
12.129166603088379,8.07778549194336,3.0090479850769043
11.565062522888184,8.391748428344727,2.950417995452881
11.01062297821045,8.685474395751953,2.89571475982666
10.465209007263184,8.96013069152832,2.8447141647338867
9.928217887878418,9.216774940490723,2.797210454940796
9.399080276489258,9.456364631652832,2.7530179023742676
8.87724781036377,9.679780960083008,2.7119669914245605
8.362200736999512,9.8878173828125,2.6739044189453125
7.85343599319458,10.081210136413574,2.638688325881958
7.350484848022461,10.260610580444336,2.6061928272247314
6.852860927581787,10.426628112792969,2.5762999057769775
6.32080602645874,10.514392852783203,2.5331482887268066
5.716172695159912,10.436365127563477,2.456998586654663
5.147927284240723,10.366795539855957,2.3899643421173096
4.610764980316162,10.304713249206543,2.3310348987579346
4.100163459777832,10.249314308166504,2.2793710231781006
3.723926067352295,10.51529598236084,2.3033692836761475
3.417710065841675,11.041502952575684,2.3866071701049805
3.001584768295288,11.283331871032715,2.4108471870422363
2.535320281982422,11.34744644165039,2.400829553604126
2.0704476833343506,11.401653289794922,2.392754077911377
1.606614112854004,11.446087837219238,2.386594772338867
1.1434708833694458,11.480854034423828,2.3823344707489014
0.6806720495223999,11.50603199005127,2.3799586296081543
0.21787196397781372,11.521672248840332,2.3794586658477783
-0.2516075074672699,11.824896812438965,2.44219708442688
-0.7274064421653748,11.821243286132812,2.4455068111419678
-1.2042663097381592,11.807767868041992,2.450754404067993
-1.6825554370880127,11.784398078918457,2.457958459854126
-2.1626360416412354,11.751025199890137,2.467139959335327
-2.6448771953582764,11.707518577575684,2.4783284664154053
-3.129669189453125,11.653701782226562,2.4915592670440674
-3.6173794269561768,11.589376449584961,2.5068743228912354
-4.108400821685791,11.514301300048828,2.5243237018585205
-4.603166580200195,11.428199768066406,2.5439629554748535
-5.102066993713379,11.33074951171875,2.5658581256866455
-5.6055450439453125,11.221596717834473,2.5900816917419434
-2.9381356239318848,11.418318748474121,2.5368423461914062
-3.414161205291748,11.35663890838623,2.5515735149383545
-3.8931407928466797,11.284316062927246,2.568415403366089
-4.375439167022705,11.201092720031738,2.5874199867248535
-4.861424922943115,11.106670379638672,2.608649969100952
-5.351484775543213,11.00071907043457,2.6321702003479004
-5.846015930175781,10.882859230041504,2.6580588817596436
-6.345411777496338,10.752673149108887,2.6863999366760254
-6.850101470947266,10.609695434570312,2.717287302017212
-7.359512805938721,10.451984405517578,2.7504513263702393
-7.876118183135986,10.281953811645508,2.786782741546631
-8.39937973022461,10.09740924835205,2.8260066509246826
-8.929777145385742,9.897658348083496,2.86826229095459
-9.259233474731445,9.468643188476562,2.8495101928710938
-9.793416976928711,9.241244316101074,2.897226333618164
-10.336130142211914,8.9965238571167,2.9483983516693115
-10.887961387634277,8.73348617553711,3.0032246112823486
-11.449478149414062,8.451061248779297,3.061920166015625
-12.021329879760742,8.14806079864502,3.124720573425293
-12.6177396774292,7.8316216468811035,3.1953227519989014
-13.21288013458252,7.483092308044434,3.2672111988067627
-13.820446968078613,7.1096720695495605,3.3440663814544678
-14.742809295654297,6.849797248840332,3.497788429260254
-15.39897632598877,6.415726661682129,3.589369535446167
-16.062503814697266,5.946798324584961,3.6853280067443848
-16.742137908935547,5.444293022155762,3.7879819869995117
-17.438865661621094,4.905618667602539,3.8978474140167236
-18.15370750427246,4.3279290199279785,4.0154900550842285
-18.887784957885742,3.708035707473755,4.141543865203857
-19.64224624633789,3.04245662689209,4.276699542999268
-20.41832733154297,2.327289342880249,4.4217329025268555
-21.217336654663086,1.5582139492034912,4.577498912811279
-22.040660858154297,0.7304155826568604,4.744955062866211
-22.88973617553711,-0.16148443520069122,4.925166606903076
-23.766109466552734,-1.1234616041183472,5.119318962097168
-24.153852462768555,-2.1168782711029053,5.216957092285156
-25.070127487182617,-3.2164275646209717,5.438398361206055
-26.018098831176758,-4.406793117523193,5.677884578704834
-25.517351150512695,-5.3845319747924805,5.611319065093994
-24.943265914916992,-6.319821834564209,5.536479949951172
-28.525997161865234,-8.4605712890625,6.402036190032959
-25.03798484802246,-8.534444808959961,5.691634178161621
-22.238813400268555,-8.592121124267578,5.129704475402832
-21.06244468688965,-9.126168251037598,4.939000129699707
-20.9443302154541,-10.092825889587402,5.002411365509033
-20.925519943237305,-11.140889167785645,5.100778579711914
-20.90584945678711,-12.232749938964844,5.2116546630859375
-21.957189559936523,-14.061441421508789,5.610137462615967
-21.93429183959961,-15.323138236999512,5.7570390701293945
-21.9100341796875,-16.654815673828125,5.921632766723633
-21.884225845336914,-18.06715202331543,6.106036186218262
-21.856616973876953,-19.572708129882812,6.312788963317871
-21.82695198059082,-21.18640899658203,6.54494571685791
-21.794849395751953,-22.926145553588867,6.8062005043029785
-21.791685104370117,-24.84979820251465,7.111452579498291
-21.753366470336914,-26.91459083557129,7.4460530281066895
-21.571313858032227,-28.999073028564453,7.776525020599365
-20.566783905029297,-30.102399826049805,7.84433126449585
-20.516664505004883,-32.78296661376953,8.321189880371094
-22.983308792114258,-40.23284912109375,9.969579696655273
-23.451337814331055,-45.17424392700195,10.951562881469727
-22.60760498046875,-48.18988800048828,11.453046798706055
-21.31517219543457,-50.63074493408203,11.819944381713867
-21.195758819580078,-56.60481262207031,13.005168914794922
-23.604001998901367,-71.6811752319336,16.237876892089844
-23.226743698120117,-81.40870666503906,18.215198516845703
10.075943946838379,-80.91242218017578,17.54390525817871
6.01212739944458,-36.313629150390625,7.919743537902832
14.889326095581055,-71.87939453125,15.794175148010254
14.660638809204102,-58.77798080444336,13.034363746643066
12.983349800109863,-44.37834548950195,9.948871612548828
13.587761878967285,-40.352760314941406,9.161471366882324
12.78965950012207,-33.4719352722168,7.709794044494629
6.222718715667725,-14.508798599243164,3.396780490875244
6.729175567626953,-14.097636222839355,3.3611416816711426
12.47317123413086,-23.63884925842285,5.750860691070557
12.777084350585938,-22.02314567565918,5.478332996368408
12.364786148071289,-19.466442108154297,4.961993217468262
13.361983299255371,-19.2789306640625,5.047050476074219
13.91086196899414,-18.44186019897461,4.970305919647217
13.882929801940918,-16.94362449645996,4.713132381439209
6.6031670570373535,-7.428945541381836,2.138594388961792
6.648998260498047,-6.90105676651001,2.061915159225464
12.663658142089844,-12.128498077392578,3.772852659225464
12.646042823791504,-11.173006057739258,3.630845308303833
12.629732131958008,-10.285499572753906,3.504608154296875
12.247320175170898,-9.181082725524902,3.2934072017669678
13.246139526367188,-9.122361183166504,3.4605798721313477
10.769662857055664,-6.7957305908203125,2.7400057315826416
15.84245777130127,-9.128210067749023,3.9340755939483643
17.275312423706055,-9.04963493347168,4.196152210235596
18.912860870361328,-8.958434104919434,4.50278902053833
15.302878379821777,-6.509313583374023,3.5781304836273193
23.036977767944336,-8.723795890808105,5.300230026245117
28.576040267944336,-9.527440071105957,6.481256484985352
21.60601806640625,-6.251171588897705,4.839500904083252
26.668262481689453,-6.567257881164551,5.909463882446289
22.549179077148438,-4.600798606872559,4.9517292976379395
24.354351043701172,-3.957538366317749,5.308916091918945
17.765634536743164,-2.1585490703582764,3.8506362438201904
17.51078987121582,-1.4166730642318726,3.7799999713897705
17.385324478149414,-0.7052732110023499,3.74377179145813
20.835140228271484,0.8300556540489197,4.486530303955078
20.092464447021484,1.6108344793319702,4.337048053741455
19.3690185546875,2.3390748500823975,4.197795867919922
18.663766860961914,3.0189096927642822,4.067965507507324
17.975727081298828,3.6540653705596924,3.9468305110931396
17.303953170776367,4.247903347015381,3.8337340354919434
16.647560119628906,4.803464889526367,3.7280828952789307
16.00569725036621,5.323501110076904,3.629340410232544
15.37756061553955,5.810507297515869,3.537020206451416
14.762368202209473,6.266749382019043,3.45068097114563
14.159382820129395,6.694282531738281,3.3699216842651367
13.56792163848877,7.094976902008057,3.294379234313965
12.714855194091797,7.31382942199707,3.156095504760742
12.156402587890625,7.658432960510254,3.091404914855957
11.607349395751953,7.981340408325195,3.030930280685425
11.067129135131836,8.283814430236816,2.9744269847869873
10.535195350646973,8.567010879516602,2.921671152114868
10.011025428771973,8.831985473632812,2.8724563121795654
9.494121551513672,9.079700469970703,2.8265974521636963
8.984004020690918,9.311034202575684,2.783923625946045
8.48021125793457,9.526785850524902,2.7442805767059326
7.98230504989624,9.727699279785156,2.707524061203003
7.4898552894592285,9.914430618286133,2.673527240753174
7.002439498901367,10.087592124938965,2.6421730518341064
6.51965856552124,10.247735977172852,2.6133532524108887
6.041132926940918,10.395363807678223,2.586973190307617
5.559548377990723,10.517804145812988,2.5597524642944336
4.996212959289551,10.447558403015137,2.4917571544647217
4.462953090667725,10.384941101074219,2.4320671558380127
3.9553706645965576,10.329141616821289,2.3798341751098633
3.830758571624756,11.349294662475586,2.577294111251831
3.2260019779205322,10.997164726257324,2.4659008979797363
2.768958568572998,11.067212104797363,2.454664468765259
2.313363790512085,11.127281188964844,2.4453837871551514
1.858900547027588,11.177520751953125,2.43803071975708
0.9890813827514648,7.895828723907471,1.712175726890564
0.9520779848098755,11.2489652633667,2.4290249347686768
0.46429184079170227,10.484716415405273,2.2581441402435303
0.045943863689899445,11.282177925109863,2.427537202835083
-0.4181666374206543,11.575338363647461,2.492220163345337
-0.8842429518699646,11.567815780639648,2.4962379932403564
-1.3514355421066284,11.550463676452637,2.5021960735321045
-1.820080280303955,11.523199081420898,2.5101137161254883
-2.290510892868042,11.485909461975098,2.5200142860412598
-2.7630631923675537,11.438446044921875,2.531928062438965
-3.2380874156951904,11.380638122558594,2.545891523361206
-3.715925693511963,11.312274932861328,2.561947822570801
-4.196957111358643,11.233108520507812,2.5801472663879395
-4.681535243988037,11.14285945892334,2.600548267364502
-5.170051097869873,11.041203498840332,2.6232144832611084
-5.662880897521973,10.927785873413086,2.6482198238372803
-6.160433769226074,10.802202224731445,2.675644874572754
-6.66312313079834,10.664002418518066,2.7055811882019043
-7.170367240905762,10.511221885681152,2.7377429008483887
-7.684635162353516,10.346385955810547,2.7730391025543213
-8.20538330078125,10.167277336120605,2.8111798763275146
-8.733080863952637,9.97322940826416,2.8522984981536865
-9.064048767089844,9.5484037399292,2.8327293395996094
-9.595215797424316,9.327177047729492,2.8792147636413574
-10.134727478027344,9.08895492553711,2.9290904998779297
-10.683113098144531,8.832804679870605,2.9825432300567627
-11.240989685058594,8.557665824890137,3.0397839546203613
-11.80895709991455,8.262405395507812,3.1010401248931885
-12.387646675109863,7.945775032043457,3.1665611267089844
-12.991740226745605,7.614583492279053,3.2401084899902344
-13.59463119506836,7.250545501708984,3.315091371536255
-14.210415840148926,6.860560417175293,3.3952512741088867
-15.157868385314941,6.5808539390563965,3.5555379390716553
-15.815693855285645,6.123715400695801,3.649144411087036
-16.48927116394043,5.633896350860596,3.7492685317993164
-17.17955780029297,5.108897686004639,3.856407642364502
-17.88759994506836,4.545956611633301,3.9711108207702637
-18.61444091796875,3.9420366287231445,4.0939812660217285
-19.361236572265625,3.293759822845459,4.225689888000488
-20.129194259643555,2.597371816635132,4.366982460021973
-20.91957664489746,1.84873366355896,4.518681049346924
-21.733762741088867,1.0432096719741821,4.681703090667725
-22.573162078857422,0.17563608288764954,4.857074737548828
-23.43927001953125,-0.7597233057022095,5.045932292938232
-24.333681106567383,-1.7693111896514893,5.249551773071289
-24.728240966796875,-2.80035400390625,5.354631423950195
-25.664287567138672,-3.956144332885742,5.587247848510742
-26.6331787109375,-5.208532333374023,5.839053630828857
-23.110332489013672,-5.491891384124756,5.110983848571777
-29.2913818359375,-8.21683406829834,6.545720100402832
-26.232463836669922,-8.509363174438477,5.933812141418457
-23.20600700378418,-8.5723876953125,5.322881698608398
-21.98771095275879,-9.142091751098633,5.12360143661499
-20.951078414916992,-9.715800285339355,4.969050407409668
-20.932559967041016,-10.74917221069336,5.063061714172363
-20.913219451904297,-11.824130058288574,5.169188499450684
-20.892948150634766,-12.946932792663574,5.288562774658203
-21.942893981933594,-14.849652290344238,5.700839519500732
-21.919160842895508,-16.154338836669922,5.858673095703125
-21.893949508666992,-17.535545349121094,6.03549337387085
-21.86703872680664,-19.005077362060547,6.233667373657227
-21.84714126586914,-20.58542251586914,6.458709239959717
-21.807004928588867,-22.267852783203125,6.706086158752441
-21.804956436157227,-24.133136749267578,6.998170852661133
-21.767942428588867,-26.130006790161133,7.317536354064941
-21.727205276489258,-28.321367263793945,7.680392265319824
-20.58384895324707,-29.18816566467285,7.684828281402588
-20.535877227783203,-31.75615692138672,8.136998176574707
-19.906784057617188,-33.677330017089844,8.417400360107422
-23.910383224487305,-44.43374252319336,10.856856346130371
-22.44536781311035,-46.05449676513672,11.023472785949707
-21.964683532714844,-50.08252716064453,11.766744613647461
-21.246402740478516,-54.274253845214844,12.540763854980469
-24.790714263916016,-71.687255859375,16.320781707763672
-21.58259391784668,-71.60213470458984,16.090862274169922
-23.5723819732666,-91.3331069946289,20.295555114746094
9.720361709594727,-64.64952087402344,14.066598892211914
15.011276245117188,-78.2990493774414,17.153949737548828
16.598785400390625,-71.01921081542969,15.69258975982666
13.005684852600098,-47.03277587890625,10.499536514282227
13.280017852783203,-41.462745666503906,9.367711067199707
14.511383056640625,-39.73614501953125,9.102073669433594
12.955510139465332,-31.48835563659668,7.326204299926758
6.504335403442383,-14.16332721710205,3.353426218032837
14.094396591186523,-27.699325561523438,6.687082290649414
12.792107582092285,-22.82244300842285,5.629332542419434
12.75321102142334,-20.751855850219727,5.240839004516602
12.990616798400879,-19.350053787231445,5.014662265777588
13.921987533569336,-19.037593841552734,5.074638366699219
13.89289379119873,-17.478416442871094,4.804025650024414
12.137089729309082,-14.069856643676758,3.9980556964874268
6.596187114715576,-7.052713871002197,2.0777580738067627
6.9790167808532715,-6.885483741760254,2.1094470024108887
12.652384757995605,-11.51731014251709,3.681323766708374
12.635615348815918,-10.605914115905762,3.5495147705078125
12.016867637634277,-9.289950370788574,3.2681429386138916
12.77362060546875,-9.079237937927246,3.3719546794891357
10.594315528869629,-6.906936168670654,2.7211673259735107
15.356882095336914,-9.154536247253418,3.8468005657196045
16.724796295166016,-9.079973220825195,4.0947041511535645
18.281373977661133,-8.993762969970703,4.383731842041016
15.02488899230957,-6.655996799468994,3.535832405090332
22.169790267944336,-8.773616790771484,5.130095958709717
28.941701889038086,-10.128849029541016,6.597549915313721
21.55394744873047,-6.584151268005371,4.849184513092041
27.01142692565918,-7.078381538391113,6.008119106292725
21.360090255737305,-4.6892991065979,4.70536994934082
24.670162200927734,-4.3854475021362305,5.391348838806152
23.82288932800293,-3.2538223266601562,5.173418998718262
17.612781524658203,-1.68825364112854,3.8070058822631836
17.40482521057129,-0.9648621678352356,3.750641107559204
21.11442756652832,0.5275943279266357,4.5444841384887695
20.364381790161133,1.3289064168930054,4.391003131866455
19.633956909179688,2.0760397911071777,4.248072147369385
18.922107696533203,2.7732930183410645,4.114851951599121
18.22781753540039,3.4245352745056152,3.990586757659912
17.550146102905273,4.033258438110352,3.8745944499969482
16.888181686401367,4.602617263793945,3.7662594318389893
16.24105453491211,5.135467052459717,3.665025472640991
15.607934951782227,5.634392738342285,3.570387840270996
14.98804759979248,6.101742744445801,3.481889009475708
14.380640983581543,6.53964900970459,3.399113655090332
13.784998893737793,6.950049877166748,3.3216845989227295
13.187015533447266,7.327242851257324,3.245953321456909
12.361458778381348,7.533799648284912,3.114784002304077
11.809006690979004,7.864566802978516,3.0527822971343994
11.265588760375977,8.174444198608398,2.9948408603668213
10.730655670166016,8.464628219604492,2.9407262802124023
10.203678131103516,8.736215591430664,2.890226364135742
9.684148788452148,8.990195274353027,2.8431496620178223
9.171578407287598,9.227479934692383,2.79931902885437
8.665509223937988,9.448898315429688,2.758572816848755
8.165477752685547,9.655208587646484,2.720766544342041
7.671058654785156,9.847100257873535,2.685765504837036
7.181839942932129,10.02519702911377,2.653449296951294
6.697397232055664,10.190092086791992,2.6237049102783203
6.217344284057617,10.342284202575684,2.596435070037842
5.741306781768799,10.48224925994873,2.5715479850769043
5.200448989868164,10.47255802154541,2.5158462524414062
4.656631946563721,10.407224655151367,2.453195095062256
4.140040874481201,10.348995208740234,2.398298740386963
3.7247560024261475,10.5176362991333,2.4007370471954346
3.4241421222686768,11.062274932861328,2.4916181564331055
2.9375243186950684,11.042518615722656,2.4585845470428467
2.4814321994781494,11.106254577636719,2.44858455657959
2.0265860557556152,11.16010570526123,2.440523386001587
1.5726624727249146,11.204208374023438,2.4343738555908203
1.1193516254425049,11.238667488098145,2.430119276046753
0.6663301587104797,11.263550758361816,2.427746295928955
0.21328039467334747,11.278909683227539,2.427248001098633
-0.24630235135555267,11.575643539428711,2.491224527359009
-0.7120553255081177,11.571735382080078,2.4945290088653564
-1.178794264793396,11.558018684387207,2.499769926071167
-1.646864652633667,11.53442668914795,2.5069611072540283
-2.116594076156616,11.500852584838867,2.5161263942718506
-2.5883231163024902,11.45716381072998,2.5272929668426514
-3.0623929500579834,11.4031982421875,2.5404953956604004
-3.539151668548584,11.338757514953613,2.5557730197906494
-4.018953800201416,11.263612747192383,2.5731747150421143
-4.502180576324463,11.177488327026367,2.5927557945251465
-4.989197254180908,11.080087661743164,2.614577054977417
-5.480390548706055,10.97105598449707,2.638709783554077
-2.8761773109436035,11.17753791809082,2.5838940143585205
-3.3417575359344482,11.115797996520996,2.5985801219940186
-3.810044288635254,11.043461799621582,2.615365982055664
-4.281371593475342,10.960284233093262,2.6343021392822266
-4.756072521209717,10.865975379943848,2.655447483062744
-5.234491348266602,10.76021671295166,2.6788673400878906
-5.716978073120117,10.642644882202148,2.7046334743499756
-6.202867031097412,10.511116027832031,2.732374668121338
-6.694573879241943,10.368807792663574,2.763112783432007
-7.191472053527832,10.213334083557129,2.7964704036712646
-7.693966388702393,10.044160842895508,2.832555055618286
-8.202455520629883,9.860674858093262,2.871488094329834
-8.71735668182373,9.662222862243652,2.9134013652801514
-9.095512390136719,9.301217079162598,2.9124560356140137
-9.552992820739746,9.014375686645508,2.940523386001587
-10.078012466430664,8.771859169006348,2.991163969039917
-10.611132621765137,8.511434555053711,3.045372247695923
-11.15283203125,8.23210334777832,3.1033480167388916
-11.70365047454834,7.932737827301025,3.1653168201446533
-12.264118194580078,7.612127304077148,3.2315189838409424
-12.848604202270508,7.2767863273620605,3.3057732582092285
-13.43071174621582,6.909180164337158,3.3813424110412598
-14.324731826782227,6.655549049377441,3.536200761795044
-14.943307876586914,6.22587776184082,3.6241848468780518
-15.574875831604004,5.76626443862915,3.7181317806243896
-16.220165252685547,5.274555206298828,3.8184707164764404
-16.879907608032227,4.748380184173584,3.925670862197876
-17.554847717285156,4.185159206390381,4.040245056152344
-18.245820999145508,3.5820062160491943,4.162764072418213
-18.95361328125,2.935791492462158,4.293849945068359
-19.679094314575195,2.2430310249328613,4.434192657470703
-20.423128128051758,1.499886393547058,4.5845513343811035
-21.186614990234375,0.7021129131317139,4.745767116546631
-21.970458984375,-0.1549994796514511,4.918771266937256
-22.775585174560547,-1.0766375064849854,5.104588508605957
-23.10776710510254,-2.025197744369507,5.193092346191406
-23.940340042114258,-3.0714800357818604,5.403587341308594
-24.796377182006836,-4.199865341186523,5.630366325378418
-25.328960418701172,-5.344777584075928,5.795407295227051
-22.228334426879883,-5.631941318511963,5.1336259841918945
-28.102476119995117,-8.334953308105469,6.562335968017578
-24.915010452270508,-8.492528915405273,5.8929924964904785
-22.181842803955078,-8.570109367370605,5.323722839355469
-20.977394104003906,-9.08932113647461,5.118222236633301
-20.942537307739258,-10.091962814331055,5.20450496673584
-20.923694610595703,-11.13991641998291,5.306836128234863
-20.90398597717285,-12.231656074523926,5.422181129455566
-21.95518684387207,-14.060161590576172,5.8367509841918945
-21.93223762512207,-15.32170295715332,5.989570140838623
-21.907926559448242,-16.65320587158203,6.16079568862915
-21.88205337524414,-18.065357208251953,6.352629661560059
-21.854373931884766,-19.570690155029297,6.567707061767578
-21.93977165222168,-21.295921325683594,6.84514045715332
-21.792436599731445,-22.923603057861328,7.080989360809326
-21.789167404174805,-24.846925735473633,7.398528575897217
-21.750736236572266,-26.911333084106445,7.7465949058532715
-21.527067184448242,-28.939586639404297,8.074787139892578
-20.56402587890625,-30.098365783691406,8.160841941833496
-20.513744354248047,-32.77830505371094,8.656867980957031
-22.939695358276367,-40.15652084350586,10.35355281829834
-23.407806396484375,-45.09038543701172,11.373822212219238
-22.624208450317383,-48.22528839111328,11.925516128540039
-21.311084747314453,-50.62102127075195,12.296150207519531
-21.191282272338867,-56.59288024902344,13.528875350952148
-23.563058853149414,-71.55687713623047,16.866025924682617
-21.509775161743164,-75.39080810546875,17.551679611206055
-20.680131912231445,-85.3395004272461,19.65838623046875
10.064687728881836,-80.82199096679688,18.23382568359375
6.000225067138672,-36.241722106933594,8.22408390045166
14.895622253417969,-71.90982055664062,16.440610885620117
14.665746688842773,-58.7984619140625,13.56682300567627
14.489130020141602,-49.52526092529297,11.552253723144531
14.336762428283691,-42.57712173461914,10.057855606079102
12.908297538757324,-33.782413482666016,8.09636402130127
6.218889236450195,-14.499872207641602,3.5321359634399414
6.717428207397461,-14.073023796081543,3.4911231994628906
12.596805572509766,-23.8731632232666,6.043013095855713
12.852677345275879,-22.153440475463867,5.733865261077881
12.239460945129395,-19.269134521484375,5.110564708709717
13.192647933959961,-19.034610748291016,5.184848308563232
13.912708282470703,-18.444311141967773,5.172233581542969
13.884678840637207,-16.945756912231445,4.904576778411865
6.603958606719971,-7.429834365844727,2.2254486083984375
6.634344577789307,-6.8858466148376465,2.140669822692871
12.665050506591797,-12.129836082458496,3.926042318344116
12.647379875183105,-11.174189567565918,3.778252601623535
12.631020545959473,-10.286547660827637,3.6468758583068848
12.139976501464844,-9.100613594055176,3.396718978881836
13.751296997070312,-9.470255851745605,3.738011598587036
10.753108024597168,-6.785284519195557,2.846561908721924
15.793966293334961,-9.100266456604004,4.08082914352417
17.218921661376953,-9.020092010498047,4.351794719696045
18.84662437438965,-8.927061080932617,4.668692588806152
15.273926734924316,-6.496999740600586,3.715959072113037
22.942062377929688,-8.68785572052002,5.492106914520264
27.084728240966797,-9.030228614807129,6.391738414764404
21.56604766845703,-6.239608287811279,5.026130199432373
25.393421173095703,-6.253317356109619,5.854796409606934
22.401979446411133,-4.570764541625977,5.118584632873535
23.281814575195312,-3.7832541465759277,5.280599594116211
17.468280792236328,-2.122419595718384,3.939481019973755
17.148292541503906,-1.3873462677001953,3.851628065109253
17.101240158081055,-0.6937482953071594,3.8316993713378906
20.070165634155273,0.7995795011520386,4.4967875480651855
19.378463745117188,1.5535918474197388,4.352287769317627
18.702064514160156,2.258530855178833,4.217357635498047
18.040307998657227,2.918063163757324,4.091279983520508
17.392547607421875,3.535519599914551,3.973402738571167
16.758153915405273,4.113916873931885,3.8631362915039062
16.136493682861328,4.656002998352051,3.7599434852600098
15.526963233947754,5.164272308349609,3.6633353233337402
14.92896842956543,5.64100456237793,3.572868824005127
14.341933250427246,6.088270664215088,3.488138437271118
13.765299797058105,6.5079665184021,3.4087746143341064
13.198531150817871,6.901813983917236,3.334441661834717
12.641093254089355,7.271402359008789,3.2648298740386963
11.838823318481445,7.458358287811279,3.132538080215454
11.309892654418945,7.776806354522705,3.072829484939575
10.788667678833008,8.075385093688965,3.0169870853424072
10.274703979492188,8.355184555053711,2.964798927307129
9.767560005187988,8.617196083068848,2.9160726070404053
9.266825675964355,8.862329483032227,2.870631694793701
8.772092819213867,9.091409683227539,2.8283157348632812
8.28296947479248,9.305200576782227,2.7889764308929443
7.799069881439209,9.504401206970215,2.752478837966919
7.320037364959717,9.68963623046875,2.7187018394470215
6.845489978790283,9.861493110656738,2.6875321865081787
6.375090599060059,10.020502090454102,2.658867359161377
5.9084978103637695,10.16712760925293,2.632617712020874
5.445375442504883,10.301811218261719,2.6086978912353516
4.985400199890137,10.424942970275879,2.58703351020813
4.507569313049316,10.488753318786621,2.5558319091796875
3.994051218032837,10.430159568786621,2.5004067420959473
3.7561116218566895,11.128133773803711,2.629384994506836
3.158161163330078,10.765889167785645,2.5117831230163574
2.7109873294830322,10.835502624511719,2.5005764961242676
2.2651095390319824,10.89517593383789,2.491319417953491
1.8202418088912964,10.945052146911621,2.4839847087860107
0.9908719062805176,7.910129070281982,1.784724473953247
0.9323462843894958,11.015857696533203,2.474998950958252
0.4651254415512085,10.503540992736816,2.3537909984588623
0.04499088600277901,11.048524856567383,2.4735138416290283
-0.40950149297714233,11.335450172424316,2.5393853187561035
-0.8658910989761353,11.327707290649414,2.5433945655822754
-1.3233193159103394,11.31015396118164,2.5493390560150146
-1.7820976972579956,11.282712936401367,2.5572378635406494
-2.242520332336426,11.245272636413574,2.5671133995056152
-2.704904556274414,11.197698593139648,2.578993797302246
-3.1695644855499268,11.139814376831055,2.5929155349731445
-3.6368091106414795,11.071416854858398,2.6089205741882324
-4.106974124908447,10.992276191711426,2.627056360244751
-4.580389976501465,10.902112007141113,2.647379159927368
-5.057399749755859,10.800618171691895,2.6699512004852295
-5.538336277008057,10.687456130981445,2.6948413848876953
-6.023576259613037,10.562228202819824,2.7221298217773438
-6.512447357177734,10.422857284545898,2.751464605331421
-7.007386684417725,10.27230167388916,2.7838428020477295
-7.5077667236328125,10.108253479003906,2.818906545639038
-8.013995170593262,9.930124282836914,2.856773614883423
-8.526474952697754,9.73728084564209,2.8975703716278076
-9.045646667480469,9.52901840209961,2.9414377212524414
-9.36108684539795,9.099583625793457,2.9226903915405273
-9.883249282836914,8.863431930541992,2.9720616340637207
-10.413317680358887,8.609736442565918,3.0249288082122803
-10.951799392700195,8.337507247924805,3.0814900398254395
-11.499188423156738,8.045671463012695,3.1419577598571777
-12.05601692199707,7.733059883117676,3.206566333770752
-12.636451721191406,7.406347274780273,3.279100179672241
-13.214496612548828,7.047806739807129,3.3528635501861572
-14.099503517150879,6.807013034820557,3.50514554977417
-14.713438987731934,6.387904167175293,3.5910253524780273
-15.340137481689453,5.939582824707031,3.6827237606048584
-15.980268478393555,5.459987163543701,3.7806503772735596
-16.634580612182617,4.946829319000244,3.8852591514587402
-17.303831100463867,4.397596836090088,3.99704909324646
-17.98879051208496,3.809540271759033,4.116565227508545
-18.69026756286621,3.179614305496216,4.244410991668701
-19.409130096435547,2.504457712173462,4.381252765655518
-20.146207809448242,1.7803877592086792,4.527819633483887
-20.902402877807617,1.003305196762085,4.684924125671387
-21.67863655090332,0.16867615282535553,4.853461265563965
-22.475793838500977,-0.7284947633743286,5.034420967102051
-23.29480743408203,-1.6937757730484009,5.228903293609619
-23.630268096923828,-2.6760141849517822,5.324051856994629
-24.477527618408203,-3.773207902908325,5.544644832611084
-25.348800659179688,-4.957353591918945,5.782479286193848
-22.750253677368164,-5.406322479248047,5.235061168670654
-22.94809913635254,-6.4374189376831055,5.335833549499512
-26.098167419433594,-8.465801239013672,6.142454624176025
-23.099382400512695,-8.532997131347656,5.512949466705322
-21.89596176147461,-9.10394287109375,5.308800220489502
-20.949296951293945,-9.714970588684082,5.169797420501709
-20.93074607849121,-10.748241424560547,5.267600059509277
-20.9113712310791,-11.823087692260742,5.378005504608154
-20.89105987548828,-12.945767402648926,5.502190113067627
-21.940860748291016,-14.848273277282715,5.9311065673828125
-21.917072296142578,-16.152803421020508,6.095302104949951
-21.891799926757812,-17.53382110595703,6.279244422912598
-21.864822387695312,-19.003145217895508,6.485398769378662
-21.951082229614258,-20.68335723876953,6.7521820068359375
-21.804628372192383,-22.265417098999023,6.976842403411865
-21.802480697631836,-24.13039779663086,7.280688285827637
-21.765356063842773,-26.126903533935547,7.612907886505127
-21.724496841430664,-28.317829132080078,7.990360260009766
-20.581144332885742,-29.18433380126953,7.994924068450928
-20.533018112182617,-31.751747131347656,8.465274810791016
-23.73518943786621,-40.15402603149414,10.442553520202637
-23.906593322753906,-44.42671203613281,11.294644355773926
-22.441532135009766,-46.046607971191406,11.467833518981934
-21.92516326904297,-49.992427825927734,12.221136093139648
-21.24207878112793,-54.26319885253906,13.045859336853027
-24.74748992919922,-71.56231689453125,16.95198631286621
-21.54545783996582,-71.47898864746094,16.71355628967285
-23.32788848876953,-90.38579559326172,20.89825439453125
9.69971752166748,-64.51224517822266,14.605052947998047
15.018171310424805,-78.33501434326172,17.85668182373047
16.57096290588379,-70.90016174316406,16.300586700439453
14.607532501220703,-52.82558059692383,12.270181655883789
14.380925178527832,-44.899967193603516,10.555011749267578
14.486272811889648,-39.66737365722656,9.454211235046387
13.04319953918457,-31.701478958129883,7.674423694610596
6.495032787322998,-14.14306926727295,3.484210252761841
14.096912384033203,-27.704259872436523,6.959070682525635
12.867846488952637,-22.957557678222656,5.89193058013916
12.828581809997559,-20.874494552612305,5.485256195068359
12.827033996582031,-19.10638427734375,5.1519951820373535
13.826204299926758,-18.906612396240234,5.243775844573975
13.894675254821777,-17.48066520690918,4.999176025390625
12.173791885375977,-14.112410545349121,4.172510623931885
6.596954822540283,-7.0535359382629395,2.162135124206543
6.963278770446777,-6.869958877563477,2.189906358718872
12.653740882873535,-11.518547058105469,3.8307855129241943
12.636920928955078,-10.607008934020996,3.6936099529266357
12.01806926727295,-9.290874481201172,3.400803565979004
13.706299781799316,-9.742171287536621,3.7646560668945312
10.578144073486328,-6.896392345428467,2.8270208835601807
15.310911178588867,-9.127131462097168,3.9905693531036377
16.671510696411133,-9.051046371459961,4.246918678283691
18.219039916992188,-8.963094711303711,4.5456695556640625
14.996800422668457,-6.643553733825684,3.672114610671997
22.08137321472168,-8.738626480102539,5.316516876220703
27.405630111694336,-9.591261863708496,6.500332832336426
21.584125518798828,-6.593371391296387,5.052584648132324
25.699682235717773,-6.7346343994140625,5.947790145874023
21.165773391723633,-4.646639347076416,4.851343154907227
23.567598342895508,-4.189452171325684,5.358927249908447
22.799367904663086,-3.114025592803955,5.151615142822266
17.21928596496582,-1.6505346298217773,3.8726470470428467
17.11991310119629,-0.9490674138069153,3.8386154174804688
20.329557418823242,0.507982611656189,4.5527143478393555
19.63204574584961,1.281116247177124,4.40448522567749
18.9500675201416,2.0037267208099365,4.266108989715576
18.282978057861328,2.6796202659606934,4.136842250823975
17.6301212310791,3.312244176864624,4.0160088539123535
16.990869522094727,3.904728651046753,3.902998208999634
16.364578247070312,4.459917068481445,3.797252655029297
15.750639915466309,4.980396270751953,3.6982672214508057
15.148453712463379,5.468522548675537,3.6055822372436523
14.5574369430542,5.926438808441162,3.5187788009643555
13.977025985717773,6.356103420257568,3.4374747276306152
13.4066743850708,6.759307861328125,3.3613204956054688
12.845852851867676,7.137678623199463,3.289999485015869
12.036141395568848,7.335531711578369,3.1556050777435303
11.504255294799805,7.661606788635254,3.094412326812744
10.98023509979248,7.967390060424805,3.037168502807617
10.463644981384277,8.254003524780273,2.983654022216797
9.954034805297852,8.522473335266113,2.93367075920105
9.450983047485352,8.773737907409668,2.8870363235473633
8.954079627990723,9.008650779724121,2.8435847759246826
8.46292781829834,9.228004455566406,2.8031628131866455
7.977144241333008,9.432510375976562,2.765631675720215
7.4963531494140625,9.622834205627441,2.730863094329834
7.020199775695801,9.79956340789795,2.6987435817718506
6.548310279846191,9.963255882263184,2.669166088104248
6.080353260040283,10.114402770996094,2.642033815383911
5.615988731384277,10.253448486328125,2.617263078689575
5.15488338470459,10.380802154541016,2.594774007797241
4.696725845336914,10.496826171875,2.574498414993286
4.180847644805908,10.45099925994873,2.519995927810669
3.7255895137786865,10.51999282836914,2.498497486114502
3.409680128097534,11.015556335449219,2.581552505493164
2.8759255409240723,10.810966491699219,2.5044853687286377
2.4296042919158936,10.874289512634277,2.4945125579833984
1.9843952655792236,10.927769660949707,2.4864699840545654
1.5400035381317139,10.971529006958008,2.4803361892700195
1.0961469411849976,11.005668640136719,2.476091146469116
0.6525282859802246,11.03026008605957,2.4737234115600586
0.20886291563510895,11.045348167419434,2.473226308822632
-0.24120132625102997,11.33584213256836,2.5383920669555664
-0.697282612323761,11.331703186035156,2.541689872741699
-1.1542922258377075,11.317781448364258,2.5469179153442383
-1.612538456916809,11.294000625610352,2.5540928840637207
-2.0723190307617188,11.26026725769043,2.563235282897949
-2.533942699432373,11.216453552246094,2.574371337890625
-2.997727394104004,11.16240119934082,2.5875353813171387
-3.463981866836548,11.097909927368164,2.6027660369873047
-3.933015823364258,11.022764205932617,2.6201090812683105
-4.405195236206055,10.936704635620117,2.639617681503296
-4.88083553314209,10.839431762695312,2.661351203918457
-5.360284328460693,10.730622291564941,2.6853766441345215
-2.8165626525878906,10.945858001708984,2.629167318344116
-3.272106409072876,10.884115219116211,2.643798351287842
-3.7301347255706787,10.811833381652832,2.660517930984497
-4.1909379959106445,10.728768348693848,2.6793746948242188
-4.654820442199707,10.634651184082031,2.7004244327545166
-5.121097564697266,10.527124404907227,2.7232003211975098
-5.592040061950684,10.41005802154541,2.7488555908203125
-6.067011833190918,10.280900955200195,2.7769131660461426
-6.546334743499756,10.139209747314453,2.8074607849121094
-7.03035306930542,9.984512329101562,2.8405942916870117
-7.519410610198975,9.81628704071045,2.8764162063598633
-8.013867378234863,9.63395881652832,2.915043830871582
-8.514078140258789,9.436903953552246,2.956601142883301
-9.020418167114258,9.224425315856934,3.0012264251708984
-9.32325553894043,8.797591209411621,2.9818971157073975
-9.83157730102539,8.557360649108887,3.0319936275482178
-10.347073554992676,8.299628257751465,3.08557391166687
-10.87014389038086,8.023445129394531,3.142827033996582
-11.40123176574707,7.727757453918457,3.2039620876312256
-11.940765380859375,7.411427021026611,3.269205331802368
-12.502629280090332,7.080843448638916,3.342397928237915
-13.3408784866333,6.862968444824219,3.48991060256958
-13.92129135131836,6.468101978302002,3.570834159851074
-14.512274742126465,6.046295642852783,3.657116651535034
-15.114328384399414,5.595756530761719,3.7491142749786377
-15.727981567382812,5.114504814147949,3.847219228744507
-16.35377311706543,4.600376605987549,3.951859951019287
-16.992216110229492,4.051024436950684,4.063501834869385
-17.64389991760254,3.463837146759033,4.182661056518555
-18.309322357177734,2.8359944820404053,4.309896469116211
-18.989036560058594,2.1643784046173096,4.445824146270752
-19.683576583862305,1.4455736875534058,4.591117858886719
-20.393449783325195,0.6758278012275696,4.746520042419434
-21.1191349029541,-0.14899328351020813,4.91284704208374
-21.861051559448242,-1.0334068536758423,5.090989112854004
-22.14510154724121,-1.9408286809921265,5.171130180358887
-22.904319763183594,-2.9385597705841064,5.371664047241211
-23.680299758911133,-4.010830402374268,5.586956977844238
-24.47314453125,-5.164180755615234,5.818295955657959
-21.323226928710938,-5.402617931365967,5.116937637329102
-21.762102127075195,-6.454457759857178,5.280259132385254
-24.792787551879883,-8.45086669921875,6.0931243896484375
-22.179996490478516,-8.569397926330566,5.531198978424072
-20.9588565826416,-9.081284523010254,5.313429355621338
-20.94074058532715,-10.091095924377441,5.407318115234375
-20.921865463256836,-11.138943672180176,5.5136284828186035
-20.902116775512695,-12.23056411743164,5.633458137512207
-21.953176498413086,-14.05887222290039,6.0641679763793945
-21.930177688598633,-15.32026195526123,6.222926139831543
-21.90580940246582,-16.651592254638672,6.4008026123046875
-21.879871368408203,-18.06355094909668,6.600091934204102
-21.852121353149414,-19.568675994873047,6.823525905609131
-21.937427520751953,-21.293643951416016,7.111735820770264
-21.790016174316406,-22.921049118041992,7.356738090515137
-21.786643981933594,-24.84404754638672,7.686609745025635
-21.748096466064453,-26.908063888549805,8.04818344116211
-21.482830047607422,-28.880125045776367,8.372930526733398
-20.561256408691406,-30.09432029724121,8.478447914123535
-20.510814666748047,-32.77363204956055,8.993705749511719
-22.8961124420166,-40.0802001953125,10.737493515014648
-23.364273071289062,-45.006526947021484,11.79608154296875
-22.599634170532227,-48.17290496826172,12.377842903137207
-21.30698013305664,-50.611297607421875,12.773958206176758
-21.186792373657227,-56.58089828491211,14.05431079864502
-23.52210807800293,-71.43255615234375,17.49432945251465
-21.47287940979004,-75.2614517211914,18.20592498779297
-20.67377471923828,-85.31324768066406,20.419923782348633
-18.59868812561035,-92.91255950927734,22.042057037353516
-14.738266944885254,-92.87271118164062,21.874361038208008
5.988326549530029,-36.169830322265625,8.528348922729492
14.674455642700195,-70.84208679199219,16.829099655151367
14.670875549316406,-58.81901550292969,14.101649284362793
14.493447303771973,-49.54001998901367,12.007035255432129
14.340486526489258,-42.58816146850586,10.45340633392334
13.029598236083984,-34.09988784790039,8.491643905639648
6.215436935424805,-14.491817474365234,3.6680550575256348
6.7058024406433105,-14.048666000366211,3.6212000846862793
12.723392486572266,-24.113067626953125,6.342142105102539
12.854748725891113,-22.15700912475586,5.958778381347656
12.241301536560059,-19.272031784057617,5.310975074768066
13.111117362976074,-18.916976928710938,5.354061603546143
13.91456127166748,-18.4467716217041,5.374967098236084
13.886433601379395,-16.94789695739746,5.09678316116333
6.604753017425537,-7.430726051330566,2.3126473426818848
6.619699478149414,-6.8706464767456055,2.2193703651428223
12.666446685791016,-12.131171226501465,4.079833984375
12.648723602294922,-11.175376892089844,3.9262397289276123
12.632314682006836,-10.287603378295898,3.7897043228149414
13.008800506591797,-9.75191879272461,3.781975030899048
13.752619743347168,-9.471163749694824,3.8843834400177
10.736542701721191,-6.774832248687744,2.953186273574829
15.74557876586914,-9.072391510009766,4.227229595184326
17.162683486938477,-8.990633964538574,4.506998062133789
18.780603408813477,-8.89578914642334,4.834048748016357
15.24498176574707,-6.48468542098999,3.8537793159484863
22.847585678100586,-8.652076721191406,5.683117866516113
25.7365779876709,-8.580741882324219,6.3108062744140625
21.526079177856445,-6.2280449867248535,5.212761878967285
19.83713150024414,-4.885047912597656,4.752366542816162
22.256149291992188,-4.541010856628418,5.283883571624756
22.296236038208008,-3.6230993270874023,5.254578590393066
17.17571258544922,-2.0868728160858154,4.024792194366455
16.853195190429688,-1.3634721040725708,3.933194637298584
16.83160400390625,-0.6828098893165588,3.9185826778411865
19.356828689575195,0.7711604237556458,4.506352424621582
18.711078643798828,1.5000861883163452,4.366532325744629
18.077274322509766,2.1830780506134033,4.235682964324951
17.455053329467773,2.823396682739258,4.113165855407715
16.84405517578125,3.4240214824676514,3.9983954429626465
16.243879318237305,3.98766827583313,3.890840530395508
15.654130935668945,4.516820907592773,3.7900137901306152
15.074397087097168,5.013748645782471,3.695472240447998
14.504271507263184,5.480530738830566,3.6068079471588135
13.943341255187988,5.919066429138184,3.5236499309539795
13.391205787658691,6.331101894378662,3.4456570148468018
12.84744930267334,6.718225479125977,3.372519016265869
12.311681747436523,7.081916332244873,3.3039462566375732
11.560956954956055,7.283308982849121,3.178495168685913
11.026269912719727,7.581783771514893,3.1127800941467285
10.52291488647461,7.876465797424316,3.0576047897338867
10.025879859924316,8.15284538269043,3.005995273590088
9.534814834594727,8.411861419677734,2.957768678665161
9.049370765686035,8.654365539550781,2.9127602577209473
8.569211959838867,8.881145477294922,2.8708152770996094
8.094003677368164,9.092915534973145,2.831796169281006
7.623417854309082,9.29034423828125,2.7955732345581055
7.157150745391846,9.47402286529541,2.762031078338623
6.6948723793029785,9.644518852233887,2.731060743331909
6.236286163330078,9.802327156066895,2.702566385269165
5.781096458435059,9.947900772094727,2.676460027694702
5.329003810882568,10.081653594970703,2.6526620388031006
4.879721641540527,10.203968048095703,2.631099224090576
4.432971000671387,10.315167427062988,2.611708879470825
3.9884631633758545,10.41556167602539,2.5944325923919678
3.5459234714508057,10.505412101745605,2.579219341278076
3.101743459701538,10.573563575744629,2.5632638931274414
2.66280198097229,10.642918586730957,2.552062749862671
2.2186570167541504,10.67174243927002,2.535538673400879
1.7830193042755127,10.72124195098877,2.528226375579834
0.9926769137382507,7.924535274505615,1.8578089475631714
0.9133498668670654,10.791399002075195,2.5192673206329346
0.4659643769264221,10.522502899169922,2.4501395225524902
0.044073883444070816,10.823532104492188,2.517786741256714
-0.40115636587142944,11.104462623596191,2.584801435470581
-0.8482187390327454,11.096519470214844,2.588798761367798
-1.296250820159912,11.078798294067383,2.594726085662842
-1.7455323934555054,11.051217079162598,2.60260009765625
-2.1963348388671875,11.013673782348633,2.612443685531616
-2.648942470550537,10.966031074523926,2.624283790588379
-3.103644371032715,10.90812873840332,2.638155937194824
-3.5607120990753174,10.839762687683105,2.6540989875793457
-4.020454406738281,10.760708808898926,2.6721608638763428
-4.483165740966797,10.670705795288086,2.6923930644989014
-4.949152946472168,10.569458961486816,2.714857339859009
-5.417707443237305,10.454667091369629,2.739107847213745
-5.891152381896973,10.330022811889648,2.7662694454193115
-6.368836402893066,10.193009376525879,2.795886993408203
-6.8510847091674805,10.043174743652344,2.8280532360076904
-7.338238716125488,9.88000774383545,2.8628697395324707
-7.83065938949585,9.70295524597168,2.9004480838775635
-8.328695297241211,9.5114164352417,2.9409077167510986
-8.832724571228027,9.304717063903809,2.9843833446502686
