-39.26838302612305,18.767648696899414,6.006106853485107
-40.83529281616211,17.5378360748291,6.132968902587891
-43.36663055419922,16.59495735168457,6.407763481140137
-46.14659881591797,15.564065933227539,6.720644950866699
-48.16166687011719,14.116035461425781,6.92586612701416
-47.1957893371582,11.79648208618164,6.713346004486084
-46.241119384765625,9.602316856384277,6.517372131347656
-45.380760192871094,7.536287307739258,6.348280906677246
-46.69729995727539,5.838554382324219,6.494365692138672
-49.96902847290039,4.21749210357666,6.920203685760498
-81.07107543945312,3.57112979888916,11.19858455657959
-81.40108489990234,0.3124728202819824,11.23336124420166
-80.05862426757812,-2.9108023643493652,11.05532455444336
-84.39932250976562,-6.471242904663086,11.681219100952148
-87.82318878173828,-10.296331405639648,12.202529907226562
-64.3516845703125,-10.179643630981445,8.990903854370117
-80.0498046875,-15.98284912109375,11.264841079711914
70.26751708984375,60.643470764160156,12.808786392211914
68.6815414428711,64.26579284667969,12.980175018310547
50.4399299621582,51.14896774291992,9.913307189941406
47.707550048828125,52.433837890625,9.782697677612305
44.365970611572266,52.88153839111328,9.52574634552002
43.17763137817383,55.87873458862305,9.745071411132812
41.55656433105469,58.494998931884766,9.901973724365234
39.88032150268555,61.20231628417969,10.080706596374512
36.62481689453125,61.471351623535156,9.874517440795898
32.025306701660156,59.02168655395508,9.266708374023438
29.65082359313965,60.30591583251953,9.273679733276367
26.44082260131836,59.723548889160156,9.013379096984863
23.38279151916504,59.12547302246094,8.774163246154785
20.472990036010742,58.5421142578125,8.55853271484375
17.692813873291016,57.967533111572266,8.363778114318848
15.021371841430664,57.3765754699707,8.18476390838623
8.49197006225586,38.72456741333008,5.470942497253418
9.973532676696777,56.18159103393555,7.87422513961792
7.577604293823242,55.5760498046875,7.740401744842529
5.255614757537842,54.96410369873047,7.619586944580078
3.000037670135498,54.34495162963867,7.510969161987305
0.8037691116333008,53.70440673828125,7.411983489990234
-0.9279763698577881,36.79294204711914,5.079010009765625
-2.4264421463012695,37.04979705810547,5.1237921714782715
-4.005425930023193,37.79639434814453,5.245073318481445
-5.463170051574707,37.214332580566406,5.190591335296631
-6.905430793762207,36.70835494995117,5.154577255249023
-9.564559936523438,41.57430648803711,5.887088775634766
-11.34142780303955,41.57623291015625,5.94712495803833
-15.280906677246094,48.28702926635742,6.989272117614746
-17.177854537963867,47.549903869628906,6.97690486907959
-19.0662841796875,46.80225372314453,6.974033355712891
-20.647716522216797,45.37602996826172,6.879660606384277
-22.70451545715332,45.00685119628906,6.956457614898682
-24.565059661865234,44.1860237121582,6.97659969329834
-26.554636001586914,43.548072814941406,7.038744926452637
-28.432376861572266,42.670989990234375,7.076024532318115
-30.319936752319336,41.764888763427734,7.122155666351318
-32.221160888671875,40.82740783691406,7.17739200592041
-21.861059188842773,44.49171829223633,7.261285305023193
-23.69072914123535,43.68836212158203,7.27972936630249
-25.643630981445312,43.065895080566406,7.3418684005737305
-27.486896514892578,42.20671844482422,7.377826690673828
-29.337980270385742,41.31884002685547,7.422807693481445
-31.200469970703125,40.400081634521484,7.477056980133057
-32.93914794921875,39.28220748901367,7.509188652038574
-34.82833480834961,38.29873275756836,7.58272123336792
-36.68963623046875,37.22477340698242,7.65593957901001
-37.72547912597656,35.31841278076172,7.569690227508545
-38.87420654296875,33.56757736206055,7.523318767547607
-34.26650619506836,27.264705657958984,6.414281845092773
-34.473045349121094,25.235855102539062,6.257969856262207
-34.661373138427734,23.294631958007812,6.117207050323486
-34.83314895629883,21.430606842041016,5.990625381469727
-41.042720794677734,23.03124237060547,6.893740177154541
-39.92152786254883,20.338279724121094,6.562780857086182
-39.536231994628906,18.180137634277344,6.374136924743652
-41.95139694213867,17.284589767456055,6.646115303039551
-44.592796325683594,16.309925079345703,6.955073356628418
-47.219303131103516,15.149459838867188,7.263864994049072
-47.72400665283203,13.222162246704102,7.253873348236084
-46.85280990600586,10.974907875061035,7.0486955642700195
-45.91724395751953,8.82659912109375,6.849029064178467
-44.5001335144043,6.7132368087768555,6.592071056365967
-47.45038986206055,5.2190046310424805,6.992376327514648
-50.819034576416016,3.5308175086975098,7.46183967590332
-80.45314025878906,2.3486995697021484,11.789670944213867
-80.8989486694336,-0.8896408081054688,11.85067367553711
-79.57191467285156,-4.0759477615356445,11.670856475830078
-87.48953247070312,-8.015340805053711,12.868999481201172
-87.29933166503906,-11.55022144317627,12.898904800415039
-69.56717681884766,-12.065128326416016,10.342206954956055
75.43568420410156,61.838375091552734,14.28786563873291
69.65230560302734,61.93902587890625,13.653081893920898
65.40253448486328,63.04313278198242,13.306116104125977
48.86375045776367,51.043540954589844,10.350458145141602
46.18947219848633,52.30354690551758,10.221144676208496
44.200992584228516,54.30096435546875,10.255921363830566
36.281497955322266,48.42205047607422,8.862910270690918
40.969078063964844,59.51885986328125,10.583978652954102
34.1579475402832,54.1604118347168,9.379331588745117
34.489933013916016,59.891273498535156,10.123464584350586
31.07942008972168,59.362709045410156,9.814994812011719
27.849285125732422,58.8302001953125,9.534128189086914
24.773754119873047,58.278770446777344,9.275863647460938
21.849510192871094,57.73876953125,9.042792320251465
19.05341339111328,57.19194030761719,8.83005142211914
16.372920989990234,56.639381408691406,8.63613510131836
13.7994966506958,56.09309768676758,8.461406707763672
7.912540435791016,38.826576232910156,5.80415678024292
8.916847229003906,54.95448684692383,8.154919624328613
6.593594551086426,54.37367248535156,8.022906303405762
4.338657379150391,53.78432846069336,7.903834342956543
2.1446216106414795,53.17262268066406,7.79496955871582
0.00523686408996582,40.39183807373047,5.916533470153809
-1.436906099319458,35.85706329345703,5.256499290466309
-2.9859604835510254,37.1359977722168,5.457178115844727
-4.527139186859131,37.41426467895508,5.520354747772217
-5.967647552490234,36.839107513427734,5.466475963592529
-8.080450057983398,39.703338623046875,5.934906959533691
-10.060749053955078,40.94146728515625,6.175455570220947
-11.820361137390137,40.93046951293945,6.240438938140869
-15.725740432739258,47.2443962097168,7.293584823608398
-17.587854385375977,46.51360321044922,7.2840375900268555
-17.943180084228516,42.24072265625,6.722444534301758
-21.185022354125977,44.782432556152344,7.256634712219238
-23.015291213989258,43.987754821777344,7.271921634674072
-24.964330673217773,43.37626266479492,7.3308305740356445
-26.80562973022461,42.52716064453125,7.363510608673096
-28.65336799621582,41.650146484375,7.405132293701172
-30.51124382019043,40.7430419921875,7.455931186676025
-32.382896423339844,39.803558349609375,7.516181945800781
-34.12833786010742,38.66619110107422,7.554393768310547
-35.134552001953125,36.72103500366211,7.444323539733887
-37.37603759765625,36.046478271484375,7.60605001449585
-38.32759094238281,34.10110092163086,7.514618873596191
-35.42927932739258,29.058557510375977,6.711899757385254
-34.39900588989258,25.974109649658203,6.313792705535889
-34.59384536743164,24.001855850219727,6.16746187210083
-34.77155685424805,22.1104736328125,6.03579044342041
-41.486106872558594,24.096206665039062,7.027491569519043
-40.32276916503906,21.30199432373047,6.679966449737549
-39.26741027832031,18.76719093322754,6.374987602233887
-40.78955841064453,17.51819610595703,6.502513885498047
-43.58864212036133,16.679906845092773,6.836305618286133
-46.394432067871094,15.647653579711914,7.171899318695068
-48.16063690185547,14.115739822387695,7.351262092590332
-47.1948127746582,11.796243667602539,7.125693321228027
-46.24018859863281,9.602131843566895,6.917691230773926
-45.3798713684082,7.536135673522949,6.7382121086120605
-46.30787658691406,5.789862632751465,6.835921287536621
-49.52523422241211,4.1800384521484375,7.280174732208252
-53.18206787109375,2.342636823654175,7.797579288482666
-81.39962005615234,0.31247806549072266,11.923378944396973
-80.05718994140625,-2.9107556343078613,11.734402656555176
-85.29935455322266,-6.540257453918457,12.531185150146484
-87.7708740234375,-10.290210723876953,12.94459342956543
-64.38491821289062,-10.184907913208008,9.548274040222168
-80.0698471069336,-15.986851692199707,11.959994316101074
60.96622848510742,48.48286056518555,11.409784317016602
70.26875305175781,60.64453125,13.59605598449707
65.95912170410156,61.71841812133789,13.231603622436523
49.86492919921875,50.565879821777344,10.402473449707031
47.17078399658203,51.843894958496094,10.266961097717285
44.391597747802734,52.912071228027344,10.116890907287598
43.202919006347656,55.91145324707031,10.349905014038086
41.581298828125,58.52980422973633,10.516651153564453
39.49386215209961,60.609230041503906,10.59642219543457
34.859375,58.50820541381836,9.976011276245117
32.00107192993164,58.977020263671875,9.828649520874023
29.02214813232422,59.02729797363281,9.634787559509277
25.889141082763672,58.47748565673828,9.367597579956055
22.91370964050293,57.93931579589844,9.12644100189209
20.0716552734375,57.39447784423828,8.906320571899414
17.34992027282715,56.844093322753906,8.705642700195312
14.736299514770508,56.28767776489258,8.522807121276855
8.419570922851562,38.394378662109375,5.757587909698486
9.793420791625977,55.166927337646484,8.207103729248047
7.44305419921875,54.589073181152344,8.070100784301758
5.1637115478515625,54.00295639038086,7.946342945098877
2.9483137130737305,53.4079475402832,7.835019111633301
0.6626386642456055,44.27437210083008,6.485966205596924
-0.9045039415359497,35.86212158203125,5.254697322845459
-2.40051007270813,36.653831481933594,5.380500316619873
-3.9876177310943604,37.62845230102539,5.5426201820373535
-5.439140319824219,37.05068588256836,5.485294342041016
-6.873589515686035,36.53908920288086,5.446069717407227
-9.418878555297852,40.941070556640625,6.1536383628845215
-11.166943550109863,40.93661117553711,6.215427398681641
-12.947731018066406,40.914283752441406,6.2859978675842285
-16.902326583862305,46.78721618652344,7.28681755065918
-18.760669708251953,46.05205154418945,7.283895492553711
-20.276832580566406,44.561004638671875,7.171209335327148
-22.339784622192383,44.28386688232422,7.26528263092041
-24.16933822631836,43.47419738769531,7.285977363586426
-26.125211715698242,42.84382247924805,7.350410461425781
-27.97017478942871,41.977325439453125,7.388713836669922
-29.82388687133789,41.08160400390625,7.436089515686035
-31.689998626708984,40.15436935424805,7.492809772491455
-21.51479721069336,43.78700637817383,7.5609588623046875
-23.31454086303711,42.9946403503418,7.579863548278809
-25.23500633239746,42.37965774536133,7.644133567810059
-27.046802520751953,41.53093719482422,7.680968284606934
-28.865421295166016,40.6533203125,7.727041244506836
-30.69430160522461,39.74468231201172,7.782595157623291
-32.400184631347656,38.63945007324219,7.81493616104126
-34.252967834472656,37.66603088378906,7.890199661254883
-36.01945114135742,36.5448112487793,7.952249526977539
-37.18486022949219,34.81230545043945,7.894184589385986
-36.42514419555664,31.45280647277832,7.4584221839904785
-34.88731384277344,27.758649826049805,6.90944242477417
-34.15803527832031,25.0052547454834,6.560612678527832
-34.35170364379883,23.086519241333008,6.414359092712402
-34.528324127197266,21.243072509765625,6.2827887535095215
-41.0416145324707,23.030628204345703,7.293580532073975
-39.92049789428711,20.337753295898438,6.943429946899414
-39.72631072998047,18.267541885375977,6.7764434814453125
-41.95034408569336,17.284149169921875,7.031604766845703
-44.82683563232422,16.395519256591797,7.3972859382629395
-47.16294860839844,15.131391525268555,7.676209926605225
-47.722991943359375,13.221871376037598,7.674640655517578
-46.85184097290039,10.97468376159668,7.457568645477295
-45.91632080078125,8.826425552368164,7.246326923370361
-45.072303771972656,6.799553871154785,7.064279556274414
-47.04806900024414,5.174759864807129,7.335410118103027
-50.3594970703125,3.4988911151885986,7.823451995849609
-79.80511474609375,2.329784393310547,12.37334156036377
-80.89749145507812,-0.8896274566650391,12.538125991821289
-79.57049560546875,-4.0758771896362305,12.347874641418457
-86.53497314453125,-7.927889823913574,13.467222213745117
-87.24734497070312,-11.543340682983398,13.639284133911133
-69.69982147216797,-12.088125228881836,10.963214874267578
71.21442413330078,58.37800598144531,14.271053314208984
67.0888442993164,59.65943145751953,13.913715362548828
63.9942512512207,61.68568420410156,13.77511978149414
48.314395904541016,50.46967697143555,10.827964782714844
45.67658615112305,51.722782135009766,10.694192886352539
44.226722717285156,54.33256912231445,10.857378959655762
36.34886932373047,48.51197052001953,9.394627571105957
40.95520782470703,59.49871826171875,11.19436264038086
34.15864181518555,54.161521911621094,9.923805236816406
33.736534118652344,58.58299255371094,10.476947784423828
30.420759201049805,58.10466384887695,10.164468765258789
27.2756404876709,57.61837387084961,9.879594802856445
24.277511596679688,57.11140441894531,9.617546081542969
21.385025024414062,56.51129913330078,9.364139556884766
18.68927764892578,56.09894943237305,9.163908004760742
16.0667667388916,55.580291748046875,8.966419219970703
13.54325008392334,55.05153274536133,8.786182403564453
7.844944477081299,38.49489212036133,6.088498115539551
8.759273529052734,53.983360290527344,8.475667953491211
6.478915214538574,53.428070068359375,8.340849876403809
4.264305114746094,52.86265182495117,8.219171524047852
2.108363389968872,52.273536682128906,8.1078462600708
0.004972696304321289,38.37360382080078,5.947080612182617
-1.4220232963562012,35.485652923583984,5.5039215087890625
-2.953866720199585,36.736812591552734,5.711788177490234
-4.507149696350098,37.2490119934082,5.814899921417236
-5.941534996032715,36.677982330322266,5.758392810821533
-8.081141471862793,39.706764221191406,6.279839992523193
-9.908905029296875,40.323585510253906,6.43520450592041
-11.640134811401367,40.306373596191406,6.501887798309326
-15.476645469665527,46.49604797363281,7.594583034515381
-17.310344696044922,45.77970886230469,7.5851287841796875
-17.984710693359375,42.33848571777344,7.129006385803223
-20.94867515563965,44.282814025878906,7.5920610427856445
-22.650217056274414,43.29001235961914,7.571861267089844
-24.567119598388672,42.686119079589844,7.632822036743164
-26.377248764038086,41.84756088256836,7.6663007736206055
-28.192914962768555,40.98085403442383,7.708940505981445
-30.017641067504883,40.08390426635742,7.760967254638672
-31.854848861694336,39.154502868652344,7.822656154632568
-33.56660079956055,38.0297737121582,7.861207962036133
-34.418033599853516,35.972171783447266,7.715678691864014
-36.764434814453125,35.456634521484375,7.915731430053711
-37.784454345703125,33.61783981323242,7.838013648986816
-35.428016662597656,29.057514190673828,7.101134300231934
-34.08189392089844,25.73467254638672,6.618589401245117
-34.28226852416992,23.78566551208496,6.466578483581543
-34.464996337890625,21.915538787841797,6.329737186431885
-41.484962463378906,24.095542907714844,7.435085296630859
-40.32170867919922,21.301433563232422,7.0674052238464355
-39.266422271728516,18.76671028137207,6.7447509765625
-41.23782730102539,17.71071434020996,6.9554524421691895
-43.8134880065918,16.765941619873047,7.27031946182251
-46.43473815917969,15.661249160766602,7.59467077255249
-48.15959930419922,14.115422248840332,7.777678489685059
-47.12177658081055,11.77798080444336,7.527523517608643
-46.28411865234375,9.611257553100586,7.3260650634765625
-45.37897872924805,7.535991668701172,7.129088401794434
-45.923980712890625,5.741858005523682,7.172642230987549
-49.08821105957031,4.143149375915527,7.634663105010986
-52.679718017578125,2.32051420211792,8.172135353088379
-79.41107940673828,0.30484771728515625,12.307092666625977
-80.05577087402344,-2.910700798034668,12.415119171142578
-86.38993835449219,-6.623875617980957,13.427867889404297
-87.76935577392578,-10.290027618408203,13.695512771606445
-64.41828155517578,-10.190177917480469,10.107582092285156
60.788848876953125,48.341796875,12.036759376525879
70.21314239501953,60.596561431884766,14.373632431030273
66.08368682861328,61.8349609375,14.025864601135254
49.30152130126953,49.99456787109375,10.881767272949219
46.64469909667969,51.265689849853516,10.741584777832031
44.803077697753906,53.40256118774414,10.80317497253418
43.228294372558594,55.94428634643555,10.956928253173828
41.60612106323242,58.564720153808594,11.133551597595215
38.59176254272461,59.224830627441406,10.955235481262207
35.00792694091797,58.757564544677734,10.599893569946289
31.624067306518555,58.28218460083008,10.27647590637207
28.41814422607422,57.79883575439453,9.981731414794922
25.365550994873047,57.29478454589844,9.710735321044922
22.422531127929688,56.69731140136719,9.449052810668945
19.684825897216797,56.288333892822266,9.241534233093262
17.022933959960938,55.77277374267578,9.037227630615234
14.46428108215332,55.24870681762695,8.850931167602539
8.348211288452148,38.06899642944336,6.040067195892334
6.982561111450195,39.33327102661133,6.191115379333496
7.312863349914551,53.63424301147461,8.389058113098145
5.074764728546143,53.07261657714844,8.262624740600586
2.897477149963379,52.48746109008789,8.146799087524414
0.6265177726745605,41.8608512878418,6.488254547119141
-0.8863400220870972,35.142086029052734,5.447995185852051
-2.3750691413879395,36.26531982421875,5.632381439208984
-3.9699440002441406,37.461578369140625,5.838245391845703
-5.415265083312988,36.8880729675293,5.778131008148193
-6.841961860656738,36.370975494384766,5.7355852127075195
-9.277223587036133,40.325347900390625,6.412814617156982
-10.997331619262695,40.31486892700195,6.476223945617676
-12.748885154724121,40.28593826293945,6.5486249923706055
-16.635549545288086,46.048736572265625,7.587971210479736
-18.463993072509766,45.32378387451172,7.5847015380859375
-19.966617584228516,43.8792724609375,7.471269607543945
-21.985750198364258,43.582061767578125,7.565057277679443
-23.785232543945312,42.78329849243164,7.586260795593262
-25.70842742919922,42.16035461425781,7.652884006500244
-27.521692276000977,41.304256439208984,7.692120552062988
-29.342662811279297,40.41872024536133,7.740649223327637
-31.17482566833496,39.50159454345703,7.798732757568359
-21.17847442626953,43.10254669189453,7.852023601531982
-22.949199676513672,42.32088851928711,7.8713531494140625
-24.838207244873047,41.71327209472656,7.937654495239258
-26.61948585510254,40.87479782104492,7.975304126739502
-28.40669059753418,40.007240295410156,8.022383689880371
-30.203054428100586,39.10857391357422,8.079139709472656
-31.86020278930664,37.9954948425293,8.107259750366211
-33.676876068115234,37.032535552978516,8.184065818786621
-35.461063385009766,35.97829055786133,8.259469032287598
-36.621498107910156,34.28486633300781,8.202083587646484
-36.42379379272461,31.451658248901367,7.868252754211426
-34.8861083984375,27.75769805908203,7.289122581481934
-33.84794998168945,24.77825164794922,6.8585286140441895
-34.04674530029297,22.881563186645508,6.706991195678711
-34.228031158447266,21.05832290649414,6.570616245269775
-41.040496826171875,23.02998924255371,7.694424152374268
-39.919464111328125,20.337223052978516,7.325043678283691
-39.918731689453125,18.356014251708984,7.183692455291748
-42.12095642089844,17.354448318481445,7.448426246643066
-44.410858154296875,16.243377685546875,7.731632232666016
-46.90785217285156,15.049541473388672,8.054500579833984
-47.794944763183594,13.241817474365234,8.10886001586914
-46.85087585449219,10.974456787109375,7.8674845695495605
-45.959964752197266,8.83482551574707,7.6520466804504395
-45.07143020629883,6.799423694610596,7.452581405639648
-46.651527404785156,5.131137847900391,7.673537731170654
-49.90705108642578,3.4674532413482666,8.179488182067871
-53.61262893676758,1.5651330947875977,8.769413948059082
-78.7861557006836,-0.8664116859436035,12.882336616516113
-80.01547241210938,-4.098657131195068,13.099702835083008
-85.79019927978516,-7.859654903411865,14.085467338562012
-87.2458267211914,-11.543142318725586,14.389022827148438
78.59595489501953,59.314449310302734,16.099201202392578
71.15806579589844,58.33179473876953,15.043864250183105
67.12657165527344,59.692989349365234,14.687057495117188
62.2031135559082,59.959163665771484,14.12582778930664
47.775882720947266,49.90715026855469,11.296045303344727
51.38202667236328,58.18345260620117,12.691487312316895
44.25254440307617,54.364280700683594,11.461082458496094
36.416664123535156,48.60245132446289,9.929697036743164
40.029685974121094,58.15412902832031,11.543022155761719
34.17056655883789,54.18044662475586,10.473148345947266
33.013519287109375,57.327491760253906,10.816169738769531
29.787839889526367,56.8957633972168,10.500286102294922
26.71778106689453,56.4399528503418,10.20968246459961
23.833160400390625,56.0660514831543,9.960674285888672
21.416603088378906,56.59477615356445,9.893636703491211
18.371795654296875,55.14600372314453,9.503573417663574
15.771093368530273,54.55748748779297,9.28538703918457
9.11297607421875,37.042972564697266,6.237118721008301
7.778317928314209,38.16799545288086,6.368743896484375
8.606786727905273,53.0435791015625,8.786059379577637
6.367891311645508,52.51250076293945,8.648698806762695
4.192285060882568,51.969757080078125,8.524664878845215
2.0732078552246094,51.40140151977539,8.410972595214844
0.0047376155853271484,36.54301071166992,5.974793434143066
-1.407399296760559,35.12092208862305,5.746888160705566
-2.922363758087158,36.34511184692383,5.961616516113281
-4.487274169921875,37.08479690551758,6.107601165771484
-5.915599822998047,36.51784133911133,6.04850959777832
-8.0818452835083,39.71022033691406,6.625733852386475
-9.761212348937988,39.72256851196289,6.687871932983398
-11.464863777160645,39.69947814941406,6.75612735748291
-15.234704971313477,45.76918029785156,7.886940956115723
-17.040109634399414,45.06501770019531,7.877288818359375
-18.027273178100586,42.43869400024414,7.5388078689575195
-20.621417999267578,43.591026306152344,7.884402275085449
-22.29564666748047,42.612335205078125,7.863175392150879
-24.18138885498047,42.01589584350586,7.9260945320129395
-25.9613037109375,41.18765640258789,7.9603166580200195
-27.74590492248535,40.33106994628906,8.003890991210938
-29.53852653503418,39.44413757324219,8.057040214538574
-31.343687057495117,38.526214599609375,8.120378494262695
-33.00403594970703,37.392398834228516,8.154483795166016
-34.178436279296875,35.721744537353516,8.083279609680176
-36.179927825927734,34.89292526245117,8.218225479125977
-37.22518539428711,33.12024688720703,8.146615982055664
-35.426753997802734,29.05647850036621,7.491332530975342
-33.76978302001953,25.49900245666504,6.918591499328613
-33.9754638671875,23.572799682617188,6.761104583740234
-34.16303634643555,21.723533630371094,6.619286060333252
-34.33404541015625,19.94209861755371,6.491833209991455
-40.32064437866211,21.300865173339844,7.455832481384277
-39.265438079833984,18.766244888305664,7.115451335906982
-41.44287109375,17.798770904541016,7.374398708343506
-43.62570571899414,16.69408416748047,7.637219429016113
-45.962806701660156,15.502077102661133,7.930852890014648
-47.61988067626953,13.957229614257812,8.1134033203125
-47.120792388916016,11.777734756469727,7.941274166107178
-46.283180236816406,9.611067771911621,7.728752136230469
-45.378074645996094,7.535836696624756,7.520943641662598
-45.545413970947266,5.694530487060547,7.504670143127441
-48.65773391723633,4.106815338134766,7.98383903503418
-52.18552780151367,2.2987418174743652,8.540623664855957
-79.3812255859375,0.3047327995300293,12.978944778442383
-80.0543441772461,-2.910644054412842,13.097557067871094
-85.72354125976562,-6.572786331176758,14.056962966918945
-87.76782989501953,-10.289847373962402,14.448348999023438
-95.13198852539062,-15.048723220825195,15.74751091003418
-77.95769500732422,-40.42150115966797,14.357606887817383
60.7181396484375,48.28556823730469,12.683860778808594
67.56015014648438,58.306922912597656,14.591050148010254
64.20137023925781,60.073665618896484,14.375631332397461
48.74932861328125,49.434593200683594,11.351537704467773
53.454345703125,58.749977111816406,12.986625671386719
44.882598876953125,53.49734115600586,11.417442321777344
43.2537727355957,55.97725296020508,11.566234588623047
41.41875076293945,58.30100631713867,11.692863464355469
37.727806091308594,57.89894104003906,11.298887252807617
34.24906921386719,57.48386764526367,10.940345764160156
30.959014892578125,57.05652618408203,10.613561630249023
27.837308883666992,56.61748504638672,10.315372467041016
24.860797882080078,56.15465545654297,10.040840148925781
22.441442489624023,56.745140075683594,9.977039337158203
19.46479034423828,55.65916442871094,9.640718460083008
16.680604934692383,54.651206970214844,9.342424392700195
14.20148754119873,54.244876861572266,9.167963027954102
8.277877807617188,37.74825668334961,6.318506717681885
6.920360565185547,38.98286056518555,6.473360538482666
7.186827659606934,52.709930419921875,8.697819709777832
4.988591194152832,52.171531677246094,8.568960189819336
2.848918914794922,51.60762023925781,8.450702667236328
0.5940518379211426,39.69158172607422,6.490312576293945
-0.8793551921844482,34.86516571044922,5.702275276184082
-2.3500900268554688,35.88396453857422,5.879611015319824
-3.937974452972412,37.15988540649414,6.109671592712402
-5.391544818878174,36.72647476196289,6.069149971008301
-6.8105573654174805,36.20397186279297,6.023185729980469
-9.139425277709961,39.72636413574219,6.664945125579834
-10.8323974609375,39.710208892822266,6.729858875274658
-12.555571556091309,39.6750602722168,6.803955554962158
-16.37574005126953,45.32957458496094,7.8801984786987305
-18.17581558227539,44.61640930175781,7.876880645751953
-19.664997100830078,43.216400146484375,7.763018608093262
-21.641887664794922,42.90043258666992,7.856215476989746
-23.412195205688477,42.11231231689453,7.877890586853027
-25.303730010986328,41.49666213989258,7.946605205535889
-27.086259841918945,40.6507568359375,7.986699104309082
-28.875545501708984,39.7752799987793,8.03628158569336
-30.67585563659668,38.86936950683594,8.095881462097168
-20.862791061401367,42.460044860839844,8.139239311218262
-22.606260299682617,41.688472747802734,8.158961296081543
-24.451801300048828,41.06435012817383,8.222564697265625
-26.203937530517578,40.236717224121094,8.261112213134766
-27.96118927001953,39.37982177734375,8.309271812438965
-29.726640701293945,38.49169921875,8.36728572845459
-31.35279655456543,37.390380859375,8.395103454589844
-33.135520935058594,36.437255859375,8.473363876342773
-33.8924560546875,34.38679885864258,8.306692123413086
-36.06168746948242,33.76076889038086,8.49881649017334
-36.422420501708984,31.450454711914062,8.279160499572754
-34.884883880615234,27.75670623779297,7.6698102951049805
-33.54261016845703,24.554737091064453,7.151877403259277
-33.746341705322266,22.67967987060547,6.995257377624512
-33.9321174621582,20.876264572143555,6.854245185852051
-41.03938293457031,23.029376983642578,8.09634780883789
-39.918426513671875,20.336688995361328,7.707675933837891
-39.97641372680664,18.38254165649414,7.570059299468994
-41.89128494262695,17.25982666015625,7.79496431350708
-44.186180114746094,16.161209106445312,8.094550132751465
-46.66070556640625,14.970244407653809,8.43079948425293
-47.28587341308594,13.10076904296875,8.44177532196045
-46.84990692138672,10.97422981262207,8.278488159179688
-45.95903396606445,8.834640502929688,8.051802635192871
-45.07054138183594,6.799291133880615,7.841925621032715
-46.26054000854492,5.088138580322266,8.00691032409668
-49.461463928222656,3.436490297317505,8.530132293701172
-75.62422943115234,2.2077245712280273,13.016338348388672
-78.75469970703125,-0.8660726547241211,13.550196647644043
-43.73809051513672,-2.240417003631592,7.5348005294799805
-88.66854095458984,-8.123361587524414,15.31889533996582
-87.24430847167969,-11.542943954467773,15.14078140258789
-75.29124450683594,-13.057853698730469,13.146880149841309
77.35759735107422,58.379878997802734,16.673681259155273
68.82038116455078,56.41548538208008,15.310062408447266
65.82705688476562,58.53737258911133,15.155450820922852
60.50504684448242,58.32234573364258,14.458316802978516
47.24782943725586,49.35554122924805,11.755037307739258
50.8177604675293,57.54450225830078,13.208127975463867
44.27845764160156,54.39613723754883,12.067142486572266
42.64586639404297,56.916080474853516,12.235936164855957
39.132240295410156,56.850337982177734,11.873991012573242
34.389915466308594,54.52823257446289,11.091249465942383
32.319000244140625,56.1214599609375,11.142026901245117
29.17911148071289,55.733070373535156,10.823270797729492
26.186481475830078,55.31760025024414,10.529644012451172
23.855941772460938,56.11966323852539,10.4912691116333
21.498348236083984,56.810760498046875,10.450450897216797
18.459083557128906,55.40802001953125,10.047774314880371
15.458569526672363,53.476322174072266,9.577041625976562
9.037599563598633,36.73662185668945,6.508814811706543
7.712641716003418,37.84572982788086,6.645014762878418
6.336989402770996,39.05486297607422,6.807086944580078
6.260322570800781,51.62540817260742,8.946974754333496
4.122464179992676,51.10422897338867,8.820792198181152
2.03912091255188,50.556331634521484,8.70505142211914
0.00443875789642334,34.169769287109375,5.878746032714844
-1.3993184566497803,34.919097900390625,6.0124921798706055
-2.891453742980957,35.960662841796875,6.206830978393555
-4.467525482177734,36.92157745361328,6.398519992828369
-5.889808177947998,36.35867691040039,6.336883068084717
-7.970333099365234,39.162288665771484,6.875810623168945
-9.617486000061035,39.13764190673828,6.93377161026001
-11.294344902038574,39.10900115966797,7.003488063812256
-14.999578475952148,45.06280517578125,8.17105484008789
-16.7774715423584,44.37043762207031,8.16122817993164
-18.114538192749023,42.644142150878906,7.971213340759277
-20.21824073791504,42.73876190185547,8.134260177612305
-21.962827682495117,41.97624206542969,8.150611877441406
-23.80556869506836,41.3629035949707,8.21072006225586
-25.556594848632812,40.545589447021484,8.245772361755371
-27.311582565307617,39.699737548828125,8.29035472869873
-29.073667526245117,38.82337951660156,8.344696044921875
-30.84596824645996,37.914424896240234,8.409090042114258
-32.47539138793945,36.79347229003906,8.443222045898438
-33.941524505615234,35.474151611328125,8.446783065795898
-35.654605865478516,34.38627624511719,8.52217960357666
-36.14497375488281,32.159156799316406,8.32363510131836
-35.42548751831055,29.05544662475586,7.882577896118164
-33.4625129699707,25.266979217529297,7.213931560516357
-33.67329788208008,23.3631591796875,7.051192283630371
-33.86552047729492,21.534339904785156,6.9045729637146
-34.149192810058594,19.834726333618164,6.794340133666992
-40.319583892822266,21.300312042236328,7.845292091369629
-39.34883117675781,18.80611228942871,7.503230094909668
-41.08415985107422,17.644718170166016,7.692651748657227
-43.31938171386719,16.576873779296875,7.979945659637451
-45.72433090209961,15.421648979187012,8.302043914794922
-47.292083740234375,13.86115550994873,8.478668212890625
-47.11980438232422,11.777490615844727,8.356138229370117
-46.28224182128906,9.61086654663086,8.132514953613281
-45.377174377441406,7.535687446594238,7.913858890533447
-45.17204666137695,5.647843837738037,7.832150459289551
-48.233604431152344,4.071016788482666,8.327871322631836
-51.69921875,2.277316093444824,8.903236389160156
-77.81297302246094,0.29871273040771484,13.38746452331543
-80.05290222167969,-2.910593032836914,13.781829833984375
-84.79806518554688,-6.5018181800842285,14.631938934326172
-54.329124450683594,-6.369515419006348,9.411089897155762
-96.61095428466797,-15.282671928405762,16.82813835144043
-77.77352905273438,-40.326019287109375,15.072296142578125
60.70591354370117,48.275840759277344,13.344074249267578
67.90913391113281,58.60811233520508,15.432920455932617
62.418617248535156,58.4055290222168,14.706897735595703
55.21636199951172,55.992576599121094,13.529397964477539
52.4514045715332,57.6476936340332,13.408958435058594
37.902099609375,45.176998138427734,10.145613670349121
43.279335021972656,56.010345458984375,12.177918434143066
40.4783935546875,56.97734832763672,12.024624824523926
36.095306396484375,55.393646240234375,11.37495231628418
33.52043914794922,56.26095962524414,11.267218589782715
30.319658279418945,55.87821960449219,10.937620162963867
27.27827262878418,55.480438232421875,10.636499404907227
24.42424964904785,55.16862487792969,10.380082130432129
22.498950958251953,56.89057159423828,10.525381088256836
19.558609008789062,55.92745590209961,10.193476676940918
16.460046768188477,53.928558349609375,9.700705528259277
9.512837409973145,36.33582305908203,6.462098598480225
8.208538055419922,37.43202590942383,6.593036651611328
6.846127510070801,38.56473922729492,6.73861837387085
7.064759254455566,51.81454086303711,8.99692440032959
4.902663230895996,51.272857666015625,8.86148452758789
2.801865577697754,50.755218505859375,8.745491981506348
0.5647108554840088,37.73103332519531,6.492175102233887
-0.8705013990402222,34.51408767700195,5.939875602722168
-2.3255739212036133,35.509559631347656,6.1223464012146
-3.895296812057495,36.75715255737305,6.359306335449219
-5.367968559265137,36.56584548950195,6.35841178894043
-6.7793426513671875,36.03804397583008,6.30893611907959
-9.005291938781738,39.14334487915039,6.9103546142578125
-10.671892166137695,39.12183380126953,6.9766645431518555
-12.367520332336426,39.080841064453125,7.052324295043945
-16.123260498046875,44.63066482543945,8.164194107055664
-17.895748138427734,43.92892837524414,8.16084098815918
-19.37155532836914,42.57152557373047,8.046853065490723
-21.319122314453125,42.26060485839844,8.143514633178711
-23.062036514282227,41.48247528076172,8.165634155273438
-24.909774780273438,40.85060119628906,8.231729507446289
-26.6629581451416,40.01548385620117,8.272771835327148
-28.422046661376953,39.15061569213867,8.323479652404785
-30.190200805664062,38.25396728515625,8.384124755859375
-20.544822692871094,41.81291580200195,8.414426803588867
-22.260892868041992,41.05158996582031,8.434501647949219
-24.076889038085938,40.434715270996094,8.499771118164062
-25.800302505493164,39.61691665649414,8.539006233215332
-27.52800941467285,38.769737243652344,8.588014602661133
-29.262941360473633,37.89128112792969,8.647038459777832
-31.008193969726562,36.979408264160156,8.716394424438477
-32.609832763671875,35.85917663574219,8.754297256469727
-33.55215835571289,34.04155731201172,8.632890701293945
-35.513832092285156,33.24788284301758,8.786592483520508
-35.5336799621582,30.683029174804688,8.479460716247559
-34.883670806884766,27.755752563476562,8.051560401916504
-33.241878509521484,24.334579467773438,7.440798282623291
-33.450355529785156,22.480758666992188,7.2792768478393555
-33.64044952392578,20.696823120117188,7.133806228637695
-35.031944274902344,19.65827751159668,7.255425930023193
-39.91739273071289,20.336172103881836,8.091384887695312
-39.564125061035156,18.192962646484375,7.865159511566162
-41.68761444091797,17.1759090423584,8.143447875976562
-43.96315002441406,16.07962989807129,8.454850196838379
-46.41544723510742,14.891557693481445,8.804213523864746
-46.96308517456055,13.011334419250488,8.801761627197266
-46.84893035888672,10.974000930786133,8.690662384033203
-45.887935638427734,8.820981979370117,8.439788818359375
-45.06965255737305,6.799152374267578,8.232364654541016
-45.87496566772461,5.045729637145996,8.335674285888672
-49.02250289916992,3.405996799468994,8.875542640686035
-73.72376251220703,2.1522512435913086,13.321287155151367
-77.05966186523438,-0.8474297523498535,13.918967247009277
-43.73731231689453,-2.240370750427246,7.909968376159668
-49.28944396972656,-4.515645980834961,8.939687728881836
-59.66550064086914,-7.894100189208984,10.87038803100586
-75.07695770263672,-13.020686149597168,13.762434959411621
75.58259582519531,57.04033279418945,17.1025390625
68.85132598876953,56.44085693359375,16.079883575439453
63.99068069458008,56.904361724853516,15.466499328613281
58.892723083496094,56.768184661865234,14.77401351928711
53.934410095214844,56.3404426574707,14.087000846862793
49.572357177734375,56.134246826171875,13.526212692260742
44.30448532104492,54.42811584472656,12.675651550292969
41.875083923339844,55.887393951416016,12.613234519958496
36.972530364990234,53.71275329589844,11.777458190917969
34.87109375,55.291175842285156,11.80661392211914
31.65122413635254,54.96188735961914,11.455327987670898
28.59312629699707,54.613807678222656,11.134194374084473
25.67447280883789,54.23601150512695,10.837984085083008
23.87883758544922,56.17353057861328,11.024410247802734
21.580936431884766,57.02901840209961,11.013132095336914
18.547481536865234,55.673316955566406,10.59876823425293
15.18270206451416,52.52199935913086,9.874654769897461
8.96325969696045,36.434444427490234,6.776811599731445
7.647881031036377,37.52796936035156,6.917428493499756
6.2726593017578125,38.65841293334961,7.073601722717285
6.154926300048828,50.756187438964844,9.234477996826172
4.0540008544921875,50.255550384521484,9.106389999389648
1.6722149848937988,41.46003723144531,7.49439001083374
0.0043610334396362305,33.66972351074219,6.081253528594971
-1.385146975517273,34.565757751464844,6.248103141784668
-2.861105442047119,35.583187103271484,6.447596549987793
-4.447898864746094,36.75932693481445,6.687710762023926
-5.8641839027404785,36.2004280090332,6.623566627502441
-7.852307319641113,38.582374572753906,7.111414909362793
-9.477508544921875,38.568077087402344,7.173210144042969
-11.128351211547852,38.53422546386719,7.244272708892822
-14.770954132080078,44.3759765625,8.447310447692871
-16.522090911865234,43.6950569152832,8.4373197555542
-18.202924728393555,42.85219192504883,8.409086227416992
-19.910276412963867,42.0877685546875,8.409360885620117
-21.627634048461914,41.33561325073242,8.426005363464355
-23.441078186035156,40.729583740234375,8.487714767456055
-25.163658142089844,39.92218780517578,8.523392677307129
-26.889404296875,39.0860710144043,8.568768501281738
-28.621362686157227,38.21940231323242,8.62405776977539
-30.362442016601562,37.320106506347656,8.689562797546387
-31.961978912353516,36.211788177490234,8.723648071289062
-33.721988677978516,35.24468994140625,8.810152053833008
-35.1550407409668,33.90449523925781,8.821310043334961
-35.9238395690918,31.96239471435547,8.684764862060547
-35.424217224121094,29.05439567565918,8.274911880493164
-34.024314880371094,25.691184997558594,7.700408935546875
-33.3756103515625,23.15662384033203,7.336970806121826
-33.572303771972656,21.34789276123047,7.185732364654541
-35.077423095703125,20.37386703491211,7.326649188995361
-40.31851577758789,21.299747467041016,8.235843658447266
-39.21036148071289,18.73992347717285,7.849242210388184
-40.88702392578125,17.560060501098633,8.037068367004395
-43.103816986083984,16.494380950927734,8.335731506347656
-45.487632751464844,15.341824531555176,8.670451164245605
-46.96785354614258,13.766118049621582,8.839962005615234
-47.11881637573242,11.777242660522461,8.77216911315918
-46.28129577636719,9.610671997070312,8.537420272827148
-45.420318603515625,7.542867660522461,8.315939903259277
-44.80369186401367,5.601790904998779,8.155220031738281
-47.81560516357422,4.035736083984375,8.666919708251953
-52.875972747802734,2.3291571140289307,9.559452056884766
-75.82450103759766,0.2910761833190918,13.695140838623047
-77.73090362548828,-2.826167583465576,14.048635482788086
-83.05834197998047,-6.3684282302856445,15.045610427856445
-87.76475524902344,-10.289491653442383,15.960188865661621
-70.13275909423828,-11.094139099121094,12.824524879455566
77.96385192871094,57.041954040527344,17.44792938232422
60.74068069458008,48.30350875854492,14.016768455505371
65.98099517822266,56.94404602050781,15.741621971130371
60.72748947143555,56.823123931884766,15.021141052246094
55.2479248046875,56.02458572387695,14.211410522460938
51.14695358276367,56.21400833129883,13.726757049560547
37.90281295776367,45.17786407470703,10.65117359161377
43.26164245605469,55.98745346069336,12.779277801513672
39.57725524902344,55.70891189575195,12.342544555664062
36.1044807434082,55.40772247314453,11.944570541381836
32.820247650146484,55.08572006225586,11.581354141235352
29.704479217529297,54.744449615478516,11.249432563781738
26.733755111694336,54.37299346923828,10.943410873413086
24.424823760986328,55.16988754272461,10.897360801696777
22.552175521850586,57.025146484375,11.075786590576172
19.653635025024414,56.199134826660156,10.753194808959961
16.164108276367188,52.95897674560547,10.000801086425781
9.435152053833008,36.03905487060547,6.728569507598877
8.140140533447266,37.120182037353516,6.863769054412842
6.787847518920898,38.23640823364258,7.014040470123291
6.945152282714844,50.93737030029297,9.285173416137695
4.82323694229126,50.44208908081055,9.152143478393555
2.7562179565429688,49.92820739746094,9.031505584716797
0.5293104648590088,35.36543655395508,6.388237953186035
-0.8617895841598511,34.16901779174805,6.173397541046143
-2.301488161087036,35.14183807373047,6.360738277435303
-3.8534140586853027,36.361942291259766,6.604284763336182
-5.344520568847656,36.406166076660156,6.6459736824035645
-6.748316287994385,35.873172760009766,6.592876434326172
-8.87468147277832,38.575599670410156,7.149335861206055
-10.515645980834961,38.549041748046875,7.21693229675293
-12.184501647949219,38.50251770019531,7.294040679931641
-15.877737998962402,43.95107650756836,8.44034194946289
-17.614709854125977,43.239070892333984,8.432788848876953
-19.085947036743164,41.94385528564453,8.323112487792969
-20.994029998779297,41.616188049316406,8.418777465820312
-22.70943260192871,40.84822463989258,8.441298484802246
-24.52741050720215,40.223533630371094,8.509103775024414
-26.251686096191406,39.39822769165039,8.550872802734375
-27.980985641479492,38.543067932128906,8.602473258972168
-29.71833610534668,37.65607833862305,8.664170265197754
-20.235490798950195,41.18336868286133,8.682138442993164
-21.92494010925293,40.432044982910156,8.70254135131836
-23.712215423583984,39.82228469848633,8.769403457641602
-25.407756805419922,39.01414489746094,8.809267044067383
-27.106815338134766,38.1765251159668,8.859048843383789
-28.812162399291992,37.307594299316406,8.919000625610352
-30.526748657226562,36.40526580810547,8.989426612854004
-32.09907150268555,35.29750442504883,9.027254104614258
-33.32593536376953,33.81203079223633,8.982748985290527
-35.01189422607422,32.7779655456543,9.07464599609375
-35.54432678222656,30.692241668701172,8.885651588439941
-34.882450103759766,27.75477409362793,8.434430122375488
-32.94562530517578,24.11771011352539,7.725425720214844
-33.158653259277344,22.284706115722656,7.559189319610596
-33.352901458740234,20.519908905029297,7.409413814544678
-35.98634719848633,20.19384002685547,7.807777404785156
-39.916351318359375,20.335634231567383,8.476224899291992
-39.37866973876953,18.107683181762695,8.20083236694336
-41.48531723022461,17.092559814453125,8.489588737487793
-43.741703033447266,15.998634338378906,8.812588691711426
-46.20487594604492,14.823999404907227,9.181357383728027
-46.64371871948242,12.922861099243164,9.157926559448242
-46.84796142578125,10.973779678344727,9.104053497314453
-45.88700866699219,8.820804595947266,8.841251373291016
-45.112510681152344,6.805630207061768,8.632331848144531
-45.49464797973633,5.003895282745361,8.659964561462402
-50.05963134765625,3.4780545234680176,9.49462890625
-72.0311279296875,2.1028337478637695,13.634833335876465
-75.38501739501953,-0.8290109634399414,14.264479637145996
-43.73652267456055,-2.240333080291748,8.286246299743652
-82.12777709960938,-7.524123191833496,15.604464530944824
-87.7172622680664,-11.605524063110352,16.741622924804688
-75.28254699707031,-13.056346893310547,14.456865310668945
79.63178253173828,55.21930694580078,18.335214614868164
73.31425476074219,55.32847213745117,17.378725051879883
60.42497634887695,49.533355712890625,14.783519744873047
62.248939514160156,55.35550308227539,15.761516571044922
57.359657287597656,55.290409088134766,15.074197769165039
47.354061126708984,49.4665412902832,12.956880569458008
48.38311004638672,54.78757095336914,13.829959869384766
44.300933837890625,54.42373275756836,13.277811050415039
40.94089126586914,54.64056396484375,12.918704986572266
36.8181037902832,53.488441467285156,12.28641128540039
34.141845703125,54.134891510009766,12.109823226928711
31.008609771728516,53.846004486083984,11.756824493408203
28.028553009033203,53.53544998168945,11.43375015258789
25.217004776000977,53.26963806152344,11.151451110839844
23.90185546875,56.22764587402344,11.560179710388184
21.45148277282715,56.686912536621094,11.468027114868164
17.96230697631836,53.9168586730957,10.752851486206055
14.941583633422852,51.68788528442383,10.180294036865234
8.889909744262695,36.13630676269531,7.041221618652344
7.584012031555176,37.21455383300781,7.186103820800781
6.219110488891602,38.328330993652344,7.346960544586182
6.05377197265625,49.92203140258789,9.514952659606934
3.9882874488830566,49.44091033935547,9.385109901428223
1.5856056213378906,39.31233596801758,7.444340705871582
0.004306197166442871,33.18268585205078,6.278504371643066
-1.3712321519851685,34.21847152709961,6.479681015014648
-2.831289291381836,35.21244812011719,6.684057235717773
-4.408596992492676,36.434532165527344,6.944065570831299
-5.83869743347168,36.0430908203125,6.908621788024902
-7.7403082847595215,38.03203582763672,7.34356689453125
-9.34117317199707,38.013221740722656,7.406469821929932
-10.966696739196777,37.97444534301758,7.47877311706543
-14.54854679107666,43.70779800415039,8.716062545776367
-16.273635864257812,43.03798294067383,8.705926895141602
-17.989519119262695,42.349822998046875,8.705991744995117
-19.610668182373047,41.454463958740234,8.67698860168457
-21.301559448242188,40.71239471435547,8.693906784057617
-23.086530685424805,40.113555908203125,8.757152557373047
-24.78148651123047,39.31586456298828,8.793403625488281
-26.478893280029297,38.48933792114258,8.839499473571777
-28.181617736816406,37.632179260253906,8.895666122436523
-29.892465591430664,36.74243927001953,8.962180137634277
-31.46306037902832,35.646549224853516,8.996148109436035
-28.913969039916992,30.219579696655273,7.913515090942383
-34.70237350463867,33.46793746948242,9.122122764587402
-35.40391540527344,31.499820709228516,8.966392517089844
-35.422950744628906,29.053367614746094,8.668391227722168
-34.02317428588867,25.690322875976562,8.066588401794434
-33.082275390625,22.95308494567871,7.618574142456055
-33.28326416015625,21.16409683227539,7.462884902954102
-35.23666000366211,20.46636199951172,7.710161209106445
-40.317447662353516,21.299190521240234,8.627552032470703
-38.99492263793945,18.636959075927734,8.177602767944336
-40.691192626953125,17.4759521484375,8.379218101501465
-42.889732360839844,16.412458419799805,8.689045906066895
-45.2526969909668,15.2625732421875,9.036152839660645
-46.64707946777344,13.672114372253418,9.197402000427246
-46.6345100402832,11.656194686889648,9.095179557800293
-46.28034973144531,9.610481262207031,8.943524360656738
