-78.21351623535156,-14.458686828613281,-21.312341690063477
-17.83898162841797,87.39945983886719,-23.10861587524414
-19.72857093811035,80.08895874023438,-21.368148803710938
-20.236507415771484,69.92500305175781,-18.85818862915039
-18.443466186523438,55.3049430847168,-15.10305404663086
-19.35427474975586,51.098060607910156,-14.155257225036621
-14.529824256896973,34.151695251464844,-9.614809036254883
-14.588117599487305,30.792438507080078,-8.827054023742676
-14.647761344909668,27.95700454711914,-8.176446914672852
-14.708765029907227,25.523590087890625,-7.631540298461914
-14.771162986755371,23.40517234802246,-7.169905185699463
-16.374414443969727,23.772872924804688,-7.478167533874512
-17.4041805267334,23.21326446533203,-7.51616907119751
-20.725341796875,25.44527244567871,-8.501785278320312
-20.81240463256836,23.552906036376953,-8.142497062683105
-22.360687255859375,23.343982696533203,-8.374292373657227
-24.164241790771484,23.278339385986328,-8.692227363586426
-26.125553131103516,23.218181610107422,-9.054648399353027
-28.274919509887695,23.163970947265625,-9.469170570373535
-29.684072494506836,22.38764190673828,-9.631881713867188
-29.83000946044922,20.671672821044922,-9.4019775390625
-11.843389511108398,7.5215654373168945,-3.634615659713745
-11.920400619506836,6.914680480957031,-3.570052146911621
-30.286026000976562,15.977850914001465,-8.870844841003418
-30.4455623626709,14.529810905456543,-8.739411354064941
-17.238277435302734,7.3919291496276855,-4.8590264320373535
-37.93841552734375,14.493209838867188,-10.521120071411133
-22.82819938659668,7.685016632080078,-6.240015983581543
-65.9532241821289,19.290254592895508,-17.80173683166504
-73.00541687011719,18.203767776489258,-19.491941452026367
-39.08250045776367,8.0927734375,-10.3395357131958
-80.33493041992188,13.294477462768555,-21.09470558166504
-65.66968536376953,8.173004150390625,-17.14370346069336
-19.522565841674805,84.63999938964844,-22.502643585205078
-10.520326614379883,38.48064422607422,-10.334674835205078
-18.250097274780273,57.55652618408203,-15.642267227172852
-18.727436065673828,51.74785614013672,-14.256731033325195
-20.502395629882812,50.24632263183594,-14.058783531188965
-14.566439628601074,31.963788986206055,-9.099884033203125
-14.62558650970459,28.951433181762695,-8.402899742126465
-14.68608283996582,26.3813419342041,-7.821997165679932
-14.747958183288574,24.155118942260742,-7.331801891326904
-15.846787452697754,23.75361442565918,-7.397336959838867
-17.174999237060547,23.630037307739258,-7.567770481109619
-20.676334381103516,26.168561935424805,-8.640002250671387
-20.804607391357422,24.260074615478516,-8.279350280761719
-21.729610443115234,23.369552612304688,-8.26689624786377
-23.481367111206055,23.301958084106445,-8.570011138916016
-25.38127326965332,23.23973846435547,-8.915217399597168
-27.45722007751465,23.18326759338379,-9.30949592590332
-29.630800247192383,23.044954299926758,-9.724468231201172
-29.775833129882812,21.294836044311523,-9.483438491821289
-29.9234561920166,19.632898330688477,-9.271576881408691
-11.863797187805176,7.1191301345825195,-3.5843381881713867
-30.22817611694336,16.525136947631836,-8.924727439880371
-30.386159896850586,15.05890941619873,-8.785527229309082
-32.18634033203125,14.37071704864502,-9.131589889526367
-17.67169761657715,7.053082466125488,-4.9292097091674805
-41.10269546508789,14.51936149597168,-11.292930603027344
-65.91580200195312,20.34548568725586,-17.871139526367188
-28.261507034301758,7.493977069854736,-7.5744781494140625
-33.562381744384766,7.470611095428467,-8.90749454498291
-44.45303726196289,8.035660743713379,-11.702692031860352
-60.53651428222656,8.44795036315918,-15.834619522094727
-88.38803100585938,8.732151985168457,-23.00936508178711
-78.47425842285156,-14.506885528564453,-20.674076080322266
-18.04291534423828,88.39846801757812,-22.574291229248047
-20.07986068725586,81.51506805419922,-21.005661010742188
-20.26776695251465,70.03301239013672,-18.24208641052246
-18.54905128479004,55.621585845947266,-14.670618057250977
-19.45551872253418,51.3653450012207,-13.743203163146973
-14.284445762634277,33.574974060058594,-9.129526138305664
-14.361628532409668,30.314376831054688,-8.393142700195312
-14.436866760253906,27.554487228393555,-7.783421516418457
-14.510916709899902,25.180278778076172,-7.271687984466553
-14.611059188842773,23.1514949798584,-6.849908351898193
-16.404434204101562,23.816452026367188,-7.2359395027160645
-17.60832977294922,23.485549926757812,-7.344551086425781
-20.791887283325195,25.52696418762207,-8.237711906433105
-20.876508712768555,23.625446319580078,-7.888554096221924
-22.158784866333008,23.133190155029297,-8.015175819396973
-23.937828063964844,23.06023406982422,-8.316622734069824
-25.870656967163086,22.991655349731445,-8.660000801086426
-27.986557006835938,22.927730560302734,-9.052410125732422
-29.480676651000977,22.234233856201172,-9.239091873168945
-29.630460739135742,20.53338050842285,-9.020039558410645
-11.872797966003418,7.540242671966553,-3.5191664695739746
-11.957426071166992,6.936156272888184,-3.4588019847869873
-30.094799041748047,15.87696361541748,-8.513700485229492
-30.475339889526367,14.544022560119629,-8.449111938476562
-17.266902923583984,7.404204368591309,-4.7008256912231445
-38.1077880859375,14.557912826538086,-10.207062721252441
-22.85175323486328,7.6929450035095215,-6.03306245803833
-66.09934997558594,19.332996368408203,-17.231687545776367
-73.50186920166016,18.327552795410156,-18.954076766967773
-39.13356018066406,8.103346824645996,-9.999363899230957
-81.11656951904297,13.423824310302734,-20.57229995727539
-65.88549041748047,8.19986629486084,-16.612455368041992
-66.98957824707031,-63.693199157714844,-23.128515243530273
-19.351343154907227,83.897705078125,-21.543296813964844
-10.52332878112793,38.49163818359375,-9.984472274780273
-18.35838508605957,57.89809036254883,-15.197547912597656
-18.8286075592041,52.02741241455078,-13.844079971313477
-20.535444259643555,50.32729721069336,-13.600391387939453
-14.333407402038574,31.45242691040039,-8.648405075073242
-14.409262657165527,28.523258209228516,-7.995808124542236
-14.483673095703125,26.017744064331055,-7.450656414031982
-14.557271957397461,23.842796325683594,-6.989772319793701
-15.875524520874023,23.79668617248535,-7.1575846672058105
-17.335325241088867,23.850618362426758,-7.377470016479492
-20.743803024291992,26.253969192504883,-8.372075080871582
-20.869653701782227,24.33592414855957,-8.021513938903809
-21.535888671875,23.161209106445312,-7.913299560546875
-23.264429092407227,23.086671829223633,-8.20076847076416
-25.13743019104004,23.016462326049805,-8.527929306030273
-27.181865692138672,22.950777053833008,-8.901294708251953
-29.425830841064453,22.88554573059082,-9.327291488647461
-29.57493019104004,21.15114974975586,-9.097661972045898
-29.726037979125977,19.503368377685547,-8.895760536193848
-11.892847061157227,7.136564254760742,-3.470367193222046
-30.036163330078125,16.420166015625,-8.56508731842041
-30.196136474609375,14.964735984802246,-8.432331085205078
-32.31098175048828,14.42636775970459,-8.853791236877441
-17.724056243896484,7.073980331420898,-4.774923324584961
-41.30028533935547,14.589159965515137,-10.959573745727539
-66.06241607666016,20.390745162963867,-17.29901695251465
-28.32611083984375,7.511104583740234,-7.332442283630371
-33.63566207885742,7.486921310424805,-8.621978759765625
-44.48965835571289,8.042280197143555,-11.312214851379395
-60.58390808105469,8.454564094543457,-15.30565071105957
-88.59788513183594,8.752883911132812,-22.276081085205078
-20.222675323486328,82.09476470947266,-20.409896850585938
-20.298980712890625,70.14089965820312,-17.62664794921875
-18.65540885925293,55.940547943115234,-14.235033988952637
-19.49445343017578,51.46809005737305,-13.285645484924316
-14.04819107055664,33.0196533203125,-8.662272453308105
-14.142960548400879,29.852807998657227,-7.974214553833008
-14.232796669006348,27.164976119995117,-7.4031147956848145
-14.319108009338379,24.847429275512695,-6.9228196144104
-15.0238037109375,23.805492401123047,-6.79531717300415
-16.43444061279297,23.860008239746094,-6.993832588195801
-17.93099021911621,23.915910720825195,-7.215695858001709
-20.858583450317383,25.608842849731445,-7.973043918609619
-20.79378318786621,23.53182029724121,-7.580533027648926
-21.96129035949707,22.927021026611328,-7.66393518447876
-23.716541290283203,22.84705352783203,-7.949507713317871
-25.621736526489258,22.77043914794922,-8.274576187133789
-29.702945709228516,24.333866119384766,-9.269174575805664
-30.87861442565918,23.288572311401367,-9.336337089538574
-30.97408103942871,21.464494705200195,-9.096940040588379
-11.902229309082031,7.558935165405273,-3.4036262035369873
-11.994524002075195,6.957675933837891,-3.347323417663574
-29.906749725341797,15.77776050567627,-8.162493705749512
-30.23634910583496,14.429957389831543,-8.087578773498535
-17.29790496826172,7.417500019073486,-4.543389797210693
-38.2779655456543,14.622923851013184,-9.891510963439941
-22.875255584716797,7.700860023498535,-5.826545238494873
-66.2455062866211,19.37574577331543,-16.66149139404297
-73.82878875732422,18.40907096862793,-18.36778450012207
-39.184547424316406,8.113908767700195,-9.659721374511719
-50.09648513793945,8.290374755859375,-12.257651329040527
-66.10181427001953,8.226789474487305,-16.079931259155273
-54.63689041137695,-13.244154930114746,-13.571183204650879
-67.07579803466797,-63.77513885498047,-22.342567443847656
-19.550966262817383,84.7632064819336,-20.998882293701172
-10.526327133178711,38.50259780883789,-9.635528564453125
-18.467514038085938,58.242225646972656,-14.749390602111816
-18.930452346801758,52.30885314941406,-13.428694725036621
-14.011580467224121,34.33892822265625,-8.952848434448242
-14.108636856079102,30.95920753479004,-8.212935447692871
-14.200105667114258,28.109210968017578,-7.602188587188721
-14.287578582763672,25.665485382080078,-7.090897083282471
-14.37221622467041,23.539697647094727,-6.657841205596924
-15.904242515563965,23.83973503112793,-6.917962074279785
-17.367645263671875,23.895090103149414,-7.130881309509277
-20.811433792114258,26.33954429626465,-8.103513717651367
-20.93483543395996,24.411935806274414,-7.763138294219971
-21.346372604370117,22.95738983154297,-7.567381381988525
-23.052326202392578,22.876190185546875,-7.839775562286377
-24.899198532104492,22.79833221435547,-8.149571418762207
-27.02345085144043,22.8170166015625,-8.537711143493652
-30.84115219116211,23.986309051513672,-9.431575775146484
-30.939815521240234,22.12729263305664,-9.18228530883789
-29.639995574951172,19.44692039489746,-8.55757999420166
-11.921918869018555,7.1540069580078125,-3.3563129901885986
-9.514424324035645,5.201345443725586,-2.6175596714019775
-30.00924301147461,14.872114181518555,-8.08496379852295
-32.436065673828125,14.482216835021973,-8.57499885559082
-17.77651023864746,7.094914436340332,-4.620368003845215
-42.387718200683594,14.97329044342041,-10.851940155029297
-66.20906066894531,20.435998916625977,-16.72673797607422
-28.390735626220703,7.528244495391846,-7.090307712554932
-33.70895767211914,7.503237724304199,-8.336409568786621
-44.52618408203125,8.048881530761719,-10.92271900177002
-60.63119125366211,8.461162567138672,-14.778059005737305
-88.807861328125,8.773632049560547,-21.542375564575195
-36.87000274658203,-6.815853118896484,-9.051132202148438
2.5069291591644287,15.50554084777832,-3.653733015060425
-9.403841972351074,77.35126495361328,-18.125913619995117
-20.366943359375,82.68045043945312,-19.808042526245117
-11.284126281738281,38.99099349975586,-9.442268371582031
-18.762561798095703,56.26180648803711,-13.796183586120605
-19.525352478027344,51.5496940612793,-12.822834968566895
-13.820520401000977,32.48452377319336,-8.212006568908691
-13.931692123413086,29.4068660736084,-7.569460391998291
-14.035201072692871,26.78786277770996,-7.034876823425293
-14.133042335510254,24.524564743041992,-6.584400653839111
-15.050440788269043,23.847698211669922,-6.55982780456543
-16.464426040649414,23.90355110168457,-6.751814365386963
-17.964746475219727,23.960939407348633,-6.96640157699585
-20.92543601989746,25.69093132019043,-7.707747936248779
-21.005107879638672,23.770977020263672,-7.379120349884033
-21.768062591552734,22.725297927856445,-7.320272445678711
-23.66216278076172,22.794673919677734,-7.642876148223877
-27.361305236816406,24.316429138183594,-8.515055656433105
-29.774730682373047,24.392677307128906,-8.953704833984375
-30.958955764770508,23.349157333374023,-9.020247459411621
-31.05259895324707,21.51890754699707,-8.788368225097656
-11.93168830871582,7.577643394470215,-3.287977695465088
-12.03170394897461,6.979241847991943,-3.235603094100952
-31.28944969177246,16.507221221923828,-8.229341506958008
-30.69821548461914,14.65038776397705,-7.912538528442383
-17.34819221496582,7.439059257507324,-4.390905380249023
-38.448970794677734,14.688254356384277,-9.574409484863281
-22.898712158203125,7.708755016326904,-5.620431423187256
-66.3917236328125,19.41851234436035,-16.091064453125
-74.33355712890625,18.534934997558594,-17.820890426635742
-39.2354621887207,8.124448776245117,-9.320557594299316
-50.20952606201172,8.309080123901367,-11.838578224182129
-71.5837173461914,8.909045219421387,-16.780248641967773
-95.88077545166016,-15.22265625,-22.583110809326172
-54.484092712402344,-13.207115173339844,-13.041120529174805
-67.24925231933594,-63.940093994140625,-21.585798263549805
-19.580509185791016,84.89122009277344,-20.265859603881836
-10.562272071838379,38.6340446472168,-9.316851615905762
-18.577505111694336,58.589088439941406,-14.297703742980957
-19.032991409301758,52.59214401245117,-13.010469436645508
-13.777015686035156,33.764068603515625,-8.482867240905762
-13.891666412353516,30.483104705810547,-7.792578220367432
-13.9977388381958,27.70862579345703,-7.22135066986084
-14.097475051879883,25.32400131225586,-6.742136478424072
-14.192519187927246,23.24538230895996,-6.3355255126953125
-15.932945251464844,23.88276481628418,-6.678435325622559
-17.39997100830078,23.939552307128906,-6.88437032699585
-18.473896026611328,23.381101608276367,-6.93175745010376
-21.00016212463379,24.488107681274414,-7.504192352294922
-21.160903930664062,22.757923126220703,-7.2288498878479
-22.887338638305664,22.712459564208984,-7.500627517700195
-26.527807235717773,24.28952407836914,-8.366893768310547
-28.85551643371582,24.363908767700195,-8.785024642944336
-30.92221450805664,24.04935646057129,-9.112502098083496
-31.018983840942383,22.18390655517578,-8.871028900146484
-31.10757827758789,20.409818649291992,-8.654708862304688
-11.95101547241211,7.171468257904053,-3.2421600818634033
-9.53717041015625,5.213780403137207,-2.5284078121185303
-29.921314239501953,14.828539848327637,-7.76814079284668
-32.561614990234375,14.538273811340332,-8.295167922973633
-17.829059600830078,7.115889549255371,-4.465518951416016
-66.2525405883789,23.403440475463867,-16.344940185546875
-66.35577392578125,20.481292724609375,-16.154216766357422
-28.45539665222168,7.5453901290893555,-6.848043918609619
-33.78227615356445,7.519557476043701,-8.050745964050293
-44.61137008666992,8.06428050994873,-10.545672416687012
-60.67835998535156,8.46774959564209,-14.25175952911377
-94.36566162109375,9.322701454162598,-22.05817413330078
-95.49263763427734,-13.711957931518555,-22.44130516052246
-36.95151138305664,-6.830921649932861,-8.741288185119629
-68.62860107421875,-63.339759826660156,-21.724498748779297
2.510572671890259,15.528070449829102,-3.5214991569519043
-20.51272201538086,83.27220916748047,-19.19990348815918
-11.287345886230469,39.00218200683594,-9.089938163757324
-18.867963790893555,56.577903747558594,-13.352182388305664
-19.556241989135742,51.63123321533203,-12.36034870147705
-13.600951194763184,31.968433380126953,-7.77775764465332
-13.727421760559082,28.975696563720703,-7.178111553192139
-13.84374713897705,26.422433853149414,-6.678079128265381
-13.952438354492188,24.211162567138672,-6.255914211273193
-15.07707405090332,23.889890670776367,-6.324416160583496
-16.49440574645996,23.947080612182617,-6.509847164154053
-17.998512268066406,24.005964279174805,-6.717136383056641
-19.098670959472656,23.44814682006836,-6.770431041717529
-21.346940994262695,24.157821655273438,-7.217313289642334
-23.203861236572266,24.224231719970703,-7.509790420532227
-25.218732833862305,24.294172286987305,-7.839454650878906
-27.42409896850586,24.372230529785156,-8.213784217834473
-29.84658432006836,24.4515438079834,-8.637932777404785
-31.03940200805664,23.409828186035156,-8.703736305236816
-31.07436180114746,21.53399658203125,-8.463944435119629
-11.96117877960205,7.596372127532959,-3.1722042560577393
-12.068970680236816,7.000858783721924,-3.1236226558685303
-31.36361312866211,16.546350479125977,-7.938775539398193
-31.428953170776367,14.999131202697754,-7.7963786125183105
-17.39856719970703,7.460665225982666,-4.238122940063477
-38.62086486816406,14.753914833068848,-9.25570297241211
-22.92212677001953,7.716634750366211,-5.414690017700195
-66.53802490234375,19.46129608154297,-15.5203275680542
-73.57876586914062,18.346723556518555,-16.97685432434082
-39.28630447387695,8.134976387023926,-8.981822967529297
-50.322635650634766,8.327799797058105,-11.419235229492188
-71.7447509765625,8.929089546203613,-16.185813903808594
-78.82522583007812,-12.514801025390625,-17.868072509765625
-54.64350509643555,-13.24575424194336,-12.587626457214355
-67.4229507446289,-64.10520935058594,-20.82805061340332
-19.610008239746094,85.01913452148438,-19.533458709716797
-10.598353385925293,38.76605987548828,-8.997270584106445
-18.688377380371094,58.938758850097656,-13.84238052368164
-19.136245727539062,52.87748718261719,-12.589344024658203
-13.55103874206543,33.21023941040039,-8.030086517333984
-13.6820707321167,30.023174285888672,-7.386504173278809
-13.801803588867188,27.320770263671875,-6.852619647979736
-13.913068771362305,24.992746353149414,-6.4038238525390625
-14.19816780090332,23.254640579223633,-6.099803924560547
-15.961651802062988,23.925785064697266,-6.438973426818848
-17.432275772094727,23.984004974365234,-6.637890338897705
-18.86550521850586,23.876737594604492,-6.812612056732178
-21.065643310546875,24.564470291137695,-7.244632244110107
-22.50116729736328,24.19933319091797,-7.397760391235352
-24.454750061035156,24.26789665222168,-7.713043689727783
-26.587621688842773,24.34429168701172,-8.070539474487305
-28.923826217651367,24.42159652709961,-8.474812507629395
-31.003393173217773,24.11248779296875,-8.792989730834961
-31.09825325012207,22.2405948638916,-8.559385299682617
-31.185129165649414,20.460693359375,-8.35014533996582
-11.980140686035156,7.1889448165893555,-3.1278915405273438
-9.559937477111816,5.226226806640625,-2.439174175262451
-31.405460357666016,15.564064025878906,-7.846968173980713
-32.68766784667969,14.594547271728516,-8.014260292053223
-17.8817195892334,7.136904716491699,-4.310354232788086
-64.67575073242188,22.84644889831543,-15.356156349182129
-66.50257110595703,20.526599884033203,-15.581375122070312
-28.635072708129883,7.593033790588379,-6.632241725921631
-34.03544616699219,7.575909614562988,-7.806185245513916
-44.75175094604492,8.089658737182617,-10.18120002746582
-60.858551025390625,8.492894172668457,-13.7567720413208
-94.52006530761719,9.337953567504883,-21.263748168945312
-94.7308578491211,-13.602571487426758,-21.425447463989258
-95.78234100341797,-17.70649528503418,-21.80664825439453
-68.51052856445312,-63.230770111083984,-20.871910095214844
2.5142099857330322,15.550582885742188,-3.3893747329711914
-20.005985260009766,81.21504211425781,-17.996923446655273
-11.290580749511719,39.01335144042969,-8.738726615905762
-19.001968383789062,56.979732513427734,-12.923754692077637
-19.587106704711914,51.712730407714844,-11.898123741149902
-13.389028549194336,31.470319747924805,-7.358631134033203
-13.529780387878418,28.558507919311523,-6.799465656280518
-13.658127784729004,26.06816864013672,-6.3321614265441895
-13.777043342590332,23.906803131103516,-5.936897277832031
-15.103691101074219,23.93207359313965,-6.089047908782959
-16.53399085998535,24.004554748535156,-6.271544456481934
-18.04275131225586,24.06497573852539,-6.471621990203857
-21.059663772583008,25.855724334716797,-7.1750898361206055
-21.389921188354492,24.206457138061523,-6.950432777404785
-23.252477645874023,24.274982452392578,-7.232685565948486
-25.273895263671875,24.347309112548828,-7.550878047943115
-27.486940383911133,24.42807960510254,-7.91225004196167
-29.918521881103516,24.510475158691406,-8.321816444396973
-31.11996841430664,23.47060203552246,-8.386763572692871
-31.152936935424805,21.58844757080078,-8.155156135559082
-11.990704536437988,7.615123748779297,-3.056290864944458
-12.1063232421875,7.022528648376465,-3.0113651752471924
-31.380435943603516,16.55522346496582,-7.633945941925049
-31.502010345458984,15.0339937210083,-7.510416507720947
-17.449052810668945,7.482311248779297,-4.085024833679199
-38.79363250732422,14.819918632507324,-8.935331344604492
-22.94550132751465,7.7245049476623535,-5.209296226501465
-64.61166381835938,18.897872924804688,-14.484539985656738
-72.70379638671875,18.1285457611084,-16.12221336364746
-39.33708953857422,8.145492553710938,-8.643473625183105
-50.43583297729492,8.346532821655273,-10.999567031860352
-71.90591430664062,8.949145317077637,-15.590921401977539
-78.83687591552734,-12.516650199890137,-17.17531394958496
-95.41130065917969,-19.105960845947266,-20.936628341674805
8.1859712600708,86.12326049804688,-18.614137649536133
-19.639484405517578,85.14695739746094,-18.801578521728516
-10.634560585021973,38.89845657348633,-8.676695823669434
-18.83283233642578,59.394378662109375,-13.406578063964844
-19.2631778717041,53.22819900512695,-12.179709434509277
-13.333150863647461,32.67625427246094,-7.593521595001221
-13.479445457458496,29.578548431396484,-6.993940830230713
-13.611979484558105,26.945003509521484,-6.4953837394714355
-13.73408317565918,24.671222686767578,-6.075455665588379
-14.598831176757812,23.91086196899414,-6.0278754234313965
-15.990346908569336,23.968799591064453,-6.1995391845703125
-17.4747371673584,24.042430877685547,-6.3951263427734375
-21.01537322998047,26.597675323486328,-7.293654918670654
-21.131288528442383,24.641021728515625,-6.984421253204346
-22.547603607177734,24.24927520751953,-7.1245646476745605
-24.507368087768555,24.320117950439453,-7.428857803344727
-26.64748191833496,24.39910316467285,-7.77395486831665
-29.000261306762695,24.486120223999023,-8.166557312011719
-31.084692001342773,24.175722122192383,-8.472990989685059
-31.177629470825195,22.297367095947266,-8.247313499450684
-31.26277732849121,20.511638641357422,-8.04520034790039
-12.009300231933594,7.2064409255981445,-3.0134942531585693
-9.58272933959961,5.238685607910156,-2.3498473167419434
-31.478933334350586,15.60047435760498,-7.55926513671875
-32.814205169677734,14.651046752929688,-7.732217311859131
-37.00635528564453,14.769876480102539,-8.573196411132812
-64.81217956542969,22.89463996887207,-14.789737701416016
-64.66510009765625,19.959455490112305,-14.561300277709961
-28.89451789855957,7.661829948425293,-6.431915283203125
-34.299964904785156,7.634786128997803,-7.560731410980225
-44.89249038696289,8.11509895324707,-9.815794944763184
-61.055728912353516,8.520408630371094,-13.26429271697998
-94.8363037109375,9.369196891784668,-20.504690170288086
-93.98392486572266,-13.495315551757812,-20.42936134338379
-95.01377868652344,-17.564409255981445,-20.789920806884766
-68.39328002929688,-63.122554779052734,-20.025390625
-19.641895294189453,79.73694610595703,-16.95653533935547
-11.293797492980957,39.02448272705078,-8.388564109802246
-19.111778259277344,57.30897903442383,-12.47402572631836
-13.011083602905273,34.35112380981445,-7.584683895111084
-13.184326171875,30.989179611206055,-6.953790664672852
-13.338420867919922,28.154598236083984,-6.432860851287842
-13.478058815002441,25.72447967529297,-5.99658203125
-13.606602668762207,23.611051559448242,-5.626896381378174
-15.139104843139648,23.98818588256836,-5.857088565826416
-16.56399154663086,24.04810905456543,-6.029444217681885
-18.076534271240234,24.110034942626953,-6.222161769866943
-21.127056121826172,25.938465118408203,-6.907655239105225
-21.432918548583984,24.255115509033203,-6.68343448638916
-23.30112075805664,24.32576560974121,-6.955410957336426
-25.329097747802734,24.400487899780273,-7.262073040008545
-27.549850463867188,24.483985900878906,-7.610418796539307
-29.990554809570312,24.569480895996094,-8.005308151245117
-31.200666427612305,23.531455993652344,-8.0692777633667
-31.231624603271484,21.642969131469727,-7.845914363861084
-12.020271301269531,7.633899211883545,-2.940220832824707
-12.143776893615723,7.044254779815674,-2.898815631866455
-31.454620361328125,16.594358444213867,-7.343282222747803
-31.57513999938965,15.06889533996582,-7.224149227142334
-17.499650955200195,7.504006862640381,-3.931586980819702
-38.96733093261719,14.88627815246582,-8.613240242004395
-22.968841552734375,7.732362270355225,-5.004218101501465
-64.74259185791016,18.9361629486084,-13.928346633911133
-64.49598693847656,16.081951141357422,-13.725107192993164
-39.393714904785156,8.157220840454102,-8.306703567504883
-50.54913330078125,8.36528205871582,-10.57951545715332
-72.06723022460938,8.969220161437988,-14.995489120483398
-78.8484878540039,-12.518491744995117,-16.484825134277344
-94.64920043945312,-18.953350067138672,-19.931480407714844
-19.428470611572266,84.23198699951172,-17.84917449951172
-10.67087173461914,39.03131103515625,-8.355081558227539
-18.945755004882812,59.750518798828125,-12.942846298217773
-19.368051528930664,53.51800537109375,-11.751971244812012
-13.122900009155273,32.1610107421875,-7.1722636222839355
-13.283426284790039,29.148427963256836,-6.614175796508789
-13.427953720092773,26.58072853088379,-6.149064540863037
-13.560260772705078,24.358976364135742,-5.756558418273926
-14.63279914855957,23.96649742126465,-5.798146724700928
-16.02835464477539,24.025768280029297,-5.963568210601807
-17.507070541381836,24.086915969848633,-6.14847993850708
-21.083740234375,26.684194564819336,-7.0221686363220215
-21.197107315063477,24.717769622802734,-6.723519802093506
-22.59406280517578,24.29924201965332,-6.851220607757568
-24.560039520263672,24.372377395629883,-7.144469261169434
-26.707401275634766,24.453962326049805,-7.477100849151611
-29.068744659423828,24.543947219848633,-7.855594158172607
-31.16613006591797,24.239055633544922,-8.152459144592285
-31.257129669189453,22.35422134399414,-7.93476676940918
-31.340534210205078,20.562654495239258,-7.739828586578369
-12.038496017456055,7.223962306976318,-2.898949384689331
-9.605545997619629,5.251160144805908,-2.2604150772094727
-31.552486419677734,15.636927604675293,-7.27124547958374
-17.68361473083496,7.895466327667236,-3.998792886734009
-37.16529846191406,14.833318710327148,-8.26265811920166
-60.60030746459961,21.40682029724121,-13.27071762084961
-64.13645935058594,19.796283721923828,-13.859600067138672
-64.59815216064453,17.129201889038086,-13.799412727355957
-74.02803039550781,16.47780418395996,-15.659646987915039
-45.03361129760742,8.140607833862305,-9.4493989944458
-61.25346374511719,8.548003196716309,-12.7703857421875
-95.15351867675781,9.400537490844727,-19.743270874023438
-93.80535888671875,-13.46967601776123,-19.567909240722656
-94.26011657714844,-17.425092697143555,-19.79292106628418
-55.23319625854492,-12.524163246154785,-11.694259643554688
-68.27687072753906,-63.01509475708008,-19.18478012084961
-20.911865234375,84.89253997802734,-17.296560287475586
-11.297014236450195,39.03558349609375,-8.03940486907959
-19.22248077392578,57.640933990478516,-12.020645141601562
-12.798391342163086,33.789588928222656,-7.148124694824219
-12.986461639404297,30.52410316467285,-6.562466621398926
-13.153032302856445,27.763275146484375,-6.077686309814453
-13.303266525268555,25.390869140625,-5.670840263366699
-13.45054817199707,23.340251922607422,-5.329320907592773
-15.165743827819824,24.0303955078125,-5.621576309204102
-16.59400177001953,24.091672897338867,-5.787302494049072
-18.110328674316406,24.155109405517578,-5.972622394561768
-21.19464683532715,26.02145004272461,-6.639426231384277
-21.47593879699707,24.303802490234375,-6.416280269622803
-23.34979248046875,24.376583099365234,-6.677929878234863
-25.384336471557617,24.45371437072754,-6.972999572753906
-27.612823486328125,24.539953231811523,-7.308241844177246
-30.062671661376953,24.628564834594727,-7.688364505767822
-31.281503677368164,23.59242057800293,-7.75123929977417
-31.310440063476562,21.697599411010742,-7.53617525100708
-12.049880981445312,7.652705669403076,-2.823976755142212
-12.181336402893066,7.066040992736816,-2.785956859588623
-31.52890396118164,16.633548736572266,-7.052244663238525
-31.648359298706055,15.103835105895996,-6.937537670135498
-17.55036735534668,7.525754928588867,-3.77778697013855
-39.14199447631836,14.9530029296875,-8.289369583129883
-22.992149353027344,7.740208625793457,-4.799427509307861
-61.90630340576172,18.106597900390625,-12.760184288024902
-64.61944580078125,16.11273765563965,-13.17525577545166
-39.527950286865234,8.185014724731445,-7.985806941986084
-50.662559509277344,8.384051322937012,-10.159019470214844
-72.22870635986328,8.989317893981934,-14.399434089660645
-94.17227935791016,-14.95140266418457,-18.86368751525879
-93.9017333984375,-18.803672790527344,-18.945621490478516
-75.94740295410156,-18.40989112854004,-15.45999813079834
-73.8997573852539,-21.090084075927734,-15.20349407196045
-76.07793426513672,-25.057828903198242,-15.84606647491455
-19.745288848876953,85.6056900024414,-17.38025665283203
-10.707317352294922,39.16459655761719,-8.032373428344727
-19.059646606445312,60.10963821411133,-12.47513198852539
-19.473709106445312,53.80996322631836,-11.321036338806152
-12.919865608215332,31.663406372070312,-6.7654547691345215
-13.09367561340332,28.732023239135742,-6.246541976928711
-13.249443054199219,26.227367401123047,-5.813124179840088
-13.391352653503418,24.055559158325195,-5.446681022644043
-14.658285140991211,24.00824546813965,-5.564903259277344
-16.057069778442383,24.068817138671875,-5.723954200744629
-17.581281661987305,24.189010620117188,-5.915855884552002
-21.152315139770508,26.7709903717041,-6.74985408782959
-21.26310920715332,24.79473304748535,-6.461888790130615
-22.64055824279785,24.349245071411133,-6.577691555023193
-24.612741470336914,24.424680709838867,-6.859835624694824
-26.76738166809082,24.508880615234375,-7.179928779602051
-29.137319564819336,24.601848602294922,-7.5442328453063965
-31.247711181640625,24.302507400512695,-7.831351280212402
-31.336755752563477,22.411170959472656,-7.621701240539551
-31.418411254882812,20.613746643066406,-7.433990001678467
-12.067733764648438,7.241506576538086,-2.78424072265625
-9.62839412689209,5.2636494636535645,-2.1708643436431885
-31.626134872436523,15.673421859741211,-6.9828715324401855
-17.7132511138916,7.9087018966674805,-3.8376810550689697
-37.32508087158203,14.897088050842285,-7.950520038604736
-56.70893859863281,20.03220558166504,-11.898268699645996
-60.10878372192383,18.553098678588867,-12.445045471191406
-64.40001678466797,17.076663970947266,-13.180721282958984
-64.44444274902344,14.344612121582031,-13.06122875213623
-45.175132751464844,8.166192054748535,-9.08195972442627
-61.451805114746094,8.575681686401367,-12.274977684020996
-94.1574478149414,-13.520233154296875,-18.818470001220703
-94.1954345703125,-17.41313362121582,-18.950666427612305
-55.136260986328125,-12.502185821533203,-11.184654235839844
-73.2432861328125,-19.73248291015625,-15.006551742553711
-75.20120239257812,-23.538238525390625,-15.588994979858398
-68.16120147705078,-62.90837478637695,-18.34988021850586
-69.38456726074219,-62.69989776611328,-17.694438934326172
7.909974575042725,11.505313873291016,-2.641770362854004
-21.08684539794922,85.60292053222656,-16.68112564086914
-11.300214767456055,39.046653747558594,-7.691192626953125
-19.334102630615234,57.975669860839844,-11.563494682312012
-19.714218139648438,52.04831314086914,-10.530834197998047
-13.39061164855957,31.474037170410156,-6.471775531768799
-13.56596565246582,28.634891510009766,-5.995285987854004
-13.715456008911133,26.17757797241211,-5.591730117797852
-13.901352882385254,24.12251091003418,-5.26787805557251
-15.19239330291748,24.072616577148438,-5.38601016998291
-16.66370391845703,24.192861557006836,-5.558319568634033
-18.144142150878906,24.20020294189453,-5.722975254058838
-21.262449264526367,26.104694366455078,-6.370365142822266
-21.51898956298828,24.352523803710938,-6.148933410644531
-23.39852523803711,24.427448272705078,-6.400207042694092
-25.439651489257812,24.506999969482422,-6.68361759185791
-27.675880432128906,24.595993041992188,-7.005678653717041
-30.1348934173584,24.687740325927734,-7.370937824249268
-31.362491607666016,23.653507232666016,-7.432600021362305
-31.389394760131836,21.752302169799805,-7.22589111328125
-12.079540252685547,7.671542167663574,-2.7075436115264893
-12.219005584716797,7.087890148162842,-2.6727728843688965
-31.603288650512695,16.672794342041016,-6.7607927322387695
-31.721675872802734,15.138830184936523,-6.650543689727783
-17.601207733154297,7.547557830810547,-3.6236002445220947
-39.31764602661133,15.020105361938477,-7.963663101196289
-23.015430450439453,7.748048782348633,-4.59489631652832
-58.43896484375,17.092456817626953,-11.520499229431152
-63.48768615722656,15.830541610717773,-12.380340576171875
-39.662662506103516,8.212910652160645,-7.663780689239502
-71.86912536621094,11.893497467041016,-13.783340454101562
-85.43399047851562,10.632802963256836,-16.28969955444336
-94.01583099365234,7.881711006164551,-17.851163864135742
-96.46388244628906,-11.364572525024414,-18.3781795501709
-94.37476348876953,-14.98354721069336,-18.080324172973633
-94.43842315673828,-18.911142349243164,-18.22345542907715
-75.52067565917969,-18.306446075439453,-14.703105926513672
-66.7734146118164,-19.05631446838379,-13.138644218444824
-66.2172622680664,-21.810014724731445,-13.191092491149902
-67.52249145507812,-25.289419174194336,-13.642626762390137
4.697965145111084,49.42652893066406,-9.394156455993652
-19.89578628540039,86.25817108154297,-16.749448776245117
-10.743887901306152,39.298362731933594,-7.7085280418396
-19.174535751342773,60.47195816040039,-12.003328323364258
-19.580169677734375,54.10414123535156,-10.886812210083008
-13.31796932220459,32.63906478881836,-6.6699676513671875
-13.504571914672852,29.6336669921875,-6.16177225112915
-13.662910461425781,27.045820236206055,-5.73326301574707
-13.79888916015625,24.787633895874023,-5.367825984954834
-14.683780670166016,24.049999237060547,-5.331618785858154
-16.124195098876953,24.16943359375,-5.4973673820495605
-17.613712310791016,24.233631134033203,-5.668455123901367
-21.221111297607422,26.858057022094727,-6.476661682128906
-21.329307556152344,24.871919631958008,-6.199491500854492
-22.687091827392578,24.399288177490234,-6.303938388824463
-24.665498733520508,24.477035522460938,-6.574918746948242
-26.82742691040039,24.563867568969727,-6.8824005126953125
-29.205984115600586,24.659832000732422,-7.232427597045898
-31.329448699951172,24.366079330444336,-7.50961971282959
-31.41653060913086,22.46822166442871,-7.308070659637451
-31.496416091918945,20.664936065673828,-7.127636909484863
-12.097017288208008,7.259077548980713,-2.669353485107422
-9.651274681091309,5.27616024017334,-2.0811831951141357
-31.699880599975586,15.709966659545898,-6.694100856781006
-17.742891311645508,7.921932220458984,-3.676560640335083
-37.48571014404297,14.961195945739746,-7.636727333068848
-43.113075256347656,15.229517936706543,-8.651430130004883
-56.924964904785156,17.570384979248047,-11.272180557250977
-61.28261947631836,16.25003433227539,-11.99601936340332
-64.56655883789062,14.371793746948242,-12.51563549041748
-45.317081451416016,8.191845893859863,-8.713422775268555
-66.91868591308594,9.338593482971191,-12.784396171569824
-91.7186508178711,9.061199188232422,-17.438579559326172
-79.19721221923828,-11.372066497802734,-15.138620376586914
-94.39891052246094,-17.450742721557617,-18.163867950439453
-55.29667663574219,-12.53856086730957,-10.728300094604492
-68.7442626953125,-18.520389556884766,-13.470891952514648
-66.78141021728516,-20.902812957763672,-13.240236282348633
-66.73236083984375,-23.870738983154297,-13.409948348999023
-69.05348205566406,-27.878108978271484,-14.090221405029297
-68.05047607421875,-62.80616760253906,-17.5216064453125
-69.26704406738281,-62.59369659423828,-16.862018585205078
7.880749702453613,11.462808609008789,-2.512446641921997
-21.11846351623535,85.73123168945312,-15.94721508026123
-11.303413391113281,39.057701110839844,-7.343881130218506
-19.446670532226562,58.31324005126953,-11.102466583251953
-19.815078735351562,52.31462860107422,-10.103880882263184
-13.455795288085938,31.627243041992188,-6.207850933074951
-13.627117156982422,28.763975143432617,-5.748733997344971
-13.773103713989258,26.287593841552734,-5.360145092010498
-13.925086975097656,24.163713455200195,-5.0371599197387695
-15.255375862121582,24.172420501708984,-5.162655830383301
-16.693798065185547,24.236562728881836,-5.315402984619141
-18.177967071533203,24.245325088500977,-5.473181247711182
-21.33047103881836,26.18821144104004,-6.100431442260742
-21.562076568603516,24.40128517150879,-5.881355285644531
-23.447298049926758,24.478363037109375,-6.122197151184082
-25.495037078857422,24.560348510742188,-6.393890857696533
-27.739032745361328,24.652114868164062,-6.702691078186035
-30.207250595092773,24.747013092041016,-7.0529890060424805
-31.44364356994629,23.71471405029297,-7.113316059112549
-31.52606773376465,21.847021102905273,-6.927670001983643
-12.109251976013184,7.69041109085083,-2.5909039974212646
-12.25678539276123,7.109805107116699,-2.559244394302368
-31.677793502807617,16.712100982666016,-6.468882083892822
-31.79510498046875,15.173866271972656,-6.363119602203369
-17.652185440063477,7.569417476654053,-3.4690096378326416
-39.49433135986328,15.087600708007812,-7.636054992675781
-23.080259323120117,7.76987361907959,-4.3985185623168945
-55.54802703857422,16.246904373168945,-10.453132629394531
-34.197879791259766,8.527175903320312,-6.365767002105713
-39.7978630065918,8.240907669067383,-7.340574741363525
-64.10883331298828,10.609249114990234,-11.736494064331055
-77.58052825927734,9.655389785766602,-14.120305061340332
-86.03755187988281,7.212831497192383,-15.5941801071167
-93.55025482177734,4.067943572998047,-16.91254425048828
-95.501953125,-11.251242637634277,-17.368370056152344
-94.57748413085938,-15.015732765197754,-17.296058654785156
-94.64282989501953,-18.95207405090332,-17.433265686035156
-75.10000610351562,-18.204477310180664,-13.957002639770508
-66.93814849853516,-19.10332489013672,-12.572734832763672
-66.93453216552734,-22.046268463134766,-12.728249549865723
-66.94340515136719,-25.07253074645996,-12.911191940307617
-66.94732666015625,-28.189966201782227,-13.119930267333984
8.011330604553223,11.290240287780762,-2.5004000663757324
-20.048110961914062,86.9185791015625,-16.110979080200195
-21.6529483795166,79.2009048461914,-14.829828262329102
-19.290441513061523,60.83757019042969,-11.527324676513672
-19.68746566772461,54.40060806274414,-10.449197769165039
-13.329113960266113,32.66636657714844,-6.372293472290039
-13.567145347595215,29.7709903717041,-5.909115791320801
-13.721795082092285,27.162391662597656,-5.496404647827148
-13.854554176330566,24.887636184692383,-5.144651412963867
-14.744402885437012,24.1492862701416,-5.11043119430542
-16.152996063232422,24.212614059448242,-5.257009029388428
-17.646167755126953,24.278276443481445,-5.420921802520752
-21.290138244628906,26.94541358947754,-6.202552318572998
-21.395706176757812,24.949350357055664,-5.936289310455322
-22.73365592956543,24.449378967285156,-6.029918193817139
-24.71831703186035,24.529451370239258,-6.289676189422607
-26.887554168701172,24.618925094604492,-6.58447790145874
-29.274776458740234,24.717906951904297,-6.920137405395508
-31.411361694335938,24.429779052734375,-7.187219142913818
-31.496458053588867,22.525390625,-6.993832588195801
-31.574565887451172,20.716203689575195,-6.8207292556762695
-12.126351356506348,7.276679515838623,-2.5542712211608887
-9.6741943359375,5.288686752319336,-1.9913580417633057
-31.77373504638672,15.746574401855469,-6.4048943519592285
-17.77254295349121,7.935177326202393,-3.515408515930176
-37.647212982177734,15.025653839111328,-7.321218013763428
-42.67592239379883,15.075101852416992,-8.1746826171875
-54.10155487060547,16.698915481567383,-10.226428031921387
-58.06702423095703,15.39738655090332,-10.850235939025879
-62.90037536621094,14.000927925109863,-11.638800621032715
-45.459468841552734,8.21759033203125,-8.343729019165039
-43.23775100708008,6.033888816833496,-7.885059833526611
-83.61478424072266,8.260584831237793,-15.17559814453125
-89.31497192382812,5.2122673988342285,-16.1590633392334
-79.20878601074219,-11.373725891113281,-14.453022956848145
-94.60262298583984,-17.488401412963867,-17.37615203857422
-94.66397094726562,-21.46512794494629,-17.531763076782227
-68.39327239990234,-18.42582893371582,-12.793290138244629
-66.94731140136719,-20.954736709594727,-12.670164108276367
-66.9406967163086,-23.94525718688965,-12.840734481811523
-66.94647216796875,-27.02747344970703,-13.039740562438965
-68.2228775024414,-62.96528625488281,-16.768020629882812
-69.1502685546875,-62.48817825317383,-16.034900665283203
8.439362525939941,11.276610374450684,-2.4232444763183594
7.851826190948486,11.420738220214844,-2.384455919265747
-20.237773895263672,82.15613555908203,-14.55711555480957
-11.30660629272461,39.06871795654297,-6.997412204742432
-19.56021499633789,58.65370178222656,-10.63744068145752
-19.920312881469727,52.59241485595703,-9.6755952835083
-13.521415710449219,31.78150177001953,-5.9421515464782715
-13.640477180480957,28.792160034179688,-5.481342315673828
-13.765998840332031,26.274059295654297,-5.103193759918213
-13.95378303527832,24.213497161865234,-4.808050155639648
-15.28210735321045,24.214778900146484,-4.926324844360352
-16.723918914794922,24.280292510986328,-5.0723395347595215
-18.211816787719727,24.290477752685547,-5.223206043243408
-21.398723602294922,26.271995544433594,-5.829577922821045
-21.605205535888672,24.450098037719727,-5.6135101318359375
-23.496126174926758,24.529338836669922,-5.843863010406494
-25.550493240356445,24.613771438598633,-6.103770732879639
-27.802270889282227,24.70832061767578,-6.399226665496826
-30.27972984313965,24.806392669677734,-6.734469413757324
-31.524972915649414,23.776046752929688,-6.79334020614624
-31.6054744720459,21.902040481567383,-6.615596294403076
-12.139019966125488,7.709315299987793,-2.47404146194458
-12.294685363769531,7.1317901611328125,-2.4453556537628174
-31.752424240112305,16.7514705657959,-6.176474094390869
-31.868648529052734,15.20897102355957,-6.07523250579834
-17.703306198120117,7.591336250305176,-3.313985824584961
-39.67206954956055,15.155499458312988,-7.3064866065979
-23.146501541137695,7.792170524597168,-4.20184850692749
-52.94334411621094,15.485091209411621,-9.49029541015625
-34.27199172973633,8.545656204223633,-6.076873302459717
-39.93358612060547,8.26900863647461,-7.016132354736328
-64.2200927734375,10.627662658691406,-11.199043273925781
-71.84272766113281,8.941295623779297,-12.455584526062012
-77.32933044433594,6.482791423797607,-13.350820541381836
-84.65780639648438,3.6812353134155273,-14.578746795654297
-92.22187042236328,0.30198609828948975,-15.866436004638672
-94.78046417236328,-15.04796028137207,-16.51077651977539
-94.84750366210938,-18.993059158325195,-16.64202880859375
-74.68524932861328,-18.10393714904785,-13.221368789672852
-67.08585357666016,-19.145475387573242,-12.002631187438965
-67.1014175415039,-22.101226806640625,-12.154569625854492
-67.09514617919922,-25.129364013671875,-12.326478958129883
-67.10153198242188,-28.254899978637695,-12.526223182678223
8.024736404418945,11.309130668640137,-2.385749340057373
-20.251564025878906,87.8006591796875,-15.502315521240234
-20.827394485473633,76.18125915527344,-13.587641716003418
-19.407413482666016,61.20641326904297,-11.046963691711426
-19.79561424255371,54.69945526123047,-10.008096694946289
-13.388802528381348,32.81265640258789,-6.097133636474609
-13.630111694335938,29.909154891967773,-5.654872894287109
-13.781012535095215,27.279621124267578,-5.258213996887207
-13.910503387451172,24.988134384155273,-4.920344829559326
-14.769970893859863,24.191173553466797,-4.876400947570801
-16.181825637817383,24.25581932067871,-5.016520023345947
-17.678632736206055,24.322952270507812,-5.173217296600342
-21.359405517578125,27.033084869384766,-5.92748498916626
-21.462322235107422,25.027023315429688,-5.672236442565918
-22.78028106689453,24.49952507019043,-5.755599498748779
-24.77120590209961,24.581933975219727,-6.004072666168213
-26.94777488708496,24.67406463623047,-6.28611421585083
-29.343677520751953,24.776081085205078,-6.607316017150879
-31.493452072143555,24.493614196777344,-6.864102840423584
-31.576553344726562,22.582660675048828,-6.678940773010254
-31.652864456176758,20.7675724029541,-6.513219356536865
-12.155738830566406,7.294315338134766,-2.438976764678955
-9.697151184082031,5.301238536834717,-1.901376724243164
-31.847715377807617,15.78323745727539,-6.115208625793457
-17.80219841003418,7.9484148025512695,-3.3542025089263916
-37.80963134765625,15.090475082397461,-7.003940105438232
-42.883392333984375,15.148386001586914,-7.82467794418335
-51.7510871887207,15.973420143127441,-9.31800365447998
-55.33091354370117,14.671865463256836,-9.848426818847656
-60.233829498291016,13.407394409179688,-10.616591453552246
-64.39653015136719,11.640793800354004,-11.258686065673828
-43.32981491088867,6.0467376708984375,-7.526932239532471
-75.33311462402344,7.442407608032227,-13.02380657196045
-82.22286987304688,4.798384666442871,-14.170132637023926
-89.25287628173828,1.6165926456451416,-15.358062744140625
-97.90796661376953,-2.161303758621216,-16.848722457885742
-79.2203369140625,-11.375388145446777,-13.76928424835205
-94.83332061767578,-17.531047821044922,-16.59207534790039
-94.86985778808594,-21.51181411743164,-16.73625946044922
-68.0468978881836,-18.332508087158203,-12.124574661254883
-67.09619140625,-21.0013427734375,-12.095848083496094
-67.09160614013672,-23.99924659729004,-12.259058952331543
-67.09973907470703,-27.0893497467041,-12.44948673248291
-67.10306549072266,-30.279930114746094,-12.665736198425293
-68.39563751220703,-63.124755859375,-16.012882232666016
-69.03422546386719,-62.38330841064453,-15.212909698486328
8.453685760498047,11.29575252532959,-2.3067972660064697
7.823196887969971,11.379096984863281,-2.257763147354126
-17.492088317871094,85.69995880126953,-14.300857543945312
-18.858348846435547,76.55621337890625,-12.891146659851074
-11.309767723083496,39.0797004699707,-6.651733875274658
-19.674760818481445,58.997215270996094,-10.168307304382324
-20.026363372802734,52.87246322631836,-9.243988990783691
-13.587491989135742,31.93679428100586,-5.674612998962402
-13.6858549118042,28.887962341308594,-5.2264275550842285
-13.824007034301758,26.384765625,-4.8701653480529785
-14.008905410766602,24.309152603149414,-4.587296485900879
-15.308856964111328,24.257164001464844,-4.689839839935303
-16.754066467285156,24.324052810668945,-4.829096794128418
-18.245704650878906,24.335670471191406,-4.973016262054443
-21.46721649169922,26.35610580444336,-5.557773113250732
-21.648391723632812,24.498966217041016,-5.345365524291992
-23.545019149780273,24.580381393432617,-5.565169334411621
-25.60602569580078,24.66727066040039,-5.813218116760254
