-8.089064598083496,-40.88954162597656,6.459811210632324
-6.940604209899902,-44.382972717285156,6.961997985839844
-5.199215412139893,-45.033939361572266,7.025645732879639
-3.4544429779052734,-46.120601654052734,7.167715072631836
-1.615814208984375,-46.71046447753906,7.243441104888916
0.26483476161956787,-47.26517105102539,7.325196743011475
2.1893770694732666,-47.78553771972656,7.41349458694458
4.159790515899658,-48.26885223388672,7.508357048034668
6.17792272567749,-48.713706970214844,7.610042095184326
8.17214298248291,-48.678367614746094,7.649667263031006
9.483942031860352,-45.26996994018555,7.168177604675293
11.361284255981445,-45.11634826660156,7.210351467132568
13.25976276397705,-44.946441650390625,7.262528419494629
17.057294845581055,-50.28103256225586,8.228658676147461
19.409793853759766,-50.455810546875,8.37819766998291
16.718887329101562,-38.739933013916016,6.539103031158447
6.814719200134277,-14.194358825683594,2.4402096271514893
14.909754753112793,-28.10274887084961,4.93032693862915
16.271671295166016,-27.90131187438965,5.005708694458008
17.86949920654297,-27.99294090270996,5.146879196166992
14.97633171081543,-21.504358291625977,4.061284065246582
10.457891464233398,-13.799333572387695,2.6833620071411133
16.024547576904297,-19.46763038635254,3.907715320587158
17.20038414001465,-19.263715744018555,4.002357482910156
18.43153953552246,-19.044065475463867,4.10736083984375
19.7255802154541,-18.80685043334961,4.223827362060547
14.789055824279785,-13.007098197937012,3.0523269176483154
57.17595672607422,-46.349178314208984,11.406790733337402
60.76759719848633,-45.340003967285156,11.750188827514648
48.26085662841797,-33.076072692871094,9.067412376403809
47.73139190673828,-29.968461990356445,8.73450756072998
47.23737335205078,-27.075748443603516,8.438095092773438
49.53619384765625,-25.807172775268555,8.65640640258789
52.97275161743164,-24.945350646972656,9.074357032775879
56.45991516113281,-23.865787506103516,9.499680519104004
58.01700973510742,-21.820682525634766,9.606306076049805
61.956748962402344,-20.501588821411133,10.113992691040039
86.8783950805664,-24.923789978027344,14.0073823928833
85.64408874511719,-20.885635375976562,13.66196346282959
88.11874389648438,-14.115047454833984,13.83059310913086
88.72796630859375,-10.577364921569824,13.848283767700195
89.33854675292969,-7.024778842926025,13.888283729553223
89.98188018798828,26.18334197998047,14.52364444732666
89.7353744506836,30.07107162475586,14.66714096069336
89.43435668945312,34.024147033691406,14.829537391662598
85.04741668701172,36.33005905151367,14.332728385925293
51.25429916381836,26.94953155517578,8.974413871765137
49.617332458496094,37.313907623291016,9.621411323547363
41.66748809814453,43.37975311279297,9.3218994140625
38.32277297973633,43.248477935791016,8.955376625061035
50.974491119384766,73.78799438476562,13.898953437805176
20.571775436401367,70.71762084960938,11.414011001586914
13.906373023986816,56.119667053222656,8.9603853225708
11.443331718444824,55.672508239746094,8.808416366577148
9.058489799499512,55.23848342895508,8.675117492675781
6.7409348487854,54.815643310546875,8.559236526489258
4.878259181976318,59.227821350097656,9.210114479064941
2.9093353748321533,69.23406219482422,10.739253997802734
0.1247435212135315,68.72212982177734,10.650463104248047
-2.6409053802490234,68.79932403564453,10.670262336730957
-3.742716073989868,47.550445556640625,7.39208459854126
-45.40399169921875,87.13532257080078,15.227437019348145
-43.20471954345703,75.36300659179688,13.462827682495117
-43.00606918334961,68.48484802246094,12.532855033874512
-41.15180587768555,60.03409194946289,11.28000545501709
-35.43574142456055,47.48552322387695,9.182476043701172
-34.48627471923828,42.5351676940918,8.486456871032715
-35.77273941040039,40.66716384887695,8.39391803741455
-38.3125,40.17781448364258,8.603890419006348
-24.949697494506836,24.14344596862793,5.380658149719238
-24.6527156829834,22.00872039794922,5.121654987335205
-24.374107360839844,20.060062408447266,4.892270088195801
-24.110946655273438,18.269649505615234,4.688238143920898
-23.86082649230957,16.614700317382812,4.5060811042785645
-23.748188018798828,15.157181739807129,4.366201877593994
-29.680709838867188,17.306278228759766,5.324704647064209
-29.353744506835938,15.570491790771484,5.149582862854004
-29.32484245300293,14.076032638549805,5.041162967681885
-30.995553970336914,13.373771667480469,5.231713771820068
-32.78841018676758,12.610373497009277,5.444355010986328
-38.229591369628906,12.965614318847656,6.256233215332031
-38.848392486572266,11.457430839538574,6.2770490646362305
-38.52177810668945,9.69739055633545,6.156303405761719
-38.27195739746094,8.014735221862793,6.059990406036377
-37.905052185058594,6.36044454574585,5.956594467163086
-37.61180114746094,4.766977787017822,5.87564754486084
-37.3893928527832,3.2192273139953613,5.815988540649414
-42.5922966003418,1.9480805397033691,6.607786178588867
-16.007034301757812,0.08843033015727997,2.4807822704315186
-38.383663177490234,8.460210800170898,6.4263763427734375
-38.07685089111328,6.801503658294678,6.324118137359619
-37.780086517333984,5.192322254180908,6.2351202964782715
-37.49197769165039,3.6253762245178223,6.158543109893799
-40.722679138183594,2.2917041778564453,6.668703079223633
-16.049808502197266,0.2573707401752472,2.624485492706299
-21.772180557250977,-0.525842010974884,3.56079363822937
-27.248401641845703,-1.7552822828292847,4.464354991912842
-38.381919860839844,-4.026001453399658,6.3098835945129395
-46.53251647949219,-6.78026008605957,7.68841028213501
-45.25572967529297,-8.46324634552002,7.52760124206543
-39.49677658081055,-9.042165756225586,6.624802112579346
-39.300052642822266,-10.675374984741211,6.658413410186768
-42.82869338989258,-13.503211975097656,7.342295169830322
-41.840675354003906,-15.064788818359375,7.270874500274658
-40.82905197143555,-16.582046508789062,7.205109596252441
-39.794288635253906,-18.05647850036621,7.144833087921143
-38.40610885620117,-19.323144912719727,7.029396057128906
-37.33515930175781,-20.70412254333496,6.980091571807861
-34.007164001464844,-20.686992645263672,6.508129596710205
-35.42915725708008,-23.55239486694336,6.955846309661865
-34.26882553100586,-24.82213592529297,6.918381214141846
-29.099536895751953,-22.915061950683594,6.055878162384033
-26.120729446411133,-22.326318740844727,5.618220806121826
-23.540536880493164,-21.817020416259766,5.247666835784912
-21.213224411010742,-21.306861877441406,4.915853023529053
-20.36659049987793,-22.17055320739746,4.922231197357178
-20.100866317749023,-23.72783851623535,5.08444881439209
-19.817157745361328,-25.394855499267578,5.2666850090026855
-20.415647506713867,-28.448158264160156,5.725071430206299
-20.07110595703125,-30.482675552368164,5.9672956466674805
-19.696178436279297,-32.701812744140625,6.241661548614502
-19.285127639770508,-35.14028549194336,6.553805828094482
-18.70551109313965,-37.589908599853516,6.864859580993652
-17.24320411682129,-38.45098876953125,6.889948844909668
-15.752507209777832,-39.281829833984375,6.919755935668945
-14.232620239257812,-40.08232498168945,6.954354763031006
-12.6825590133667,-40.85227966308594,6.993829250335693
-11.101341247558594,-41.59138870239258,7.038273334503174
-9.032425880432129,-40.268638610839844,6.747526168823242
-7.754207611083984,-42.49903106689453,7.063316822052002
-6.097594261169434,-43.17900848388672,7.129825115203857
-4.397784233093262,-43.78392791748047,7.194704532623291
-2.6885175704956055,-44.810279846191406,7.339667797088623
-0.8955261707305908,-45.352108001708984,7.4165263175964355
0.9373934268951416,-45.858272552490234,7.499406337738037
2.811805248260498,-46.327613830566406,7.588517189025879
4.7295918464660645,-46.76081085205078,7.684413433074951
6.632309913635254,-46.731048583984375,7.717105865478516
8.623719215393066,-47.0796012878418,7.82559871673584
10.124754905700684,-44.99212646484375,7.540186882019043
11.931652069091797,-44.57777786254883,7.545042991638184
13.817757606506348,-44.39990234375,7.602819442749023
15.730840682983398,-44.204219818115234,7.67141056060791
17.675941467285156,-43.989803314208984,7.751260280609131
6.6701507568359375,-14.846285820007324,2.661104917526245
14.597879409790039,-29.28434181213379,5.34990930557251
15.285056114196777,-27.805809020996094,5.187870979309082
16.648141860961914,-27.597721099853516,5.269670009613037
15.022303581237793,-22.780414581298828,4.461540699005127
14.153672218322754,-19.693525314331055,3.9652137756347656
10.655641555786133,-13.63520622253418,2.8293659687042236
16.305519104003906,-19.220582962036133,4.1210527420043945
17.486358642578125,-19.008684158325195,4.222939968109131
18.723663330078125,-18.780195236206055,4.335906982421875
20.025144577026367,-18.53318977355957,4.461148262023926
15.038970947265625,-12.836264610290527,3.2327589988708496
55.44941711425781,-43.602474212646484,11.533220291137695
48.56589126586914,-35.126644134521484,9.799829483032227
48.01354217529297,-31.870084762573242,9.422216415405273
47.499977111816406,-28.849653244018555,9.086484909057617
21.29978370666504,-11.792403221130371,3.9806244373321533
49.183921813964844,-24.70297622680664,8.998896598815918
52.32160186767578,-23.696868896484375,9.391084671020508
55.68742370605469,-22.571470260620117,9.824397087097168
57.13784408569336,-20.5277156829834,9.926661491394043
60.92049026489258,-19.160715103149414,10.441564559936523
81.00006103515625,-21.942214965820312,13.72085189819336
67.37205505371094,-12.550796508789062,11.204863548278809
88.30338287353516,-12.80408763885498,14.588618278503418
88.91253662109375,-9.26384449005127,14.615918159484863
75.57206726074219,19.927457809448242,12.778403282165527
88.27176666259766,27.112470626831055,15.097898483276367
87.99380493164062,30.94688606262207,15.250837326049805
85.41419982910156,33.95368576049805,15.028192520141602
51.92156982421875,23.096298217773438,9.291204452514648
50.13565444946289,32.79528045654297,9.795173645019531
49.14577102661133,38.11372756958008,10.16856575012207
37.60858917236328,43.73270797729492,9.430660247802734
49.884647369384766,74.55155181884766,14.666268348693848
21.542329788208008,67.61540222167969,11.6026611328125
15.494662284851074,56.369468688964844,9.558268547058105
12.978103637695312,55.91398620605469,9.384980201721191
10.547090530395508,55.47284698486328,9.232305526733398
8.195810317993164,55.08316421508789,9.105257987976074
5.841301918029785,54.11592102050781,8.899361610412598
4.28316593170166,63.50617599487305,10.406865119934082
1.8745596408843994,68.99916076660156,11.285544395446777
-0.8918157815933228,68.49043273925781,11.199153900146484
-40.94095230102539,83.67927551269531,15.231332778930664
-41.26161575317383,76.39797973632812,14.19647216796875
-42.07271194458008,70.92852783203125,13.483540534973145
-40.8831787109375,63.00891876220703,12.280557632446289
-36.184654235839844,51.14387130737305,10.24329662322998
-35.12436294555664,45.63969039916992,9.416114807128906
-34.94840621948242,41.82132339477539,8.911012649536133
-36.67640686035156,40.467708587646484,8.929561614990234
-24.813568115234375,25.260469436645508,5.789398193359375
-24.523761749267578,23.036672592163086,5.501251697540283
-24.251968383789062,21.012784957885742,5.24653959274292
-23.995283126831055,19.15835189819336,5.020325660705566
-23.751298904418945,17.448579788208008,4.818620204925537
-23.518049240112305,15.863207817077637,4.638165473937988
-25.08785057067871,15.493289947509766,4.821018695831299
-29.585657119750977,16.667699813842773,5.552090167999268
-29.26565170288086,14.971720695495605,5.37473726272583
-29.577852249145508,13.661334991455078,5.326901435852051
-31.25729751586914,12.94009017944336,5.531205177307129
-36.271568298339844,13.33574104309082,6.31853723526001
-39.15996551513672,12.636551856994629,6.727764129638672
-38.82286834716797,10.826495170593262,6.589749336242676
-38.49978256225586,9.086697578430176,6.467670917510986
-38.18887710571289,7.407715797424316,6.3602776527404785
-37.888580322265625,5.781169891357422,6.266491889953613
-37.5974235534668,4.19944429397583,6.185415267944336
-38.47516632080078,2.738344192504883,6.306612968444824
-16.093547821044922,0.49696868658065796,2.632553815841675
-44.280540466308594,-0.4123087525367737,7.2401814460754395
-21.917692184448242,-1.085669755935669,3.587942361831665
-13.150423049926758,-1.1824381351470947,2.158771514892578
-46.85321807861328,-6.118621826171875,7.725546836853027
-45.58360290527344,-7.8265461921691895,7.561990261077881
-44.68735885620117,-9.53506088256836,7.470866680145264
-39.23314666748047,-10.03467845916748,6.621125221252441
-43.187435150146484,-12.91508960723877,7.370133399963379
-42.2082633972168,-14.49343490600586,7.296578407287598
-41.2053108215332,-16.026899337768555,7.2287421226501465
-40.17903518676758,-17.516971588134766,7.166459083557129
-38.7958869934082,-18.803253173828125,7.0488972663879395
-37.73316955566406,-20.19878387451172,6.997703552246094
-35.7649040222168,-21.035747528076172,6.784041881561279
-33.57967758178711,-21.61151123046875,6.5290703773498535
-34.69475173950195,-24.35417938232422,6.930659770965576
-30.321308135986328,-23.156736373901367,6.237947940826416
-27.168991088867188,-22.533418655395508,5.771140098571777
-24.45246696472168,-21.996946334838867,5.377615928649902
-22.08006477355957,-21.529064178466797,5.042147636413574
-20.185558319091797,-21.329498291015625,4.801467418670654
-20.200925827026367,-23.140949249267578,5.022362232208252
-19.924179077148438,-24.7655029296875,5.196898937225342
-20.5361270904541,-27.737903594970703,5.642827987670898
-20.201583862304688,-29.711633682250977,5.874383449554443
-19.83847999572754,-31.85895347595215,6.136291027069092
-19.534461975097656,-34.37549591064453,6.464506149291992
-19.029218673706055,-36.85907745361328,6.782215118408203
-17.786352157592773,-38.1365852355957,6.880139350891113
-16.30622100830078,-38.97861099243164,6.908200740814209
-14.797258377075195,-39.79031753540039,6.941018581390381
-13.258434295654297,-40.57160568237305,6.978679656982422
-11.688820838928223,-41.32212448120117,7.021277904510498
-9.375537872314453,-39.07463836669922,6.570037841796875
-8.052454948425293,-40.70443344116211,6.784163951873779
-6.7161173820495605,-42.94741439819336,7.10725212097168
-5.029566764831543,-43.5644416809082,7.170108795166016
-3.340640068054199,-44.6014518737793,7.312774181365967
-1.562040090560913,-45.15617370605469,7.387461185455322
0.2559356391429901,-45.67561721801758,7.468094348907471
2.114856719970703,-46.15869903564453,7.554877281188965
1.9115146398544312,-22.180585861206055,3.6399734020233154
5.908840656280518,-46.591957092285156,7.678814888000488
7.882950305938721,-46.95576858520508,7.784714698791504
9.459096908569336,-45.151336669921875,7.542520046234131
11.262202262878418,-44.7229118347168,7.540492057800293
13.118500709533691,-44.46760940551758,7.580249309539795
15.021023750305176,-44.27859878540039,7.644798755645752
16.953706741333008,-44.07121276855469,7.720437526702881
16.66869354248047,-38.62362289428711,6.877962112426758
6.819338798522949,-14.2039794921875,2.5761356353759766
14.791215896606445,-27.87932014465332,5.160078048706055
16.14034080505371,-27.67612075805664,5.238336086273193
14.712091445922852,-23.04680824279785,4.470470428466797
14.95114803314209,-21.468198776245117,4.277400016784668
10.459959030151367,-13.8020601272583,2.8314719200134277
15.882418632507324,-19.294967651367188,4.086026191711426
17.04416847229004,-19.088756561279297,4.184088706970215
18.25978660583496,-18.866607666015625,4.2928361892700195
19.536603927612305,-18.62668228149414,4.413394927978516
14.793307304382324,-13.010839462280273,3.2210934162139893
54.235618591308594,-43.96563720703125,11.415175437927246
57.55347442626953,-42.941890716552734,11.74064826965332
48.21263122558594,-33.04302215576172,9.55644416809082
47.68545150756836,-29.939619064331055,9.205925941467285
47.19344711303711,-27.050573348999023,8.893806457519531
48.07747268676758,-25.047224044799805,8.863475799560547
51.13812255859375,-24.08141326904297,9.241777420043945
54.41619110107422,-23.001901626586914,9.659269332885742
56.194183349609375,-21.13509750366211,9.816117286682129
59.487491607666016,-19.684507369995117,10.24488353729248
63.47531509399414,-18.209880828857422,10.796858787536621
85.51351165771484,-20.853782653808594,14.391227722167969
88.0785903930664,-14.108620643615723,14.584457397460938
88.6875,-10.572542190551758,14.603105545043945
89.29768371582031,-7.021568775177002,14.645264625549316
88.36061096191406,25.711578369140625,15.046186447143555
88.1028823852539,29.524003982543945,15.192147254943848
85.66299438476562,32.58938217163086,14.98524284362793
84.98503875732422,36.303401947021484,15.109756469726562
51.20326614379883,26.92269515991211,9.458466529846191
49.55507278442383,37.26708984375,10.137731552124023
41.634498596191406,43.345420837402344,9.826704025268555
38.286041259765625,43.2070198059082,9.438754081726074
50.952728271484375,73.7564926147461,14.656960487365723
20.193500518798828,69.41731262207031,11.820222854614258
13.896624565124512,56.08037567138672,9.4464750289917
11.435462951660156,55.63418960571289,9.28637409210205
9.058801651000977,55.24031066894531,9.152443885803223
6.741212368011475,54.81793975830078,9.030263900756836
4.947776794433594,60.072105407714844,9.855062484741211
2.9074244499206543,69.18875122070312,11.32236385345459
0.1246587336063385,68.67752075195312,11.228811264038086
-2.6391961574554443,68.75496673583984,11.249734878540039
-3.7387380599975586,47.49994659423828,7.790274620056152
-40.553565979003906,86.0999526977539,15.560723304748535
-40.79844284057617,78.29673767089844,14.43521785736084
-41.927371978759766,73.13491821289062,13.783199310302734
-43.14179992675781,68.70096588134766,13.263726234436035
-41.12312698364258,59.992252349853516,11.89197063446045
-35.49509048461914,47.565059661865234,9.70362377166748
-34.53965377807617,42.601009368896484,8.966962814331055
-35.74623107910156,40.637020111083984,8.848915100097656
-24.92582130432129,26.139385223388672,5.905426979064941
-24.628490447998047,23.8326358795166,5.603452205657959
-24.350425720214844,21.738855361938477,5.337028503417969
-24.088459014892578,19.82497787475586,5.100800037384033
-23.84003257751465,18.06437110900879,4.890460014343262
-23.603031158447266,16.435190200805664,4.702497959136963
-24.465576171875,15.615052223205566,4.745436191558838
-25.40764617919922,14.81473159790039,4.8087568283081055
-29.381296157836914,15.585111618041992,5.4378461837768555
-29.029756546020508,13.9343900680542,5.264847278594971
-30.623716354370117,13.213325500488281,5.453178405761719
-35.19847869873047,13.537283897399902,6.165912628173828
-38.180362701416016,12.948917388916016,6.59174919128418
-38.88040542602539,11.46686840057373,6.627662181854248
-38.55290985107422,9.705232620239258,6.50007438659668
-38.30235290527344,8.021099090576172,6.398292064666748
-37.934696197509766,6.36542272567749,6.289048671722412
-37.640811920166016,4.770654201507568,6.203516483306885
-37.41789627075195,3.2216789722442627,6.140469074249268
-42.477783203125,1.9428467750549316,6.952389717102051
-16.019010543823242,0.08849760890007019,2.6191530227661133
-38.414390563964844,8.466987609863281,6.767653942108154
-38.10684585571289,6.806859970092773,6.659879684448242
-37.809425354003906,5.196354389190674,6.5660834312438965
-37.52073669433594,3.6281521320343018,6.485374450683594
-40.61765670776367,2.285792827606201,6.999134540557861
-16.0618839263916,0.2575654089450836,2.7637288570404053
-21.802337646484375,-0.5265677571296692,3.752084255218506
-27.292688369750977,-1.7581348419189453,4.705313682556152
-38.41032409667969,-4.028979778289795,6.644572734832764
-44.96035385131836,-6.551172733306885,7.816890716552734
-43.755062103271484,-8.182605743408203,7.658361911773682
-38.986839294433594,-8.925424575805664,6.881035327911377
-39.16590118408203,-10.638930320739746,6.982486248016357
-41.45378494262695,-13.069725036621094,7.478005886077881
-40.5101432800293,-14.585729598999023,7.407576084136963
-39.542076110839844,-16.059358596801758,7.342685222625732
-38.55006790161133,-17.49192237854004,7.2831807136535645
-37.21424865722656,-18.723487854003906,7.167231559753418
-36.18439483642578,-20.065975189208984,7.1185102462768555
-34.07168197631836,-20.726242065429688,6.8612589836120605
-32.43980026245117,-21.565156936645508,6.701817035675049
-33.22990798950195,-24.06961441040039,7.0592570304870605
-29.141298294067383,-22.94795036315918,6.381524562835693
-26.15550994873047,-22.356046676635742,5.9197211265563965
-23.569795608520508,-21.844146728515625,5.528793811798096
-20.987703323364258,-21.08033561706543,5.117776870727539
-20.38554573059082,-22.191184997558594,5.1843037605285645
-20.12019157409668,-23.750646591186523,5.355326175689697
-19.83689308166504,-25.420143127441406,5.547458171844482
-20.436769485473633,-28.47760009765625,6.030517578125
-20.092750549316406,-30.515562057495117,6.285942554473877
-19.718400955200195,-32.73869705200195,6.5752787590026855
-19.307971954345703,-35.18192672729492,6.904504776000977
-18.142898559570312,-36.45929718017578,7.006371021270752
-16.722719192504883,-37.290367126464844,7.03120231628418
-15.275045394897461,-38.09116744995117,7.060700416564941
-13.799131393432617,-38.86149978637695,7.094928741455078
-12.294149398803711,-39.60116195678711,7.133966445922852
-10.75926685333252,-40.30979919433594,7.1779022216796875
-8.527868270874023,-38.019168853759766,6.703549861907959
-7.519350051879883,-41.211822509765625,7.207354545593262
-5.905450820922852,-41.81840515136719,7.266046047210693
-4.257990837097168,-42.39211654663086,7.330064296722412
-2.6022391319274902,-43.37248611450195,7.475454330444336
-0.8665048480033875,-43.8822021484375,7.551197528839111
0.9066837430000305,-44.35587692260742,7.632818698883057
2.718635320663452,-44.792423248291016,7.720508098602295
4.570764064788818,-45.19051742553711,7.814485549926758
6.406933784484863,-45.14311218261719,7.8444929122924805
8.326708793640137,-45.45811462402344,7.950978755950928
10.187409400939941,-45.27054214477539,7.9833598136901855
12.002575874328613,-44.842716217041016,7.986560344696045
13.824888229370117,-44.42282485961914,8.004298210144043
15.661474227905273,-44.009281158447266,8.036745071411133
17.5195369720459,-43.600582122802734,8.084196090698242
6.651257514953613,-14.804242134094238,2.792252540588379
14.827733993530273,-29.745426177978516,5.718152046203613
15.163532257080078,-27.584714889526367,5.4156012535095215
16.513690948486328,-27.374853134155273,5.500298976898193
15.192577362060547,-23.038633346557617,4.74793004989624
14.782590866088867,-20.568614959716797,4.357853889465332
10.65774917602539,-13.637907981872559,2.977827310562134
16.160560607910156,-19.049711227416992,4.297882556915283
17.32709503173828,-18.835559844970703,4.403173446655273
18.548616409301758,-18.6046199798584,4.51986026763916
19.83257293701172,-18.354965209960938,4.649159908294678
15.043323516845703,-12.839981079101562,3.4026997089385986
52.7036247253418,-41.443321228027344,11.535027503967285
48.516048431396484,-35.09061050415039,10.301420211791992
47.96615219116211,-31.838623046875,9.90487003326416
47.45476531982422,-28.822200775146484,9.552273750305176
21.304285049438477,-11.794896125793457,4.18955135345459
47.57518005371094,-23.894962310791016,9.159483909606934
50.538185119628906,-22.889144897460938,9.545063018798828
53.70481491088867,-21.767871856689453,9.969799041748047
55.988216400146484,-20.11469841003418,10.235300064086914
60.108360290527344,-18.90528106689453,10.840804100036621
80.32196807861328,-21.758533477783203,14.317084312438965
85.07366180419922,-19.41403579711914,15.012802124023438
67.36891174316406,-12.550209045410156,11.789916038513184
88.2630615234375,-12.798238754272461,15.344060897827148
88.8718490600586,-9.259601593017578,15.372760772705078
95.0230941772461,-2.228907585144043,16.352781295776367
75.41693115234375,19.886550903320312,13.418643951416016
86.02185821533203,30.253368377685547,15.688261032104492
85.35173797607422,33.92885208129883,15.802053451538086
51.88326644897461,23.07926368713379,9.769580841064453
50.09666061401367,32.769779205322266,10.299087524414062
49.10893249511719,38.08515548706055,10.691988945007324
37.572505950927734,43.69075393676758,9.914020538330078
49.810543060302734,74.4407958984375,15.409852027893066
21.56673240661621,67.69196319580078,12.222884178161621
15.49467945098877,56.369590759277344,10.057838439941406
12.978281021118164,55.91480255126953,9.875614166259766
10.547351837158203,55.474266052246094,9.715068817138672
8.190278053283691,55.04594421386719,9.574654579162598
5.919395923614502,54.83932113647461,9.489656448364258
4.271056175231934,63.32667922973633,10.919815063476562
1.7949190139770508,66.06849670410156,11.370969772338867
-0.8912362456321716,68.44599914550781,11.776814460754395
-37.413795471191406,84.95501708984375,15.970724105834961
-37.879947662353516,77.42286682128906,14.82905387878418
-38.956275939941406,72.12957000732422,14.103800773620605
-39.975982666015625,67.39372253417969,13.481147766113281
-40.74040603637695,62.78889465332031,12.877240180969238
-36.24892044067383,51.23470687866211,10.797789573669434
-35.181697845458984,45.71422576904297,9.92441177368164
-35.00126647949219,41.88456726074219,9.390909194946289
-36.64891815185547,40.43738555908203,9.38921070098877
-24.486970901489258,24.92798614501953,6.011788368225098
-24.216846466064453,22.74837875366211,5.716320991516113
-23.962343215942383,20.7618350982666,5.454806804656982
-23.720930099487305,18.939306259155273,5.2223052978515625
-23.490530014038086,17.25701904296875,5.01478910446167
-23.269405364990234,15.695502281188965,4.82897424697876
-25.06414794921875,15.47864818572998,5.068188190460205
-29.61411476135254,16.683731079101562,5.8478803634643555
-29.29290008544922,14.98566722869873,5.660906791687012
-29.234317779541016,13.502666473388672,5.540200710296631
-33.46062088012695,13.852230072021484,6.230554580688477
-36.22474670410156,13.318525314331055,6.640181541442871
-39.19278335571289,12.647140502929688,7.085312843322754
-38.854736328125,10.835380554199219,6.939843654632568
-38.53079605102539,9.094017028808594,6.811178207397461
-38.21913528442383,7.413582801818848,6.697987079620361
-37.918155670166016,5.785682678222656,6.599145412445068
-37.62639236450195,4.202681541442871,6.513702392578125
-38.38131332397461,2.731663942337036,6.62003231048584
-16.105693817138672,0.49734461307525635,2.772230386734009
-43.048274993896484,-0.4008299708366394,7.406561851501465
-21.914030075073242,-1.085488200187683,3.7748279571533203
-13.160167694091797,-1.1833140850067139,2.2732808589935303
-45.27326202392578,-5.912291526794434,7.85517692565918
-44.06538009643555,-7.565873622894287,7.692182540893555
-43.21633529663086,-9.221187591552734,7.602541923522949
-38.67873764038086,-9.892877578735352,6.868712902069092
-41.79592514038086,-12.49896240234375,7.505443572998047
-40.8614501953125,-14.030966758728027,7.43292760848999
-39.90231704711914,-15.520096778869629,7.366011142730713
-38.91910934448242,-16.967676162719727,7.304533958435059
-37.588687896728516,-18.218156814575195,7.186498165130615
-36.56731033325195,-19.57469367980957,7.135915279388428
-35.523101806640625,-20.89352035522461,7.090336799621582
-31.98761558532715,-20.586883544921875,6.544571399688721
-33.65415954589844,-23.62372398376465,7.0741400718688965
-30.36613655090332,-23.190975189208984,6.573670864105225
-27.206144332885742,-22.56423568725586,6.081063747406006
-24.48362922668457,-22.024978637695312,5.6658806800842285
-22.1064453125,-21.554784774780273,5.312008380889893
-19.980627059936523,-21.11295509338379,5.00111198425293
-20.220109939575195,-23.162919998168945,5.289867877960205
-19.943758010864258,-24.789840698242188,5.473880767822266
-20.557071685791016,-27.766178131103516,5.943797588348389
-20.223031997680664,-29.743179321289062,6.187960624694824
-19.860485076904297,-31.894283294677734,6.464152812957764
-19.557180404663086,-34.415470123291016,6.810276031494141
-18.66046714782715,-36.144798278808594,6.998369216918945
-17.250228881835938,-36.98704147338867,7.021494388580322
-15.812769889831543,-37.799049377441406,7.0492634773254395
-14.347396850585938,-38.58064270019531,7.081735134124756
-12.853232383728027,-39.331668853759766,7.118987083435059
-11.329496383666992,-40.05181121826172,7.161102294921875
-9.307243347167969,-38.78996276855469,6.863044261932373
-8.069194793701172,-40.789058685302734,7.153569221496582
-6.5051422119140625,-41.5982551574707,7.2437639236450195
-4.870213508605957,-42.18417739868164,7.3057990074157715
-3.2338266372680664,-43.17543411254883,7.448939800262451
-1.511601448059082,-43.698158264160156,7.522560119628906
0.24757170677185059,-44.18525695800781,7.601987838745117
2.0450706481933594,-44.63566207885742,7.687413215637207
1.9127730131149292,-22.195215225219727,3.8327369689941406
5.70902156829834,-45.01633834838867,7.806887149810791
7.612826824188232,-45.34670639038086,7.91086483001709
9.517645835876465,-45.43082809448242,7.9858479499816895
11.331910133361816,-44.999671936035156,7.983685493469238
13.150778770446777,-44.57703399658203,7.996047019958496
14.98125171661377,-44.16132736206055,8.023039817810059
16.830537796020508,-43.751014709472656,8.064909934997559
16.618661880493164,-38.5077018737793,7.215703964233398
6.823976516723633,-14.213638305664062,2.712615728378296
14.67423152923584,-27.658823013305664,5.386814594268799
16.010766983032227,-27.453933715820312,5.467857837677002
14.848679542541504,-23.260770797729492,4.747786045074463
14.925981521606445,-21.43206214904785,4.493375778198242
10.462034225463867,-13.804794311523438,2.9800448417663574
15.74242115020752,-19.124879837036133,4.261674404144287
16.890352249145508,-18.916488647460938,4.363029956817627
18.090749740600586,-18.691957473754883,4.475378513336182
19.350727081298828,-18.44945526123047,4.599867820739746
14.797577857971191,-13.014592170715332,3.390416383743286
51.57606506347656,-41.8097038269043,11.422750473022461
54.65481948852539,-40.779136657714844,11.732036590576172
48.164371490478516,-33.009944915771484,10.0458345413208
47.63946533203125,-29.91074562072754,9.677720069885254
21.361360549926758,-12.244010925292969,4.2360334396362305
46.553253173828125,-24.253141403198242,9.031023025512695
49.42182922363281,-23.273197174072266,9.398399353027344
52.51026153564453,-22.196260452270508,9.808098793029785
55.81938934326172,-20.994138717651367,10.260248184204102
58.15964889526367,-19.245126724243164,10.539685249328613
63.71090316772461,-18.277467727661133,11.403305053710938
80.64204406738281,-19.66580581665039,14.280679702758789
84.66687774658203,-17.076007843017578,14.859848022460938
88.03839874267578,-14.102178573608398,15.339685440063477
88.64695739746094,-10.567712783813477,15.35928726196289
89.25674438476562,-7.018351078033447,15.403611183166504
89.79305267333984,26.128398895263672,16.089218139648438
85.60053253173828,32.56562423706055,15.756926536560059
84.92253875732422,36.27671432495117,15.887755393981934
84.23005676269531,40.05514907836914,16.046512603759766
51.152191162109375,26.895845413208008,9.942873001098633
49.49281311035156,37.22026062011719,10.65416145324707
41.601470947265625,43.31102752685547,10.332077980041504
38.24927520751953,43.165531158447266,9.922518730163574
50.93548583984375,73.73152923583984,15.417763710021973
23.59172821044922,70.41853332519531,12.777008056640625
19.82791519165039,68.16057586669922,12.212811470031738
13.896757125854492,56.080936431884766,9.94028091430664
11.43569564819336,55.63539505004883,9.771921157836914
9.052641868591309,55.202789306640625,9.624238967895508
6.736695766448975,54.78119659423828,9.495847702026367
4.911563396453857,59.6323127746582,10.294203758239746
2.78629732131958,66.30635833740234,11.417767524719238
0.12457513809204102,68.63285064697266,11.807981491088867
-2.637486696243286,68.71054077148438,11.830035209655762
-3.734766960144043,47.44939422607422,8.188697814941406
-36.92380905151367,87.33241271972656,16.312875747680664
-38.182430267333984,81.06568145751953,15.41658878326416
-38.512107849121094,73.90898132324219,14.33842945098877
-39.70669937133789,69.26132202148438,13.735370635986328
-40.28784942626953,64.15619659423828,13.033632278442383
-41.020477294921875,59.84251403808594,12.482239723205566
-35.5547981262207,47.64504623413086,10.227937698364258
-34.59333801269531,42.6672248840332,9.450275421142578
-35.71968460083008,40.606842041015625,9.304473876953125
-24.591262817382812,25.788530349731445,6.130655765533447
-24.31460952758789,23.528894424438477,5.821160793304443
-24.054662704467773,21.474803924560547,5.547745704650879
-23.808677673339844,19.594715118408203,5.305042266845703
-23.574430465698242,17.863113403320312,5.088717937469482
-23.35006332397461,16.259042739868164,4.895233154296875
-24.44281578063965,15.600528717041016,4.988804340362549
-25.606456756591797,14.930652618408203,5.099671840667725
-29.408977508544922,15.59979248046875,5.72743558883667
-28.937881469726562,13.890283584594727,5.522469520568848
-30.25970458984375,13.056269645690918,5.669971942901611
-35.156005859375,13.520950317382812,6.480335235595703
-38.1311149597168,12.932219505310059,6.927309989929199
-38.912559509277344,11.476354598999023,6.9798150062561035
-38.58418273925781,9.713104248046875,6.8453369140625
-38.3328857421875,8.027494430541992,6.7380547523498535
-37.96445846557617,6.370412349700928,6.622922420501709
-37.66994857788086,4.774346351623535,6.532785892486572
-37.446510314941406,3.224144697189331,6.466336250305176
-42.01851272583008,1.9218488931655884,7.236632823944092
-16.031038284301758,0.08856448531150818,2.7581090927124023
-38.44525909423828,8.473785400390625,7.11045503616333
-38.1369743347168,6.812239170074463,6.997132301330566
-37.838897705078125,5.2004008293151855,6.89851188659668
-37.549625396728516,3.630948781967163,6.813654899597168
-40.38153839111328,2.2725181579589844,7.3050312995910645
-16.074012756347656,0.2577595114707947,2.9035799503326416
-21.83266258239746,-0.5273005366325378,3.9444541931152344
-27.33725357055664,-1.7610044479370117,4.947749614715576
-38.4388542175293,-4.031971454620361,6.980718612670898
-43.4567985534668,-6.332096099853516,7.931817531585693
-42.346839904785156,-7.919256210327148,7.781065940856934
-38.3870849609375,-8.788117408752441,7.112649917602539
-41.03778076171875,-11.147392272949219,7.680621147155762
-40.160831451416016,-12.662075996398926,7.605625152587891
-39.258155822753906,-14.1349515914917,7.536208629608154
-38.330379486083984,-15.567251205444336,7.4722137451171875
-37.37805938720703,-16.96012306213379,7.4135003089904785
-36.091026306152344,-18.158361434936523,7.297128200531006
-35.09946823120117,-19.46432876586914,7.2490105628967285
-34.08474349975586,-20.734172821044922,7.2057785987854
-31.888805389404297,-21.198867797851562,6.916133880615234
-32.261924743652344,-23.36845588684082,7.194992542266846
-29.18331527709961,-22.981033325195312,6.70904541015625
-26.19048500061035,-22.38593864440918,6.222887992858887
-23.599233627319336,-21.871423721313477,5.811430931091309
-21.651782989501953,-21.74734878540039,5.542692184448242
-20.404590606689453,-22.211915969848633,5.447615623474121
-20.139604568481445,-23.773582458496094,5.627501487731934
-19.85672378540039,-25.445556640625,5.829598426818848
-20.45800018310547,-28.507173538208008,6.3374714851379395
-20.1145076751709,-30.548599243164062,6.606186389923096
-19.740734100341797,-32.775779724121094,6.910613536834717
-18.965871810913086,-34.558555603027344,7.119977951049805
-17.611644744873047,-35.3917350769043,7.139989376068115
-16.23138427734375,-36.19472122192383,7.164551258087158
-14.824406623840332,-36.96743392944336,7.193718910217285
-13.390130043029785,-37.70965576171875,7.2275567054748535
-11.927803993225098,-38.421112060546875,7.26614236831665
-9.783651351928711,-36.654632568359375,6.852142810821533
-8.544560432434082,-38.09360885620117,7.051231384277344
-7.2908101081848145,-39.95926284790039,7.336386203765869
-5.724558353424072,-40.537376403808594,7.394299507141113
-4.168858528137207,-41.50481033325195,7.534107685089111
-2.5211188793182373,-42.02035903930664,7.603150844573975
-0.8392286896705627,-42.5007438659668,7.677764415740967
0.8778391480445862,-42.94491958618164,7.758111000061035
2.6311986446380615,-43.35171127319336,7.844375133514404
4.422022819519043,-43.719905853271484,7.936751365661621
6.195798873901367,-43.65543746948242,7.96383810043335
8.048705101013184,-43.94039535522461,8.068334579467773
10.032476425170898,-44.58204650878906,8.253545761108398
11.986093521118164,-44.78117370605469,8.372859954833984
13.98371696472168,-44.933143615722656,8.499521255493164
7.828794479370117,-21.999202728271484,4.217483043670654
17.630338668823242,-43.87631607055664,8.540544509887695
6.632415294647217,-14.76230525970459,2.9230306148529053
15.0656156539917,-30.2226505279541,6.099284648895264
15.04356861114502,-27.366491317749023,5.640372276306152
16.381025314331055,-27.154926300048828,5.72788143157959
15.165523529052734,-22.997602462768555,4.975548267364502
14.758429527282715,-20.534997940063477,4.567440032958984
10.659867286682129,-13.640615463256836,3.1267738342285156
16.01775550842285,-18.88137435913086,4.4720892906188965
17.170269012451172,-18.665077209472656,4.580656051635742
18.376323699951172,-18.43180274963379,4.700920581817627
19.643129348754883,-18.179637908935547,4.834113597869873
15.047694206237793,-12.843711853027344,3.5732250213623047
50.210174560546875,-39.48260498046875,11.536664962768555
48.46615219116211,-35.05450439453125,10.803410530090332
47.91872787475586,-31.807161331176758,10.387946128845215
47.409515380859375,-28.794719696044922,10.018507957458496
21.30880355834961,-11.797395706176758,4.399165153503418
46.34946823120117,-23.27934455871582,9.367982864379883
48.867740631103516,-22.132577896118164,9.689291954040527
51.85343551635742,-21.01744842529297,10.105581283569336
55.04511260986328,-19.775875091552734,10.564119338989258
60.193992614746094,-18.932212829589844,11.396993637084961
80.37103271484375,-21.77181625366211,15.039392471313477
84.61035919189453,-19.30832290649414,15.674758911132812
67.36576843261719,-12.549623489379883,12.376593589782715
83.74405670166016,-12.142980575561523,15.283607482910156
88.77037048339844,-9.249024391174316,16.120044708251953
97.82115173339844,-6.233187198638916,17.703784942626953
94.97914123535156,-2.2278685569763184,17.15937042236328
75.28410339355469,19.851530075073242,14.062216758728027
87.04266357421875,30.612384796142578,16.66513442993164
66.29749298095703,26.35442543029785,12.885723114013672
51.84490966796875,23.06220054626465,10.248620986938477
75.749267578125,37.40999221801758,15.258978843688965
66.5709457397461,36.27370834350586,13.692795753479004
50.057621002197266,32.744239807128906,10.803657531738281
49.07204055786133,38.05654525756836,11.216121673583984
37.53639602661133,43.64875793457031,10.397832870483398
49.74101257324219,74.33689880371094,16.154834747314453
37.43806457519531,81.85232543945312,16.256759643554688
21.5528507232666,67.64844512939453,12.82345199584961
15.483659744262695,56.32948684692383,10.551305770874023
12.969223976135254,55.8757438659668,10.360278129577637
10.54011058807373,55.43614959716797,10.191964149475098
8.184724807739258,55.008663177490234,10.044758796691895
5.904850006103516,54.704559326171875,9.937851905822754
4.258970260620117,63.14773941040039,11.4313325881958
1.7763192653656006,65.38308715820312,11.813518524169922
-0.8906682729721069,68.40149688720703,12.355375289916992
-31.767478942871094,91.40876770019531,17.4783878326416
-33.83343505859375,86.03994750976562,16.698406219482422
-34.623382568359375,78.61888122558594,15.515763282775879
-35.9153938293457,73.40753173828125,14.760313034057617
-37.07765197753906,68.65116119384766,14.092287063598633
-38.084228515625,64.20454406738281,13.482901573181152
-38.829708099365234,59.844173431396484,12.884645462036133
-36.3135986328125,51.32613754272461,11.355854034423828
-35.239383697509766,45.789154052734375,10.43582534790039
-34.979496002197266,41.85850143432617,9.85253620147705
-36.62140655517578,40.40702438354492,9.849485397338867
-24.1679630279541,24.603227615356445,6.229012489318848
-23.91666603088379,22.466388702392578,5.926661491394043
-23.67874526977539,20.516115188598633,5.658736228942871
-23.452024459838867,18.72460174560547,5.4202775955200195
-23.234697341918945,17.069072723388672,5.207239627838135
-23.02527618408203,15.530829429626465,5.016317367553711
-25.0403995513916,15.463994979858398,5.3155951499938965
-26.01883888244629,14.658248901367188,5.393838882446289
-29.32027816772461,14.99967098236084,5.948427677154541
-28.973772048950195,13.382322311401367,5.764321327209473
-33.421730041503906,13.836133003234863,6.533296585083008
-36.25592041015625,13.329973220825195,6.976925373077393
-39.207096099853516,12.651756286621094,7.440946102142334
-38.84806823730469,10.833520889282227,7.284263610839844
-38.561954498291016,9.1013765335083,7.156225681304932
-38.2495231628418,7.419474124908447,7.037203788757324
-37.94786071777344,5.790214538574219,6.933276176452637
-37.655494689941406,4.2059326171875,6.843437671661377
-38.28764724731445,2.7249984741210938,6.932812213897705
-16.11789321899414,0.49772223830223083,2.912519693374634
-41.46083450317383,-0.38604915142059326,7.488753318786621
-21.910358428955078,-1.0853065252304077,3.962189197540283
-13.169953346252441,-1.1841939687728882,2.3882880210876465
-43.560264587402344,-5.688596248626709,7.934424877166748
-42.64111328125,-7.321331977844238,7.8143181800842285
-41.83526611328125,-8.926504135131836,7.7261643409729
-38.081058502197266,-9.740007400512695,7.099413871765137
-40.4876594543457,-12.107728958129883,7.632659435272217
-39.59441375732422,-13.595890045166016,7.5612006187438965
-38.67583084106445,-15.043050765991211,7.495220184326172
-37.732505798339844,-16.450353622436523,7.434573173522949
-36.521263122558594,-17.700809478759766,7.330209732055664
-35.468284606933594,-18.98638153076172,7.266202926635742
-34.46208953857422,-20.26946449279785,7.22117805480957
-31.4244441986084,-20.22442626953125,6.749593734741211
-30.64478874206543,-21.511287689208984,6.76242733001709
-30.411235809326172,-23.225412368774414,6.911350727081299
-27.243520736694336,-22.595230102539062,6.392730236053467
-24.514965057373047,-22.053163528442383,5.955708980560303
-22.13295555114746,-21.58064079284668,5.583284854888916
-20.680496215820312,-21.85247802734375,5.434118270874023
-20.2393856048584,-23.18499755859375,5.5586466789245605
-19.96343231201172,-24.814294815063477,5.752201080322266
-20.578115463256836,-27.794626235961914,6.246249675750732
-20.244586944580078,-29.774887084960938,6.503105640411377
-19.882598876953125,-31.9298038482666,6.7936906814575195
-19.459373474121094,-34.243350982666016,7.113732814788818
-18.114681243896484,-35.087615966796875,7.132072448730469
-16.74406623840332,-35.90176773071289,7.154949188232422
-15.347006797790527,-36.6856803894043,7.182409286499023
-13.922908782958984,-37.439186096191406,7.214517116546631
-12.471009254455566,-38.16203689575195,7.251340389251709
-10.99065113067627,-38.85392761230469,7.29295539855957
-8.787254333496094,-36.62282180786133,6.802366733551025
-7.861195087432861,-39.73760986328125,7.316298961639404
-6.3064446449279785,-40.3277587890625,7.372318267822266
-4.7202372550964355,-40.885101318359375,7.433507442474365
-3.133361577987671,-41.83407974243164,7.577020645141602
-1.464194893836975,-42.327545166015625,7.649559020996094
0.23973804712295532,-42.78520965576172,7.7277679443359375
1.9795677661895752,-43.20595169067383,7.811826229095459
1.9140413999557495,-22.209901809692383,4.026308536529541
5.571455478668213,-43.93163299560547,7.99826192855835
7.359886169433594,-43.840087890625,8.02898120880127
9.322017669677734,-44.49700164794922,8.211294174194336
11.259718894958496,-44.7130241394043,8.327966690063477
13.240952491760254,-44.88265609741211,8.451882362365723
7.568172931671143,-22.309246063232422,4.254925727844238
16.93671417236328,-44.027034759521484,8.52003288269043
16.568784713745117,-38.3921012878418,7.5523762702941895
6.8286356925964355,-14.223337173461914,2.849675416946411
14.55875301361084,-27.441165924072266,5.610628604888916
15.882885932922363,-27.234663009643555,5.694366931915283
15.105179786682129,-23.662582397460938,5.070373058319092
14.90082836151123,-21.39593505859375,4.709238052368164
10.464109420776367,-13.807538032531738,3.1291017532348633
15.60446834564209,-18.957290649414062,4.4347429275512695
16.73885726928711,-18.746816635131836,4.539268970489502
17.924352645874023,-18.52002716064453,4.655080795288086
19.167827606201172,-18.27507781982422,4.783344268798828
14.801857948303223,-13.018359184265137,3.560324192047119
49.1585693359375,-39.84998321533203,11.429636001586914
48.6792106628418,-36.32061767578125,10.969815254211426
48.11607360839844,-32.97684860229492,10.535639762878418
47.593441009521484,-29.881847381591797,10.149947166442871
21.30449867248535,-12.211416244506836,4.4351911544799805
46.51336669921875,-24.232357025146484,9.472733497619629
47.81254196166992,-22.515369415283203,9.545257568359375
50.7284049987793,-21.44306182861328,9.947237968444824
53.84101867675781,-20.250057220458984,10.389551162719727
58.24021530151367,-19.27177619934082,11.079991340637207
63.80638122558594,-18.304859161376953,11.989242553710938
80.22042846679688,-19.562992095947266,14.913619041442871
84.60154724121094,-17.062837600708008,15.58797836303711
83.97239685058594,-13.450874328613281,15.360010147094727
88.54576873779297,-10.555646896362305,16.105924606323242
89.21573638916016,-7.0151262283325195,16.163434982299805
89.72820281982422,26.109527587890625,16.8784236907959
86.0676498413086,32.74333953857422,16.63204574584961
65.84849548339844,28.12874984741211,12.932899475097656
84.68855285644531,40.27318572998047,16.937482833862305
51.10108184814453,26.868967056274414,10.427695274353027
49.43052673339844,37.17341613769531,11.170767784118652
41.56839370727539,43.27659606933594,10.838092803955078
38.21248245239258,43.12400436401367,10.40673542022705
50.92359924316406,73.7143325805664,16.18194580078125
23.325838088989258,69.62489318847656,13.262253761291504
19.88765525817871,68.36590576171875,12.859749794006348
13.886999130249023,56.041507720947266,10.42806625366211
11.427797317504883,55.59694290161133,10.251571655273438
9.04647159576416,55.16520309448242,10.096742630004883
6.732173919677734,54.74440383911133,9.962139129638672
4.898413181304932,59.472633361816406,10.778016090393066
2.7572693824768066,65.61568450927734,11.8616304397583
0.12448477745056152,68.5881118774414,12.388052940368652
-2.635784864425659,68.6660385131836,12.411243438720703
-3.7307865619659424,47.39881896972656,8.587410926818848
-30.77600860595703,92.98200988769531,17.68995475769043
-33.242645263671875,88.36469268798828,17.051992416381836
-34.76665496826172,82.23031616210938,16.124923706054688
-35.53449249267578,75.4438247680664,15.062095642089844
-36.641387939453125,70.31890869140625,14.321451187133789
-37.72257614135742,65.80042266845703,13.698987007141113
-38.63865280151367,61.52998733520508,13.122734069824219
-37.804969787597656,55.15157699584961,12.076796531677246
-23.522449493408203,31.52115249633789,7.103675842285156
-34.647342681884766,42.733829498291016,9.936476707458496
-35.693092346191406,40.57661437988281,9.760659217834473
-24.2646427154541,25.445999145507812,6.350537300109863
